1.50495 -0.266682 -0.123077 0.198479 0.967257 0.0794325
1.55912 -0.287393 -0.0735767 0.265178 0.956464 0.0682989
1.53995 -0.280567 -0.0826327 0.239148 0.961183 0.0736958
1.52003 -0.285588 0.0251546 0.153685 0.904923 0.09541
1.49011 -0.278345 0.0182649 0.0951413 0.933198 0.110702
1.51917 -0.284769 0.0165018 0.154317 0.931328 0.0976596
1.52078 -0.285214 0.0176223 0.157272 0.927536 0.0966741
1.52609 -0.285943 0.0111174 0.169794 0.945907 0.0956108
-0.154177 0.344867 -0.0530947 -3.47187e-05 -0.85934 0.058583
-0.288936 0.346896 -0.0149984 -3.74503e-05 -0.741912 0.0632256
-0.522402 0.345771 -0.0362904 -3.31784e-05 -0.920394 0.0561693
-0.928928 0.350591 0.0541426 -3.88924e-05 -0.673308 0.0659383
-0.0396414 0.348474 0.0148374 -4.27442e-05 -0.520266 0.0719885
-0.866676 0.350646 0.0552089 -3.95559e-05 -0.645892 0.0670222
-0.72843 0.347731 0.000456187 -3.51372e-05 -0.834919 0.0595487
-0.0388705 0.342957 -0.0889576 -3.20445e-05 -0.974105 0.0540456
-0.203251 0.348572 0.0165845 -4.14698e-05 -0.572417 0.0699268
-0.338759 0.34917 0.0277659 -4.14185e-05 -0.57302 0.069903
-0.047952 0.344806 -0.0541702 -3.55521e-05 -0.825223 0.0599318
-0.47787 0.348472 0.0145399 -3.88175e-05 -0.681728 0.0656052
-0.688161 0.350577 0.0540163 -4.10199e-05 -0.585867 0.0693952
-0.412969 0.34903 0.0250728 -4.04809e-05 -0.611925 0.0683649
-0.0217082 0.348942 0.0236621 -4.38139e-05 -0.475102 0.0737741
-0.846529 0.349155 0.0271744 -3.68432e-05 -0.761184 0.062464
-0.168969 0.345005 -0.0505061 -3.48542e-05 -0.85342 0.058817
-0.0515301 0.347049 -0.0119687 -3.98734e-05 -0.641892 0.0671799
-0.144782 0.347661 -0.000508466 -4.02265e-05 -0.625832 0.0678149
-0.69214 0.349332 0.0305921 -3.85683e-05 -0.689806 0.0652859
-0.353183 0.346719 -0.0183535 -3.6533e-05 -0.780072 0.061717
-0.752664 0.34883 0.0211229 -3.70535e-05 -0.753355 0.0627734
-0.571479 0.349215 0.0284606 -3.94212e-05 -0.655033 0.0666606
-0.070847 0.346489 -0.0225189 -3.86134e-05 -0.69511 0.0650759
-0.915323 0.349971 0.0424893 -3.78113e-05 -0.719321 0.0641191
-0.46195 0.348596 0.0168816 -3.92006e-05 -0.665664 0.0662403
-0.230607 0.348809 0.0210337 -4.16856e-05 -0.562948 0.0703011
-0.348203 0.34636 -0.0251134 -3.588e-05 -0.807828 0.0606196
-0.297939 0.349456 0.0331683 -4.23387e-05 -0.534465 0.0714272
-0.328052 0.349332 0.0308161 -4.18283e-05 -0.555762 0.0705853
-0.0527635 0.349338 0.0310876 -4.43037e-05 -0.453964 0.0746098
-0.454752 0.347041 -0.012371 -3.62471e-05 -0.791018 0.0612843
-0.102531 0.346266 -0.0267312 -3.78972e-05 -0.72512 0.0638894
-0.243856 0.350197 0.0471295 -4.42596e-05 -0.453617 0.0746236
-0.32114 0.346587 -0.0208344 -3.6562e-05 -0.779216 0.0617508
-0.231366 0.349346 0.0311323 -4.27205e-05 -0.519042 0.072037
-0.258956 0.34497 -0.0512167 -3.39809e-05 -0.889417 0.0573939
-0.724682 0.34886 0.0216884 -3.73606e-05 -0.740654 0.0632756
-0.521402 0.348606 0.017031 -3.86874e-05 -0.686739 0.0654071
-0.184479 0.344322 -0.0633516 -3.33913e-05 -0.91529 0.0563709
-0.917104 0.350576 0.0538682 -3.89693e-05 -0.670187 0.0660616
-0.224051 0.350047 0.0443186 -4.41457e-05 -0.458677 0.0744236
-0.210947 0.347453 -0.00446115 -3.92306e-05 -0.667307 0.0661752
-0.558187 0.348341 0.0120274 -3.78443e-05 -0.722074 0.0640101
-0.510119 0.346424 -0.0240136 -3.4554e-05 -0.862192 0.0584704
-0.595786 0.34736 -0.00645055 -3.5604e-05 -0.816659 0.0602706
-0.520464 0.347126 -0.0107969 -3.58253e-05 -0.808147 0.0606071
-0.31487 0.344471 -0.0606392 -3.25119e-05 -0.951077 0.0549562
-0.436682 0.348075 0.00709818 -3.8416e-05 -0.699233 0.0649131
-0.533537 0.34693 -0.0144939 -3.53277e-05 -0.8291 0.0597787
-0.7348 0.349967 0.0425206 -3.94195e-05 -0.653208 0.0667329
-0.910107 0.349884 0.0408574 -3.76894e-05 -0.724554 0.0639122
-0.918591 0.348367 0.0123105 -3.46693e-05 -0.852553 0.0588517
-0.617731 0.349953 0.0423322 -4.04409e-05 -0.611247 0.0683918
-0.132731 0.346244 -0.0271671 -3.75838e-05 -0.738064 0.0633777
-0.082353 0.349378 0.0318296 -4.41172e-05 -0.461532 0.0743106
-0.245697 0.345276 -0.0454415 -3.46945e-05 -0.859304 0.0585844
-0.174215 0.347474 -0.00405779 -3.95987e-05 -0.652118 0.0667757
-0.341639 0.34687 -0.0155237 -3.69276e-05 -0.763472 0.0623733
-0.137918 0.350421 0.0514076 -4.56427e-05 -0.396182 0.0768943
-1.28766 0.35048 0.0518321 -3.54649e-05 -0.814522 0.0603554
-0.818736 0.348543 0.0156749 -3.59041e-05 -0.801338 0.0608764
-0.383519 0.348392 0.0130875 -3.95065e-05 -0.653599 0.0667172
-0.522247 0.34806 0.00676717 -3.76212e-05 -0.731953 0.0636195
-0.0720521 0.345306 -0.0447765 -3.63068e-05 -0.792932 0.0612084
-0.380532 0.345916 -0.0334873 -3.47288e-05 -0.85628 0.058704
-0.5137 0.350316 0.0492174 -4.20759e-05 -0.543102 0.0710859
-0.280929 0.346809 -0.0166283 -3.73533e-05 -0.746117 0.0630594
-0.0951562 0.344406 -0.0617211 -3.43536e-05 -0.875511 0.0579436
-0.458926 0.347393 -0.00574038 -3.6894e-05 -0.763534 0.0623709
-0.666179 0.348171 0.00876448 -3.65476e-05 -0.775818 0.0618853
-0.137666 0.349398 0.03217 -4.36606e-05 -0.480258 0.0735703
-0.10245 0.349303 0.030394 -4.37905e-05 -0.475158 0.0737719
-0.708799 0.348239 0.0100185 -3.62981e-05 -0.785907 0.0614865
-0.502616 0.350598 0.0545279 -4.27223e-05 -0.515817 0.0721646
-1.10307 0.349461 0.0327718 -3.51399e-05 -0.830453 0.0597255
-0.0550921 0.345773 -0.0359789 -3.73651e-05 -0.748242 0.0629753
-0.572838 0.347353 -0.00657348 -3.57953e-05 -0.80881 0.0605809
-0.788241 0.347241 -0.00879444 -3.36512e-05 -0.897251 0.0570844
-0.461036 0.346018 -0.0316219 -3.42055e-05 -0.877541 0.0578635
-0.619948 0.349499 0.0337842 -3.95394e-05 -0.649456 0.0668811
-0.437645 0.345136 -0.0482021 -3.27032e-05 -0.941534 0.0553335
-0.178407 0.344268 -0.0643758 -3.33396e-05 -0.917552 0.0562815
-0.632047 0.33959 -0.152658 -3.311e-05 -0.998427 0.0558551
-0.353995 0.337046 -0.200354 -3.45792e-05 -0.998287 0.0582428
-0.0960581 0.33983 -0.147822 -3.30152e-05 -0.99844 0.0556301
-0.729339 0.340175 -0.141699 -3.27692e-05 -0.998459 0.0553055
-0.645786 0.341957 -0.108128 -3.1762e-05 -0.998558 0.0536334
-0.0593348 0.337617 -0.189433 -3.42772e-05 -0.998318 0.0577069
-0.387004 0.340781 -0.130101 -3.24513e-05 -0.998493 0.0547373
-0.578999 0.34164 -0.114056 -3.19477e-05 -0.99854 0.0539311
-0.116833 0.336277 -0.214681 -3.50352e-05 -0.998244 0.0589646
-0.252093 0.339097 -0.161694 -3.34198e-05 -0.9984 0.0563173
-1.18382 0.342254 -0.10286 -3.1551e-05 -0.998574 0.0533542
-0.0978661 0.335063 -0.237504 -3.57273e-05 -0.998177 0.0601037
-0.212707 0.338482 -0.173243 -3.37728e-05 -0.998366 0.0568947
-0.77891 0.342073 -0.106018 -3.16854e-05 -0.998564 0.0535241
-0.776939 0.340298 -0.139412 -3.26955e-05 -0.998466 0.0551899
-0.580086 0.342547 -0.0969928 -3.14315e-05 -0.99859 0.0530799
-0.700053 0.340713 -0.13157 -3.24657e-05 -0.998489 0.0548011
-0.042073 0.3362 -0.216077 -3.50846e-05 -0.99824 0.0590365
-0.522926 0.339175 -0.160389 -3.33543e-05 -0.998404 0.056244
-0.26285 0.33928 -0.158274 -3.33153e-05 -0.99841 0.0561464
-0.370427 0.342468 -0.0983406 -3.14924e-05 -0.998586 0.0531535
-0.749129 0.34241 -0.0996655 -3.14961e-05 -0.998583 0.0532081
-0.150809 0.340951 -0.12677 -3.23733e-05 -0.998502 0.0545783
-0.254573 0.33783 -0.185548 -3.4141e-05 -0.99833 0.0575072
-0.26576 0.342089 -0.105411 -3.17163e-05 -0.998565 0.0535094
-0.737421 0.339296 -0.158251 -3.3269e-05 -0.998411 0.0561309
-0.314823 0.340641 -0.132683 -3.25364e-05 -0.998485 0.0548683
-0.50998 0.338843 -0.166635 -3.35444e-05 -0.998386 0.056556
-0.184913 0.338166 -0.179172 -3.39548e-05 -0.998348 0.0571913
-0.492319 0.337897 -0.184419 -3.4084e-05 -0.998334 0.0574437
-0.311087 0.337308 -0.195391 -3.44332e-05 -0.998301 0.0579965
-0.0677293 0.334957 -0.239491 -3.57903e-05 -0.998171 0.0602037
-0.197418 0.339323 -0.157416 -3.32956e-05 -0.998412 0.0561056
-0.0288126 0.334701 -0.24427 -3.59386e-05 -0.998157 0.0604433
-0.359169 0.338222 -0.178222 -3.39094e-05 -0.998352 0.0571386
-0.536098 0.339652 -0.151429 -3.3082e-05 -0.99843 0.0557967
-0.296542 0.339635 -0.151604 -3.31104e-05 -0.99843 0.0558127
-0.37716 0.338832 -0.16677 -3.35613e-05 -0.998385 0.0565668
-0.0462536 0.336164 -0.216768 -3.51051e-05 -0.998238 0.0590709
-0.156079 0.341363 -0.119013 -3.21382e-05 -0.998525 0.0541912
-1.0257 0.341351 -0.119762 -3.20773e-05 -0.998524 0.0542022
-0.266432 0.337856 -0.185051 -3.41248e-05 -0.998331 0.057482
-0.363496 0.338994 -0.163704 -3.34699e-05 -0.998394 0.0564143
-0.540071 0.337641 -0.189261 -3.42258e-05 -0.998319 0.0576837
-0.35861 0.342513 -0.0974985 -3.14681e-05 -0.998588 0.0531119
-0.68064 0.340225 -0.140731 -3.27446e-05 -0.998462 0.0552586
-0.217503 0.341211 -0.121908 -3.22198e-05 -0.998516 0.0543337
-0.781066 0.339743 -0.149859 -3.3011e-05 -0.998435 0.0557109
-0.656475 0.341331 -0.119918 -3.21175e-05 -0.998523 0.0542211
-0.98927 0.341715 -0.112878 -3.18726e-05 -0.998544 0.0538599
-0.455782 0.33897 -0.164215 -3.34765e-05 -0.998393 0.0564369
-0.554201 0.342044 -0.106439 -3.17197e-05 -0.998562 0.0535519
-0.159383 0.337462 -0.19241 -3.43576e-05 -0.99831 0.0578524
-0.536575 0.341787 -0.111264 -3.18673e-05 -0.998548 0.0537931
-0.428693 0.339892 -0.146843 -3.29537e-05 -0.998444 0.0555712
-0.0792231 0.335346 -0.232172 -3.55679e-05 -0.998193 0.0598383
-0.249666 0.340005 -0.144611 -3.29034e-05 -0.99845 0.0554653
-0.165217 0.335579 -0.227833 -3.54284e-05 -0.998206 0.0596192
-0.920645 0.34173 -0.112558 -3.18695e-05 -0.998545 0.053846
-0.656681 0.340052 -0.143983 -3.28453e-05 -0.998453 0.0554216
-0.581892 0.338999 -0.163738 -3.34499e-05 -0.998394 0.0564093
-0.0585441 0.337259 -0.196173 -3.44811e-05 -0.998298 0.0580431
-0.361067 0.33962 -0.151922 -3.31138e-05 -0.998429 0.0558266
-0.469453 0.338214 -0.178439 -3.39053e-05 -0.998351 0.0571461
-0.349282 0.337002 -0.201179 -3.46046e-05 -0.998284 0.058284
-1.21896 0.341798 -0.111458 -3.18076e-05 -0.998549 0.053782
-0.0411865 0.342162 -0.103911 -3.16925e-05 -0.998569 0.0534414
-0.146657 0.33727 -0.196014 -3.44678e-05 -0.998299 0.0580325
-0.100871 0.340446 -0.136226 -3.26641e-05 -0.998474 0.0550515
-0.810326 0.340051 -0.144094 -3.28339e-05 -0.998452 0.0554225
-0.872255 0.342528 -0.0975144 -3.14192e-05 -0.998589 0.053097
-0.549846 0.337806 -0.186164 -3.41312e-05 -0.998329 0.0575289
-0.226732 0.338499 -0.172946 -3.37625e-05 -0.998367 0.0568794
-0.936655 0.340845 -0.129226 -3.23721e-05 -0.998496 0.054677
-0.144602 0.338398 -0.17479 -3.38262e-05 -0.998361 0.0569739
-0.0697162 0.338792 -0.167332 -3.36078e-05 -0.998383 0.0566041
-0.519922 0.337631 -0.189449 -3.42335e-05 -0.998319 0.0576937
-0.235239 0.337769 -0.186678 -3.4177e-05 -0.998326 0.0575641
-0.124785 0.335739 -0.224811 -3.53409e-05 -0.998214 0.0594697
-0.558337 0.341185 -0.122602 -3.22081e-05 -0.998515 0.054358
-0.877839 0.340872 -0.128676 -3.23611e-05 -0.998498 0.0546513
-0.856894 0.341531 -0.116267 -3.19878e-05 -0.998534 0.054033
-0.0886883 0.337673 -0.188393 -3.42429e-05 -0.998321 0.0576541
-0.415956 0.341693 -0.112959 -3.19301e-05 -0.998543 0.0538813
-1.02878 0.340562 -0.134603 -3.25259e-05 -0.998481 0.0549424
-0.506273 0.341086 -0.124424 -3.22682e-05 -0.99851 0.0544505
-0.270559 0.337938 -0.183512 -3.40779e-05 -0.998336 0.0574052
-0.436296 0.340532 -0.134815 -3.25892e-05 -0.998479 0.054971
-0.591311 0.333602 -0.262472 -3.67148e-05 -0.998072 0.0618996
-0.702368 0.33291 -0.273268 -3.68505e-05 -0.998057 0.0621619
-0.125855 0.326109 -0.378374 -3.64198e-05 -0.998112 0.0613332
-0.227399 0.332085 -0.285786 -3.63697e-05 -0.998113 0.0612343
-0.223472 0.326487 -0.372576 -3.65131e-05 -0.998101 0.0615132
-0.0555155 0.329211 -0.330243 -3.62636e-05 -0.998127 0.0610306
-0.197728 0.332757 -0.275338 -3.63206e-05 -0.998118 0.0611392
-0.497461 0.333593 -0.262559 -3.66157e-05 -0.998083 0.0617085
-0.600867 0.329952 -0.319072 -3.68211e-05 -0.998063 0.0621063
-0.0808327 0.329157 -0.331086 -3.62918e-05 -0.998124 0.061085
-0.454168 0.334085 -0.25491 -3.65569e-05 -0.99809 0.0615948
-0.454254 0.331071 -0.30163 -3.66365e-05 -0.998083 0.0617495
-0.199375 0.333585 -0.262507 -3.63005e-05 -0.998119 0.0611001
-1.21898 0.333898 -0.258263 -3.73711e-05 -0.997997 0.0631663
-0.326674 0.330065 -0.317158 -3.6528e-05 -0.998097 0.0615405
-0.13437 0.334429 -0.249382 -3.62095e-05 -0.998129 0.0609241
-0.205118 0.329824 -0.320821 -3.64057e-05 -0.998111 0.0613046
-0.421834 0.333133 -0.269649 -3.65478e-05 -0.998092 0.0615776
-0.32762 0.333485 -0.264139 -3.64389e-05 -0.998104 0.0613672
-0.0165662 0.328641 -0.339059 -3.62374e-05 -0.998131 0.0609803
-0.266346 0.329761 -0.321827 -3.64722e-05 -0.998103 0.0614329
-0.441583 0.331091 -0.301315 -3.66225e-05 -0.998085 0.0617226
-0.32282 0.32749 -0.357071 -3.65918e-05 -0.998092 0.0616646
-0.430189 0.331532 -0.294473 -3.65989e-05 -0.998087 0.0616767
-0.248652 0.330887 -0.304361 -3.64238e-05 -0.998108 0.061339
-0.403912 0.328872 -0.335704 -3.66412e-05 -0.998085 0.0617594
-0.102267 0.329051 -0.332738 -3.63173e-05 -0.998121 0.0611342
-0.257214 0.326899 -0.366209 -3.6538e-05 -0.998098 0.061561
-1.15899 0.333998 -0.256674 -3.7305e-05 -0.998005 0.0630387
-0.327339 0.331199 -0.299569 -3.64988e-05 -0.998099 0.0614837
-0.366351 0.328338 -0.343963 -3.66155e-05 -0.998088 0.0617101
-0.668426 0.331486 -0.295322 -3.68521e-05 -0.998058 0.0621656
-0.27272 0.326706 -0.369205 -3.65594e-05 -0.998096 0.0616025
-0.61874 0.33429 -0.251821 -3.67257e-05 -0.99807 0.0619204
-0.0188269 0.330598 -0.308709 -3.61882e-05 -0.998135 0.0608845
-0.0830676 0.32781 -0.351971 -3.63297e-05 -0.998121 0.0611586
-0.994502 0.332956 -0.272734 -3.71584e-05 -0.998022 0.0627562
-0.729278 0.333593 -0.262698 -3.6861e-05 -0.998056 0.0621819
-0.44271 0.331134 -0.300645 -3.66226e-05 -0.998085 0.0617227
-0.0325356 0.333468 -0.264224 -3.61271e-05 -0.998139 0.0607654
-0.717427 0.330164 -0.31586 -3.69389e-05 -0.99805 0.0623335
-1.23829 0.334286 -0.252256 -3.73813e-05 -0.997996 0.0631859
-0.161992 0.32691 -0.365976 -3.64369e-05 -0.99811 0.061366
-0.53967 0.333242 -0.26803 -3.66696e-05 -0.998078 0.0618127
-0.0209431 0.329728 -0.322201 -3.62134e-05 -0.998133 0.0609334
-0.410288 0.327365 -0.359063 -3.66876e-05 -0.998081 0.0618497
-0.0388109 0.328655 -0.338844 -3.62606e-05 -0.998128 0.0610249
-0.298321 0.334074 -0.254975 -3.63923e-05 -0.998108 0.0612771
-0.0898844 0.331079 -0.301298 -3.62507e-05 -0.998127 0.061005
-0.333317 0.33425 -0.252269 -3.64247e-05 -0.998105 0.0613395
-0.841231 0.331712 -0.291927 -3.7029e-05 -0.998038 0.0625069
-0.896763 0.334009 -0.25634 -3.70272e-05 -0.998036 0.0625026
-0.464381 0.334064 -0.255237 -3.65683e-05 -0.998088 0.0616168
-0.102741 0.331949 -0.287816 -3.62414e-05 -0.998127 0.0609866
-0.481205 0.328883 -0.335579 -3.67227e-05 -0.998075 0.0619167
-0.155386 0.333438 -0.26476 -3.62578e-05 -0.998124 0.0610178
-0.405191 0.330991 -0.302847 -3.65867e-05 -0.998089 0.0616534
-0.364186 0.333732 -0.260326 -3.6471e-05 -0.9981 0.0614292
-0.0160187 0.33062 -0.308374 -3.61847e-05 -0.998135 0.0608777
-0.812788 0.332144 -0.285212 -3.69876e-05 -0.998043 0.0624267
-0.832821 0.33247 -0.280172 -3.70002e-05 -0.998041 0.0624509
-1.08982 0.334176 -0.253867 -3.72271e-05 -0.998014 0.0628883
-0.936212 0.331708 -0.292042 -3.71296e-05 -0.998027 0.0627011
-0.679345 0.330722 -0.307173 -3.68838e-05 -0.998056 0.0622271
-0.206296 0.3267 -0.369255 -3.64893e-05 -0.998104 0.0614672
-0.0857437 0.326067 -0.378997 -3.63784e-05 -0.998117 0.0612534
-0.260795 0.329379 -0.327758 -3.64764e-05 -0.998103 0.0614412
-0.114468 0.33235 -0.281602 -3.62432e-05 -0.998127 0.06099
-0.413753 0.327372 -0.358967 -3.66911e-05 -0.99808 0.0618564
-1.18462 0.333338 -0.266922 -3.73495e-05 -0.998 0.0631249
-0.246139 0.333441 -0.264772 -3.63538e-05 -0.998113 0.061203
-0.363877 0.326974 -0.365095 -3.66488e-05 -0.998085 0.0617749
-0.428392 0.329921 -0.319456 -3.66394e-05 -0.998084 0.0617557
-0.957075 0.33192 -0.288766 -3.71461e-05 -0.998025 0.0627328
-0.442299 0.334333 -0.251058 -3.65378e-05 -0.998092 0.0615579
-0.703982 0.333683 -0.261278 -3.68318e-05 -0.998059 0.0621256
-0.200521 0.328466 -0.341874 -3.64367e-05 -0.998108 0.0613649
-0.601499 0.332792 -0.275038 -3.67469e-05 -0.998069 0.061962
-0.0888342 0.330882 -0.304355 -3.62548e-05 -0.998127 0.061013
-0.0437569 0.332893 -0.27315 -3.61541e-05 -0.998136 0.0608178
-0.166969 0.323002 -0.428531 -2.36509e-05 -0.996853 0.0398019
-0.355854 0.322738 -0.433124 -2.09983e-05 -0.996613 0.0353401
-0.328539 0.320061 -0.478572 4.38473e-06 -0.994023 -0.00744449
-0.184614 0.319888 -0.481427 5.91438e-06 -0.993845 -0.0100298
-0.458246 0.323389 -0.422136 -2.70919e-05 -0.99725 0.0456159
-0.167481 0.32077 -0.466439 -2.46843e-06 -0.994696 0.00409872
-0.550499 0.320989 -0.462944 -4.24663e-06 -0.994938 0.00711456
-0.38371 0.322689 -0.433971 -2.05122e-05 -0.996568 0.0345222
-1.09892 0.323614 -0.418691 -2.87253e-05 -0.997518 0.0484002
-0.933802 0.323013 -0.428796 -2.31538e-05 -0.996924 0.0390015
-0.0413042 0.323585 -0.418548 -2.92866e-05 -0.997407 0.0492948
-1.23827 0.324019 -0.411898 -3.24577e-05 -0.99792 0.0546981
-0.471892 0.321188 -0.45952 -6.19621e-06 -0.995124 0.0103968
-0.4574 0.321164 -0.459904 -5.98793e-06 -0.9951 0.010045
-0.444549 0.320256 -0.475326 2.62365e-06 -0.994221 -0.00447051
-0.162792 0.319585 -0.486552 8.76826e-06 -0.993551 -0.0148411
-0.212008 0.322629 -0.434895 -2.0074e-05 -0.996496 0.0337753
-0.256926 0.322878 -0.430691 -2.24028e-05 -0.99674 0.0377026
-0.380441 0.322994 -0.428784 -2.34123e-05 -0.996863 0.0394102
-0.803556 0.323846 -0.414569 -3.11627e-05 -0.997719 0.0524942
-1.18429 0.323776 -0.415984 -3.0199e-05 -0.997681 0.0508885
-0.111066 0.323951 -0.412374 -3.27049e-05 -0.997766 0.0550598
-0.683616 0.322883 -0.430853 -2.21183e-05 -0.996779 0.0372439
-0.17354 0.324013 -0.411362 -3.32415e-05 -0.997831 0.0559672
-0.340294 0.323335 -0.422981 -2.66733e-05 -0.997188 0.0449046
-0.650304 0.322678 -0.43432 -2.01959e-05 -0.996578 0.0340021
-0.0141906 0.320735 -0.46693 -2.26356e-06 -0.99465 0.00374592
-0.460782 0.322332 -0.440071 -1.70685e-05 -0.996229 0.0287216
-0.59637 0.323638 -0.417978 -2.93524e-05 -0.997502 0.0494328
-0.401501 0.324104 -0.409949 -3.39276e-05 -0.997937 0.0571348
-0.161682 0.322456 -0.437794 -1.84771e-05 -0.996325 0.0310811
-0.158546 0.320713 -0.467395 -1.9382e-06 -0.99464 0.00320458
-0.881136 0.322352 -0.439987 -1.69246e-05 -0.996281 0.0284995
-0.452218 0.32115 -0.460139 -5.85922e-06 -0.995086 0.00982781
-0.0283463 0.322118 -0.44346 -1.53721e-05 -0.995988 0.0258412
-0.151844 0.32035 -0.47356 1.50344e-06 -0.994289 -0.00259667
-0.0539871 0.322049 -0.444648 -1.46965e-05 -0.995923 0.0247036
-0.143045 0.322803 -0.431889 -2.17852e-05 -0.996659 0.036656
-0.116723 0.321113 -0.460573 -5.76924e-06 -0.995024 0.00965978
-0.295718 0.322435 -0.438224 -1.81762e-05 -0.996316 0.0305806
-0.402727 0.321284 -0.457838 -7.16748e-06 -0.995212 0.0120305
-0.421193 0.320742 -0.467055 -2.00867e-06 -0.994689 0.00333616
-0.281145 0.320355 -0.473543 1.55325e-06 -0.994304 -0.00267432
-0.465577 0.32032 -0.474252 2.03335e-06 -0.994285 -0.00347455
-1.23174 0.324302 -0.407073 -3.51563e-05 -0.998194 0.0592463
-0.796291 0.323503 -0.4204 -2.79081e-05 -0.997386 0.0470082
-0.309504 0.324183 -0.408551 -3.47504e-05 -0.998006 0.0585171
-0.563673 0.322473 -0.437754 -1.83169e-05 -0.996373 0.0308308
-0.0637999 0.31904 -0.49574 1.38572e-05 -0.993017 -0.0234233
-1.1418 0.323676 -0.417658 -2.92827e-05 -0.997581 0.0493419
-0.944324 0.323816 -0.415172 -3.07616e-05 -0.997701 0.051825
-0.140694 0.320806 -0.465803 -2.83588e-06 -0.994729 0.00471675
-1.12664 0.32391 -0.413675 -3.1515e-05 -0.997806 0.0531038
-0.054679 0.321912 -0.446977 -1.33949e-05 -0.995791 0.0225099
-0.333001 0.323895 -0.413456 -3.19991e-05 -0.99773 0.053881
-1.09878 0.323826 -0.415083 -3.07413e-05 -0.997723 0.0517982
-1.20789 0.323747 -0.416494 -2.99033e-05 -0.997655 0.0503911
-0.249387 0.320472 -0.471545 4.22341e-07 -0.994414 -0.000769712
-0.601607 0.323077 -0.427511 -2.40228e-05 -0.99696 0.04045
-1.05062 0.324175 -0.409132 -3.40882e-05 -0.998056 0.0574372
-0.64566 0.31983 -0.517798 0.000129486 -0.92531 -0.218397
-0.459016 0.320455 -0.521015 0.000154395 -0.90067 -0.260354
-0.292103 0.322716 -0.532949 0.00026545 -0.809311 -0.447507
-0.689909 0.318674 -0.511672 7.10172e-05 -0.972196 -0.119859
-1.03441 0.319153 -0.514422 0.000110195 -0.951182 -0.185938
-0.741187 0.320059 -0.519074 0.00014539 -0.915547 -0.245215
-0.0818458 0.321107 -0.524259 0.000172812 -0.875802 -0.291343
-0.360611 0.321909 -0.528694 0.000226172 -0.841886 -0.381316
-0.165709 0.322882 -0.533759 0.000268902 -0.803101 -0.453307
-1.11817 0.318953 -0.513411 0.000103257 -0.958928 -0.174257
-0.0208368 0.318441 -0.510037 3.12508e-05 -0.984645 -0.0527429
-0.670429 0.321159 -0.524884 0.000199818 -0.871079 -0.33694
-0.365165 0.320815 -0.522875 0.000169296 -0.886425 -0.285456
-0.634801 0.319952 -0.518441 0.000135402 -0.920388 -0.228368
-0.244691 0.318388 -0.509885 3.77061e-05 -0.985828 -0.0636538
-0.356728 0.321136 -0.52458 0.000185713 -0.873371 -0.313124
-0.159353 0.318938 -0.512761 6.28676e-05 -0.963808 -0.10605
-0.0500227 0.319748 -0.517008 0.000100619 -0.931289 -0.169663
-0.764956 0.320933 -0.52374 0.000191956 -0.879846 -0.323703
-0.329417 0.320812 -0.522839 0.000167683 -0.886691 -0.282733
-0.958312 0.318274 -0.509702 6.12276e-05 -0.987303 -0.103396
-0.12639 0.329321 -0.545222 0.000380774 -0.533025 -0.641725
-0.695402 0.329146 -0.545426 0.000421022 -0.49685 -0.709819
-1.21271 0.32675 -0.543912 0.000442134 -0.555015 -0.74571
-1.12899 0.328041 -0.544843 0.000444966 -0.508845 -0.750404
-0.296267 0.340153 -0.553556 0.000468131 -0.0790171 -0.788682
-0.314937 0.338064 -0.55198 0.000455035 -0.16264 -0.766685
-0.23973 0.337454 -0.551471 0.000445326 -0.193239 -0.750309
-0.847572 0.32772 -0.544432 0.000422241 -0.543322 -0.711988
-0.100709 0.342827 -0.555472 0.000472387 0.014961 -0.795682
-0.248169 0.335271 -0.549817 0.000430832 -0.281477 -0.725955
-0.0692145 0.328863 -0.544841 0.000373441 -0.556005 -0.629356
-0.705171 0.329312 -0.545558 0.000422883 -0.489345 -0.712955
-0.331629 0.326062 -0.542867 0.000373172 -0.650093 -0.629111
-0.801132 0.327513 -0.544247 0.000417423 -0.555291 -0.703854
-0.0578748 0.32989 -0.545615 0.000379723 -0.51505 -0.639906
-0.345568 0.338871 -0.552611 0.000462849 -0.127468 -0.779843
-0.73549 0.354969 -0.553414 0.000440286 0.53015 -0.742578
-0.760308 0.354985 -0.553418 0.000440299 0.535696 -0.74262
-0.120734 0.357157 -0.551664 0.000422893 0.460376 -0.712948
-0.916607 0.348978 -0.557316 0.000480759 0.410751 -0.810498
-0.589884 0.351249 -0.555684 0.000464191 0.402667 -0.782487
-1.00034 0.351948 -0.555484 0.000461526 0.505783 -0.778362
-0.827931 0.354399 -0.55383 0.000444501 0.534308 -0.749712
-0.444848 0.357125 -0.551876 0.000424651 0.526509 -0.716158
-0.0150151 0.34852 -0.557072 0.000479491 0.212449 -0.807634
-0.206275 0.355997 -0.552449 0.000430968 0.447697 -0.72654
-0.364728 0.361035 -0.549353 0.000398419 0.612297 -0.672169
-1.22405 0.347916 -0.55817 0.000489247 0.44648 -0.824964
-0.592677 0.351296 -0.555656 0.000463889 0.404494 -0.781983
-0.144067 0.347808 -0.557599 0.00048481 0.220495 -0.816646
-0.761236 0.348132 -0.557759 0.000485612 0.356502 -0.818496
-0.0427745 0.367557 -0.54503 0.000353759 0.716511 -0.597122
-0.0345751 0.365694 -0.546206 0.000366039 0.66604 -0.617679
-0.348549 0.364662 -0.547046 0.000374361 0.7039 -0.631871
-0.917518 0.373445 -0.538591 0.000274315 0.864846 -0.46268
-0.71377 0.379054 -0.52781 0.000217104 0.903592 -0.366137
-0.714781 0.379732 -0.526522 0.000209386 0.909543 -0.353096
-0.0574064 0.388851 -0.508803 0.000126612 0.956401 -0.213631
-0.0509095 0.376744 -0.531808 0.000264092 0.850706 -0.445915
-0.153002 0.372078 -0.540735 0.000313788 0.81515 -0.529819
-0.0373277 0.373221 -0.538494 0.000304459 0.819376 -0.514125
-0.264166 0.376676 -0.532064 0.000258175 0.860659 -0.435792
-1.19386 0.373403 -0.538834 0.000266119 0.878149 -0.44867
-0.18117 0.376843 -0.531697 0.000258884 0.858009 -0.437039
-0.936034 0.373688 -0.53814 0.000270976 0.86788 -0.457026
-0.576382 0.371506 -0.542074 0.000306999 0.831103 -0.518101
-0.0649033 0.377527 -0.530327 0.000254771 0.858216 -0.430158
-0.490402 0.380137 -0.52562 0.000211833 0.901971 -0.357363
-0.737684 0.37133 -0.542503 0.000303931 0.837551 -0.512823
-0.025424 0.387124 -0.512067 0.000147202 0.939784 -0.248438
-1.16388 0.373063 -0.539463 0.000270917 0.873706 -0.456793
-0.767894 0.375452 -0.534689 0.000256255 0.874913 -0.432253
-0.377287 0.382731 -0.520623 0.000185969 0.918954 -0.31373
-0.126574 0.377468 -0.530476 0.000253506 0.860752 -0.427985
-0.205562 0.372004 -0.540907 0.000312983 0.817101 -0.528429
-0.243335 0.381162 -0.523525 0.000207958 0.898677 -0.350961
-0.359549 0.381038 -0.523831 0.000205728 0.903337 -0.347124
-0.313612 0.371863 -0.54124 0.000311197 0.821214 -0.525347
-0.0241072 0.372868 -0.539158 0.000308879 0.815648 -0.521601
-0.63315 0.374008 -0.537351 0.000276843 0.855691 -0.467118
-0.506207 0.382923 -0.520335 0.00017975 0.926999 -0.303148
-0.331439 0.38046 -0.524912 0.000213159 0.89692 -0.359697
-0.0335876 0.373156 -0.538615 0.000305312 0.818626 -0.515569
-0.107952 0.384454 -0.517189 0.000174882 0.920631 -0.295156
-0.302581 0.375549 -0.534228 0.000269745 0.852752 -0.455319
-0.418885 0.374864 -0.535599 0.000273869 0.852537 -0.462219
-0.644682 0.392417 -0.492782 7.22497e-05 0.984387 -0.121835
-0.544866 0.395341 -0.465177 3.92407e-05 0.989659 -0.0661905
-0.281173 0.391177 -0.50425 9.54918e-05 0.9774 -0.161067
-0.122928 0.397742 -0.442314 1.98836e-05 0.990007 -0.0336026
-0.40508 0.392849 -0.488574 7.24978e-05 0.982533 -0.122282
-0.20518 0.392642 -0.4904 7.95402e-05 0.979738 -0.13418
-0.0470974 0.397933 -0.440465 1.93002e-05 0.989541 -0.0326281
-0.565953 0.395858 -0.46032 3.25228e-05 0.991044 -0.0548611
-0.760344 0.392282 -0.494121 7.12437e-05 0.985444 -0.120125
-1.0897 0.391655 -0.500226 7.13149e-05 0.987917 -0.120206
-0.0784275 0.39185 -0.497786 9.19832e-05 0.97651 -0.155176
-1.05938 0.393158 -0.486051 5.38716e-05 0.990872 -0.0907986
-0.919584 0.393235 -0.485241 5.61238e-05 0.989406 -0.0946128
-0.0187546 0.397859 -0.44115 2.08441e-05 0.989045 -0.0352346
-0.477323 0.395096 -0.467449 4.37402e-05 0.988328 -0.0737853
-0.152802 0.400117 -0.419949 -9.46571e-06 0.99559 0.015887
-0.12493 0.400401 -0.417263 -1.22491e-05 0.995888 0.0205768
-0.355551 0.395699 -0.46169 3.92285e-05 0.988232 -0.0661927
-0.334161 0.392831 -0.488702 7.43309e-05 0.981663 -0.125382
-0.728073 0.39276 -0.489603 6.62165e-05 0.986118 -0.111653
-0.591184 0.394459 -0.473511 4.88259e-05 0.988259 -0.0823467
-0.474802 0.393305 -0.484318 6.54059e-05 0.984354 -0.110316
-0.571011 0.393074 -0.486551 6.60025e-05 0.984971 -0.111311
-0.793512 0.39476 -0.470798 4.05897e-05 0.99129 -0.0684355
-0.588461 0.391784 -0.498716 8.11733e-05 0.982334 -0.136888
-0.764776 0.394699 -0.471361 4.19874e-05 0.990818 -0.0707957
-0.21059 0.393396 -0.483303 7.03221e-05 0.981462 -0.118637
-0.515884 0.396516 -0.45409 2.57212e-05 0.991908 -0.0433987
-0.196152 0.398066 -0.439302 1.43031e-05 0.991579 -0.0241847
-0.434588 0.39653 -0.453914 2.74097e-05 0.990986 -0.0462553
-0.141379 0.397432 -0.445238 2.31951e-05 0.989542 -0.039184
-0.1899 0.392097 -0.495529 8.6469e-05 0.978358 -0.145865
-0.994735 0.3918 -0.498806 7.17297e-05 0.987124 -0.120917
-0.392222 0.39236 -0.493173 7.8691e-05 0.981305 -0.132726
-0.229253 0.398617 -0.434132 6.90285e-06 0.993179 -0.0117031
-1.27041 0.391792 -0.499047 6.55519e-05 0.990333 -0.110468
-0.831638 0.393292 -0.484649 5.74348e-05 0.988503 -0.0968336
-0.173787 0.397956 -0.440322 1.61354e-05 0.991075 -0.0272767
-0.109444 0.392554 -0.491177 8.27878e-05 0.978423 -0.139668
-0.205451 0.399302 -0.427657 -8.30844e-07 0.994411 0.00133393
-0.778849 0.394875 -0.469704 3.95341e-05 0.991372 -0.0666574
-0.566772 0.393328 -0.484154 6.30316e-05 0.985482 -0.106302
-0.490713 0.395459 -0.464035 3.90515e-05 0.989285 -0.0658781
-1.16319 0.391283 -0.503774 7.4129e-05 0.987958 -0.124942
-0.454457 0.392524 -0.491665 7.52949e-05 0.982395 -0.126993
-0.440317 0.395998 -0.458924 3.36909e-05 0.989883 -0.0568455
-0.360547 0.397888 -0.441072 1.27024e-05 0.993112 -0.0214662
-0.787634 0.39133 -0.503111 8.21172e-05 0.983665 -0.138456
-0.529264 0.397055 -0.449027 1.89218e-05 0.99325 -0.0319326
-0.72274 0.39596 -0.459456 2.77274e-05 0.993103 -0.0467568
-0.142702 0.395953 -0.459171 4.10108e-05 0.9863 -0.069223
-0.593057 0.39371 -0.480575 5.78288e-05 0.98663 -0.0975264
-0.486036 0.395498 -0.463667 3.86911e-05 0.989315 -0.0652709
-0.144974 0.399171 -0.428857 2.12915e-06 0.993414 -0.00366414
-0.595197 0.392916 -0.488055 6.73596e-05 0.984906 -0.113596
-0.553966 0.391779 -0.49874 8.20153e-05 0.98192 -0.138312
-0.190975 0.392364 -0.493015 8.32238e-05 0.978959 -0.140393
-0.790235 0.39198 -0.496991 7.42165e-05 0.985127 -0.125134
-0.468796 0.392372 -0.493103 7.67992e-05 0.982229 -0.129527
-0.45243 0.39752 -0.444597 1.50556e-05 0.993376 -0.0254229
-0.50306 0.396038 -0.458589 3.17862e-05 0.990704 -0.0536265
-0.643041 0.396202 -0.45713 2.66236e-05 0.992703 -0.0449052
-0.391146 0.396506 -0.454112 2.86849e-05 0.990425 -0.0484106
-0.236647 0.398069 -0.366989 -3.42751e-05 0.996022 0.0577266
-0.119585 0.395062 -0.327306 -4.29037e-05 0.995451 0.0722544
-0.225639 0.395153 -0.328572 -4.40831e-05 0.995505 0.0742575
-0.137315 0.390858 -0.271942 -5.75161e-05 0.994718 0.0968878
-0.147968 0.397551 -0.360102 -3.48008e-05 0.995899 0.0586
-0.684195 0.396462 -0.346087 -4.60591e-05 0.995899 0.0776538
-0.812376 0.396364 -0.344863 -4.81988e-05 0.995928 0.0812788
-0.312388 0.397107 -0.354354 -3.86291e-05 0.99588 0.0650767
-0.829857 0.396449 -0.345989 -4.81551e-05 0.995949 0.0812075
-0.833853 0.397917 -0.365329 -4.31956e-05 0.996209 0.0728483
-0.352921 0.397864 -0.364351 -3.66123e-05 0.996028 0.0616829
-0.408459 0.39616 -0.341936 -4.32157e-05 0.995748 0.0728215
-0.59649 0.397935 -0.365435 -3.97938e-05 0.996127 0.0670803
-0.121461 0.392876 -0.298513 -5.03987e-05 0.995067 0.0848883
-0.712238 0.396008 -0.340122 -4.80048e-05 0.99583 0.0809375
-0.599224 0.396407 -0.345304 -4.50541e-05 0.995859 0.0759475
-0.440648 0.397045 -0.353622 -4.06422e-05 0.995915 0.0684881
-0.315877 0.400616 -0.400585 -2.66874e-05 0.996498 0.0449479
-0.544574 0.394793 -0.324017 -4.97985e-05 0.995556 0.0839371
-0.244072 0.394274 -0.317006 -4.73452e-05 0.995357 0.0797588
-0.277251 0.3973 -0.356884 -3.74734e-05 0.995901 0.0631234
-0.723594 0.399038 -0.380039 -3.78127e-05 0.996367 0.063759
-0.135166 0.391268 -0.277339 -5.60855e-05 0.994789 0.0944761
-0.289568 0.397231 -0.355976 -3.78838e-05 0.995894 0.063817
-0.79082 0.398711 -0.375768 -3.98762e-05 0.996333 0.067247
-0.218006 0.400254 -0.395748 -2.65506e-05 0.9964 0.0447035
-0.495867 0.399488 -0.385833 -3.30726e-05 0.996364 0.0557366
-0.25853 0.399954 -0.391824 -2.81446e-05 0.996361 0.047396
-0.502149 0.399858 -0.390702 -3.18988e-05 0.996432 0.0537589
-0.176464 0.399034 -0.379653 -3.01346e-05 0.99617 0.0507388
-0.779008 0.397476 -0.35949 -4.39305e-05 0.996112 0.0740793
-0.203558 0.391226 -0.276822 -5.7192e-05 0.994806 0.096351
-0.230977 0.395592 -0.33435 -4.26602e-05 0.995584 0.0718599
-0.422947 0.394397 -0.318719 -4.94436e-05 0.995443 0.0833215
-0.434368 0.40122 -0.408607 -2.6291e-05 0.996647 0.0442967
-0.95064 0.398301 -0.370459 -4.35252e-05 0.996318 0.0734206
-0.518712 0.397093 -0.3543 -4.15763e-05 0.995951 0.0700739
-0.2806 0.399359 -0.384005 -3.04863e-05 0.996265 0.0513465
-0.79238 0.400303 -0.396745 -3.44574e-05 0.996614 0.0581132
-0.686853 0.399532 -0.386519 -3.56096e-05 0.99644 0.0600403
-0.511967 0.394733 -0.323201 -4.95467e-05 0.995534 0.083508
-0.797838 0.398477 -0.372694 -4.07733e-05 0.996294 0.0687601
-1.24117 0.401051 -0.406859 -3.82141e-05 0.996906 0.0645096
-0.869455 0.397723 -0.362805 -4.43564e-05 0.996187 0.0748101
-0.46739 0.401168 -0.407939 -2.69339e-05 0.99665 0.0453851
-0.44498 0.393077 -0.301357 -5.42603e-05 0.995219 0.0914436
-0.218874 0.394941 -0.325772 -4.47131e-05 0.995465 0.0753186
-1.12004 0.399539 -0.386868 -4.16774e-05 0.996596 0.0703301
-0.347233 0.397518 -0.359796 -3.77129e-05 0.995965 0.0635371
-0.31571 0.396594 -0.347602 -4.04276e-05 0.995791 0.0681086
-0.259916 0.397297 -0.356826 -3.7242e-05 0.995895 0.0627309
-0.841237 0.396795 -0.350561 -4.71312e-05 0.996014 0.0794833
-0.806007 0.399341 -0.384072 -3.79384e-05 0.996449 0.0639827
-0.175052 0.397232 -0.355919 -3.62707e-05 0.995853 0.0610816
-1.31228 0.401003 -0.406263 -3.93799e-05 0.996923 0.0664847
-0.907869 0.401129 -0.407688 -3.32609e-05 0.9968 0.0561128
-0.113094 0.399465 -0.385298 -2.77696e-05 0.996223 0.0467432
-0.790264 0.397153 -0.355244 -4.51917e-05 0.996059 0.0762068
-0.337289 0.395237 -0.329734 -4.5369e-05 0.99556 0.0764409
-0.337831 0.400728 -0.402069 -2.66144e-05 0.996526 0.0448281
-0.464449 0.397515 -0.359818 -3.93736e-05 0.996006 0.0663533
-0.937295 0.399985 -0.392643 -3.75816e-05 0.99661 0.0634
-0.0197866 0.397654 -0.361393 -3.26436e-05 0.995872 0.0549456
-0.909356 0.398271 -0.370044 -4.3046e-05 0.996298 0.072607
-1.06524 0.399686 -0.388776 -4.04035e-05 0.996603 0.068175
-0.655818 0.395607 -0.334801 -4.85828e-05 0.995739 0.0819038
-0.80048 0.397482 -0.359587 -4.42106e-05 0.99612 0.0745545
-0.357686 0.39338 -0.305289 -5.19993e-05 0.995241 0.0876201
-0.559619 0.398825 -0.377135 -3.62349e-05 0.99627 0.0610761
-0.497971 0.395962 -0.339381 -4.51509e-05 0.995745 0.0760963
-0.9089 0.400377 -0.397787 -3.58437e-05 0.996668 0.0604666
-0.898312 0.399165 -0.381809 -3.98374e-05 0.996451 0.0671968
-0.241426 0.399796 -0.38974 -2.84419e-05 0.996328 0.0478948
-0.833975 0.399915 -0.391647 -3.6371e-05 0.99656 0.0613446
-0.140368 0.39098 -0.273553 -5.71416e-05 0.994741 0.096257
-0.934297 0.399463 -0.385757 -3.93249e-05 0.996517 0.0663381
-0.29097 0.39632 -0.343977 -4.10161e-05 0.995734 0.0690971
-1.32127 0.400965 -0.405776 -3.96337e-05 0.996919 0.0669138
-1.00422 0.399242 -0.382894 -4.10616e-05 0.996503 0.0692756
-0.0264197 0.397762 -0.36281 -3.23705e-05 0.995893 0.0544862
-0.0294148 0.394615 -0.321364 -4.31631e-05 0.99534 0.0726787
-0.461431 0.397191 -0.355551 -4.04373e-05 0.995948 0.0681458
-0.83913 0.396639 -0.348499 -4.7636e-05 0.995986 0.080334
-0.419528 0.39532 -0.330879 -4.62411e-05 0.995604 0.0779228
-0.421446 0.393801 -0.310875 -5.14568e-05 0.995337 0.0867147
-0.155412 0.393438 -0.305939 -4.89552e-05 0.995178 0.0824601
-0.052425 0.39487 -0.32473 -4.26171e-05 0.995393 0.0717618
-0.713264 0.396829 -0.350934 -4.5215e-05 0.995974 0.076235
-0.177056 0.39799 -0.365908 -3.37083e-05 0.995987 0.0567626
-0.81314 0.398195 -0.368991 -4.19513e-05 0.99625 0.0707479
-0.237264 0.395976 -0.339412 -4.14368e-05 0.995654 0.0697986
-0.792153 0.396186 -0.342509 -4.85218e-05 0.995889 0.0818203
-0.0165169 0.39276 -0.296918 -4.93206e-05 0.995009 0.0830561
-0.316614 0.399482 -0.385641 -3.0574e-05 0.996299 0.0514994
-0.204904 0.392197 -0.289614 -5.38931e-05 0.994978 0.0907905
-0.909463 0.398968 -0.379226 -4.06659e-05 0.996421 0.068595
-0.112749 0.394371 -0.318205 -4.51672e-05 0.995327 0.0760688
-0.138235 0.395636 -0.334875 -4.12057e-05 0.995559 0.0693949
-0.43226 0.388918 -0.247529 -6.38728e-05 0.994008 0.10763
-0.345314 0.381897 -0.188768 -6.87888e-05 0.993099 0.115958
-0.150018 0.387651 -0.236768 -6.34892e-05 0.994056 0.106963
-0.763999 0.386742 -0.229533 -6.71059e-05 0.993441 0.11313
-0.569443 0.38355 -0.202723 -6.86022e-05 0.993151 0.115655
-0.0640202 0.387179 -0.232765 -6.34381e-05 0.994058 0.106872
-0.325886 0.376252 -0.141561 -7.29811e-05 0.992328 0.123064
-0.0595747 0.38149 -0.185202 -6.77351e-05 0.993269 0.114156
-0.623564 0.385527 -0.219284 -6.73595e-05 0.993383 0.113551
-0.132748 0.372622 -0.111098 -7.48159e-05 0.991976 0.126163
-0.973797 0.386158 -0.224769 -6.85498e-05 0.993193 0.115589
-0.774544 0.383355 -0.201221 -6.97273e-05 0.992961 0.117574
-0.0971766 0.385737 -0.220733 -6.46903e-05 0.993831 0.108996
-0.115267 0.378681 -0.161749 -7.01329e-05 0.992834 0.118224
-0.568226 0.38318 -0.199631 -6.88771e-05 0.9931 0.116121
-0.368428 0.380149 -0.174174 -7.02252e-05 0.992837 0.118395
-1.14222 0.387281 -0.234256 -6.85003e-05 0.993215 0.115515
-0.934062 0.383364 -0.201389 -7.04811e-05 0.992835 0.118861
-0.317566 0.384341 -0.209188 -6.6801e-05 0.993461 0.112587
-0.254093 0.388446 -0.243475 -6.3382e-05 0.994084 0.106787
-0.142343 0.38785 -0.238428 -6.33016e-05 0.99409 0.106645
-0.482193 0.377536 -0.15239 -7.27515e-05 0.992383 0.122684
-0.414214 0.376336 -0.14232 -7.33381e-05 0.992269 0.123674
-0.607572 0.382513 -0.19408 -6.95708e-05 0.992976 0.117299
-0.0844242 0.38088 -0.180111 -6.83171e-05 0.993165 0.115144
-0.270118 0.387736 -0.237546 -6.39976e-05 0.993972 0.107832
-0.29985 0.385251 -0.216788 -6.60256e-05 0.993602 0.111271
-0.578824 0.380698 -0.178886 -7.08116e-05 0.992746 0.119401
-0.0555805 0.381463 -0.184974 -6.77365e-05 0.993269 0.114158
-0.243125 0.38471 -0.212229 -6.6166e-05 0.993572 0.111506
-0.371649 0.378874 -0.163512 -7.12088e-05 0.992657 0.120062
-0.853142 0.386939 -0.231226 -6.73819e-05 0.993397 0.113603
-0.220556 0.384955 -0.214263 -6.58726e-05 0.993624 0.111008
-0.0407305 0.384387 -0.209408 -6.54465e-05 0.993688 0.110275
-1.06519 0.38867 -0.245829 -6.70783e-05 0.99347 0.1131
-0.507787 0.380279 -0.175339 -7.07912e-05 0.992744 0.119362
-0.472466 0.380518 -0.177314 -7.04417e-05 0.992806 0.118768
-0.189958 0.385783 -0.221174 -6.50976e-05 0.993764 0.109692
-1.29727 0.388337 -0.243183 -6.84374e-05 0.993239 0.115417
-1.14816 0.386842 -0.230591 -6.88618e-05 0.993149 0.116128
-0.246855 0.379868 -0.17175 -6.98592e-05 0.992895 0.117767
-1.11243 0.385862 -0.222376 -6.94354e-05 0.993041 0.117099
-0.334801 0.385757 -0.221042 -6.58078e-05 0.993645 0.110904
-0.375345 0.376357 -0.142466 -7.31374e-05 0.992303 0.123332
-0.117577 0.386673 -0.228573 -6.40769e-05 0.993945 0.107958
-0.248684 0.381585 -0.186109 -6.85643e-05 0.993132 0.115572
-0.169685 0.378191 -0.157683 -7.07644e-05 0.992722 0.119297
-0.153733 0.379788 -0.171028 -6.94759e-05 0.992957 0.117112
-0.488675 0.386577 -0.227985 -6.59192e-05 0.993637 0.111102
-0.385007 0.379424 -0.168118 -7.0855e-05 0.992723 0.119463
-0.169309 0.387572 -0.236118 -6.36412e-05 0.994029 0.107222
-0.590863 0.382134 -0.190902 -6.97787e-05 0.992937 0.117651
-0.994793 0.385391 -0.21837 -6.9232e-05 0.993069 0.116747
-0.374472 0.380165 -0.174306 -7.02424e-05 0.992834 0.118424
-0.866291 0.384151 -0.207928 -6.95606e-05 0.992999 0.117297
-0.0667889 0.384309 -0.208774 -6.56297e-05 0.993656 0.110587
-0.300162 0.377133 -0.14891 -7.21899e-05 0.992471 0.121721
-0.972699 0.383785 -0.20493 -7.03458e-05 0.992863 0.118634
-0.0692342 0.377655 -0.153142 -7.06924e-05 0.992728 0.11917
-0.087031 0.382435 -0.193116 -6.71489e-05 0.993379 0.113164
-0.704545 0.384438 -0.210233 -6.85716e-05 0.993167 0.115611
-0.442245 0.381859 -0.188511 -6.92794e-05 0.993017 0.116796
-0.32982 0.384646 -0.211749 -6.66275e-05 0.993494 0.112294
-0.60316 0.386199 -0.224891 -6.67521e-05 0.993493 0.11252
-0.691592 0.386868 -0.230543 -6.66652e-05 0.993516 0.112378
-0.145416 0.376637 -0.144673 -7.18286e-05 0.992525 0.1211
-0.177397 0.380034 -0.173096 -6.94021e-05 0.992973 0.116988
-0.570312 0.379622 -0.16988 -7.15883e-05 0.992603 0.120717
-0.988973 0.388926 -0.247924 -6.65207e-05 0.993566 0.11215
-0.0156725 0.388014 -0.239722 -6.25734e-05 0.994213 0.105403
-0.874684 0.385175 -0.216494 -6.88233e-05 0.993135 0.116047
-0.502307 0.387241 -0.233549 -6.54797e-05 0.993719 0.110358
-0.338341 0.38695 -0.231018 -6.49191e-05 0.993808 0.109398
-0.170604 0.368991 -0.0823521 -7.31128e-05 0.867165 0.123277
-0.0587878 0.365851 -0.0586617 -6.85544e-05 0.661918 0.115568
-0.174539 0.353185 0.0365657 -5.09715e-05 -0.166199 0.0858265
-0.0313523 0.365695 -0.0574751 -6.82974e-05 0.651756 0.115134
-0.936236 0.365656 -0.0577192 -6.95286e-05 0.648929 0.117205
-0.2938 0.362046 -0.0301728 -6.35567e-05 0.413077 0.107112
-0.768882 0.370123 -0.0912277 -7.55497e-05 0.941018 0.127391
-0.591915 0.364361 -0.0477689 -6.72243e-05 0.564349 0.113312
-0.0433867 0.36105 -0.0225301 -6.18053e-05 0.348034 0.104153
-0.298667 0.361187 -0.0237107 -6.23596e-05 0.356897 0.105087
-0.37166 0.363016 -0.0375161 -6.50263e-05 0.476461 0.109597
-0.0345828 0.369661 -0.0873172 -7.38593e-05 0.911054 0.124541
-0.416733 0.367404 -0.0705589 -7.1239e-05 0.763341 0.120104
-0.510607 0.360052 -0.0153012 -6.10712e-05 0.282663 0.102905
-0.315436 0.35733 0.0052953 -5.69797e-05 0.104756 0.0959872
-0.568722 0.364776 -0.0508757 -6.77725e-05 0.591472 0.114239
-0.823886 0.364193 -0.0466434 -6.73187e-05 0.5533 0.113469
-0.441436 0.370099 -0.0908524 -7.50507e-05 0.939548 0.126551
-0.312125 0.369985 -0.08992 -7.47077e-05 0.932153 0.125973
-0.384165 0.358127 -0.000743759 -5.81945e-05 0.156857 0.098041
-0.40915 0.366653 -0.0649093 -7.0177e-05 0.714291 0.118308
-1.01008 0.36675 -0.0659951 -7.11666e-05 0.720439 0.119975
-0.318859 0.363142 -0.0384349 -6.51282e-05 0.484733 0.10977
-0.0775985 0.362844 -0.0360496 -6.43679e-05 0.465326 0.108487
-0.983748 0.366326 -0.0627842 -7.05341e-05 0.692682 0.118905
-0.943563 0.364977 -0.0526167 -6.85879e-05 0.60455 0.115614
-0.668102 0.370183 -0.0916213 -7.5491e-05 0.94499 0.127293
-0.022617 0.358843 -0.00591506 -5.86838e-05 0.203771 0.098873
-0.187349 0.35832 -0.00207474 -5.81844e-05 0.169499 0.0980264
-0.196977 0.366186 -0.0612666 -6.92206e-05 0.683798 0.116693
-0.337985 0.37045 -0.0934297 -7.53952e-05 0.96251 0.127135
-0.725205 0.361991 -0.0300133 -6.40923e-05 0.409332 0.108013
-0.414158 0.369121 -0.0834819 -7.36424e-05 0.875651 0.12417
-0.967078 0.368152 -0.0765182 -7.307e-05 0.812115 0.123195
-0.633175 0.369538 -0.0867438 -7.45368e-05 0.902797 0.12568
-0.835028 0.368792 -0.0812549 -7.37791e-05 0.853998 0.124396
-1.11301 0.369953 -0.090153 -7.58005e-05 0.929797 0.127811
-0.478176 0.365956 -0.0596997 -6.92972e-05 0.668644 0.116819
-1.03105 0.366301 -0.0626297 -7.05673e-05 0.69108 0.118961
-1.04362 0.369263 -0.0849179 -7.47346e-05 0.884687 0.126009
-1.24927 0.370033 -0.0908358 -7.61062e-05 0.934986 0.128327
-0.332795 0.355902 0.0160275 -5.50038e-05 0.0114032 0.0926448
-0.1406 0.367448 -0.0707279 -7.09087e-05 0.76632 0.119549
-0.0889715 0.352606 0.0409767 -5.00379e-05 -0.20406 0.0842484
-0.299406 0.360995 -0.0222688 -6.20921e-05 0.344364 0.104635
-0.150285 0.36659 -0.0642758 -6.97198e-05 0.710201 0.117538
-0.047489 0.360963 -0.0218817 -6.16899e-05 0.342378 0.103957
-0.17451 0.357448 0.00449099 -5.69449e-05 0.112516 0.0959299
-0.0698872 0.357311 0.00558457 -5.66041e-05 0.103586 0.0953548
-0.0253471 0.365131 -0.0532283 -6.74987e-05 0.614887 0.113783
-0.155717 0.36905 -0.0827927 -7.31754e-05 0.871075 0.123383
-0.345922 0.359505 -0.0110861 -6.00704e-05 0.246937 0.101214
-0.813311 0.367156 -0.0689322 -7.14558e-05 0.747038 0.120466
-0.142231 0.358363 -0.00237263 -5.81808e-05 0.172334 0.0980208
-0.457732 0.36242 -0.0330878 -6.43144e-05 0.43751 0.108391
-0.468829 0.370071 -0.0906618 -7.50512e-05 0.937742 0.126552
-0.112899 0.368031 -0.075096 -7.16859e-05 0.804428 0.120864
-1.01126 0.366753 -0.0660176 -7.11723e-05 0.720628 0.119984
-0.0543367 0.356018 0.0153219 -5.47703e-05 0.0190572 0.0922533
-1.38742 0.364653 -0.0504369 -0.0206306 0.426565 0.10798
-1.43628 0.360785 -0.0213653 -0.0801341 0.0702135 0.09211
-1.46888 0.370071 -0.0912538 -0.119919 0.900549 0.123108
-1.38917 0.356862 0.00818136 -0.0226985 -0.274976 0.0805945
-1.38835 0.360418 -0.0185741 -0.0217222 0.0452368 0.0930957
-1.43305 0.36074 -0.0210188 -0.0761926 0.0666355 0.0921028
-1.43693 0.364332 -0.0480533 -0.080946 0.389362 0.10451
-1.40468 0.357373 0.00432882 -0.0415955 -0.231611 0.0816495
-1.37895 0.386566 -0.228418 -0.014568 0.990403 0.116265
-1.39398 0.386038 -0.224021 -0.0401683 0.985713 0.115066
-1.37821 0.380531 -0.177961 -0.0132556 0.990022 0.121535
-1.42286 0.386771 -0.230167 -0.0893859 0.976876 0.11126
-1.37365 0.388871 -0.247694 -0.0055543 0.992271 0.114865
-1.3749 0.375181 -0.133231 -0.00758383 0.9905 0.126498
-1.37163 0.380149 -0.174763 -0.00204365 0.992013 0.122587
-1.38143 0.385184 -0.21687 -0.0187877 0.989497 0.11718
-1.45491 0.383782 -0.205193 -0.143965 0.966687 0.110307
-1.44993 0.397813 -0.364335 -0.132152 0.969343 0.0636945
-1.42567 0.399624 -0.388177 -0.0918894 0.977999 0.0614621
-1.37723 0.39023 -0.264399 -0.0113809 0.99135 0.109145
-1.46265 0.400662 -0.401862 -0.153289 0.965954 0.0496457
-1.38188 0.397379 -0.358577 -0.0191727 0.991956 0.0795295
-1.39206 0.391386 -0.279643 -0.0360066 0.986744 0.101439
-1.39457 0.400337 -0.397551 -0.0402579 0.98861 0.0650473
-1.45647 0.398483 -0.373162 -0.143012 0.967361 0.0596558
-1.40044 0.395254 -0.466509 -0.0372946 0.98402 -0.0516807
-1.41122 0.39502 -0.468719 -0.0506326 0.980693 -0.0586334
-1.38632 0.395313 -0.465942 -0.0198095 0.988212 -0.0471134
-1.41208 0.396154 -0.458034 -0.0517014 0.981217 -0.0379936
-1.44778 0.379095 -0.528167 -0.038221 0.90187 -0.347232
-1.37434 0.379408 -0.527529 -0.00182404 0.916889 -0.333238
-1.46145 0.375991 -0.534074 -0.0449686 0.880263 -0.405115
-1.42198 0.374827 -0.536263 -0.0253923 0.880108 -0.421772
-1.43145 0.346784 -0.55901 -0.0220413 0.317512 -0.830713
-1.40506 0.358915 -0.551311 -0.0124247 0.583799 -0.657377
-1.43693 0.349462 -0.557318 -0.0240821 0.352654 -0.791086
-1.37766 0.340774 -0.554668 -0.0078415 0.154333 -0.804576
-1.39299 0.321282 -0.525967 -0.0308471 -0.811688 -0.417043
-1.43735 0.322684 -0.434688 -0.0577186 -0.989697 0.00849924
-1.41293 0.32403 -0.411815 -0.0367044 -0.994281 0.0504387
-1.44624 0.32372 -0.417096 -0.0653847 -0.991041 0.0409709
-1.40576 0.322863 -0.431615 -0.0305184 -0.992545 0.0139136
-1.40699 0.320442 -0.472733 -0.0315601 -0.987667 -0.0618116
-1.37376 0.322001 -0.446243 -0.00296131 -0.993366 -0.0132776
-1.4216 0.32984 -0.321298 -0.0264738 -0.99653 0.0607766
-1.37426 0.334165 -0.254211 -0.00201991 -0.99787 0.0632702
-1.40349 0.333027 -0.271864 -0.0171137 -0.997006 0.0623336
-1.37806 0.330259 -0.314764 -0.00399755 -0.997849 0.0616702
-1.38912 0.341927 -0.109127 -0.00416913 -0.998358 0.0538613
-1.40226 0.341529 -0.116625 -0.00709138 -0.998197 0.0543625
-1.37629 0.336885 -0.203978 -0.00133339 -0.998106 0.0603266
-1.4444 0.342094 -0.106026 -0.0164561 -0.997819 0.0536117
-1.44259 0.339277 -0.15903 -0.016063 -0.997625 0.0572208
-1.38066 0.340884 -0.128747 -0.00229052 -0.998364 0.0552027
-1.37679 0.33861 -0.171532 -0.00143823 -0.998231 0.0581177
-1.39896 0.33686 -0.204465 -0.00637255 -0.997877 0.060344
-1.40544 0.338115 -0.180866 -0.00780819 -0.997908 0.0587331
-1.47761 0.341728 -0.112922 -0.0238391 -0.99746 0.0540579
-1.38582 0.348617 0.0167398 -0.00842549 -0.816305 0.0601936
-1.42327 0.349916 0.0411489 -0.0290392 -0.649777 0.0665542
-1.37571 0.344874 -0.0536838 -0.00287484 -0.931288 0.0557071
-1.40507 0.348982 0.0235924 -0.0190222 -0.736956 0.0632159
-1.38053 0.345946 -0.0335169 -0.00552759 -0.891154 0.0572652
-1.38712 0.345795 -0.036362 -0.00915372 -0.869703 0.058074
-1.39941 0.345975 -0.0329863 -0.0159232 -0.820113 0.0599612
-1.5907 0.350004 -0.100037 -0.170388 0.851824 0.0679078
-1.5456 0.34489 -0.119728 -0.100833 -0.138564 0.0610433
-1.52409 0.341831 -0.140803 -0.0707356 -0.610537 0.0583978
-1.51758 0.342216 -0.122472 -0.0551075 -0.754362 0.0562665
-1.51508 0.3388 -0.182566 -0.066798 -0.807187 0.0590612
-1.50936 0.338168 -0.184736 -0.0578849 -0.932877 0.0581724
-1.50796 0.329032 -0.337157 -0.0991956 -0.964781 0.0605907
-1.56025 0.33811 -0.308456 -0.187157 -0.0969112 0.0561086
-1.54185 0.332913 -0.349633 -0.165523 -0.400762 0.0575262
-1.59357 0.344411 -0.282135 -0.2408 0.455724 0.0532936
-1.52717 0.326251 -0.45421 -0.192263 -0.638972 0.00824468
-1.51094 0.31979 -0.501616 -0.190194 -0.895432 -0.0303341
-1.5152 0.320857 -0.499888 -0.197918 -0.826118 -0.0302721
-1.55061 0.334472 -0.520879 -0.254526 -0.064424 -0.265091
-1.58671 0.353658 -0.54076 -0.24952 0.880535 -0.343036
-1.51263 0.394808 -0.447729 -0.215732 0.949235 -0.033573
-1.52127 0.390817 -0.453567 -0.229644 0.946781 -0.0394886
-1.57346 0.367994 -0.476647 -0.321054 0.932142 -0.050755
-1.54455 0.381607 -0.454749 -0.275896 0.940391 -0.0262293
-1.51408 0.397376 -0.418263 -0.236397 0.949286 0.0265291
-1.52075 0.386625 -0.494866 -0.203745 0.946293 -0.122706
-1.52762 0.383004 -0.503692 -0.212302 0.944277 -0.1358
-1.58931 0.360241 -0.491416 -0.344127 0.927581 -0.0697541
-1.51581 0.394982 -0.380668 -0.238094 0.949667 0.0475215
-1.53264 0.386275 -0.361826 -0.258649 0.946395 0.0513517
-1.51991 0.385611 -0.280257 -0.24661 0.948758 0.0855242
-1.51755 0.389226 -0.314558 -0.242573 0.949253 0.0727384
-1.55515 0.374245 -0.331498 -0.286318 0.942014 0.0584605
-1.52952 0.368468 -0.140263 -0.195138 0.964277 0.107772
-1.53522 0.369647 -0.165807 -0.208881 0.961556 0.10132
-1.50971 0.379165 -0.17537 -0.201095 0.959787 0.11052
