0 0 1 0 0 1
1 0 0 1 0 0
0 1 0 0 1 0
0 -1 0 0 -1 0
0 0 -1 0 0 -1
-1 0 0 -1 0 0
0 0.707107 0.707107 0 0.707107 0.707107
0.707107 0 0.707107 0.707107 0 0.707107
0.707107 0.707107 0 0.707107 0.707107 0
0.707107 0 -0.707107 0.707107 0 -0.707107
0 0.707107 -0.707107 0 0.707107 -0.707107
-0.707107 0 -0.707107 -0.707107 0 -0.707107
-0.707107 0.707107 0 -0.707107 0.707107 0
-0.707107 0 0.707107 -0.707107 0 0.707107
0 -0.707107 0.707107 0 -0.707107 0.707107
0.707107 -0.707107 0 0.707107 -0.707107 0
0 -0.707107 -0.707107 0 -0.707107 -0.707107
-0.707107 -0.707107 0 -0.707107 -0.707107 0
0 0.382683 0.92388 0 0.382683 0.92388
0.382683 0 0.92388 0.382683 0 0.92388
0.408248 0.408248 0.816497 0.408248 0.408248 0.816497
0.92388 0 0.382683 0.92388 0 0.382683
0.92388 0.382683 0 0.92388 0.382683 0
0.816497 0.408248 0.408248 0.816497 0.408248 0.408248
0.382683 0.92388 0 0.382683 0.92388 0
0 0.92388 0.382683 0 0.92388 0.382683
0.408248 0.816497 0.408248 0.408248 0.816497 0.408248
0.92388 0 -0.382683 0.92388 0 -0.382683
0.816497 0.408248 -0.408248 0.816497 0.408248 -0.408248
0.382683 0 -0.92388 0.382683 0 -0.92388
0 0.382683 -0.92388 0 0.382683 -0.92388
0.408248 0.408248 -0.816497 0.408248 0.408248 -0.816497
0 0.92388 -0.382683 0 0.92388 -0.382683
0.408248 0.816497 -0.408248 0.408248 0.816497 -0.408248
-0.382683 0 -0.92388 -0.382683 0 -0.92388
-0.408248 0.408248 -0.816497 -0.408248 0.408248 -0.816497
-0.92388 0 -0.382683 -0.92388 0 -0.382683
-0.92388 0.382683 0 -0.92388 0.382683 0
-0.816497 0.408248 -0.408248 -0.816497 0.408248 -0.408248
-0.382683 0.92388 0 -0.382683 0.92388 0
-0.408248 0.816497 -0.408248 -0.408248 0.816497 -0.408248
-0.92388 0 0.382683 -0.92388 0 0.382683
-0.816497 0.408248 0.408248 -0.816497 0.408248 0.408248
-0.382683 0 0.92388 -0.382683 0 0.92388
-0.408248 0.408248 0.816497 -0.408248 0.408248 0.816497
-0.408248 0.816497 0.408248 -0.408248 0.816497 0.408248
0 -0.92388 0.382683 0 -0.92388 0.382683
0.382683 -0.92388 0 0.382683 -0.92388 0
0.408248 -0.816497 0.408248 0.408248 -0.816497 0.408248
0.92388 -0.382683 0 0.92388 -0.382683 0
0.816497 -0.408248 0.408248 0.816497 -0.408248 0.408248
0 -0.382683 0.92388 0 -0.382683 0.92388
0.408248 -0.408248 0.816497 0.408248 -0.408248 0.816497
0 -0.92388 -0.382683 0 -0.92388 -0.382683
0.408248 -0.816497 -0.408248 0.408248 -0.816497 -0.408248
0 -0.382683 -0.92388 0 -0.382683 -0.92388
0.408248 -0.408248 -0.816497 0.408248 -0.408248 -0.816497
0.816497 -0.408248 -0.408248 0.816497 -0.408248 -0.408248
-0.382683 -0.92388 0 -0.382683 -0.92388 0
-0.408248 -0.816497 -0.408248 -0.408248 -0.816497 -0.408248
-0.92388 -0.382683 0 -0.92388 -0.382683 0
-0.816497 -0.408248 -0.408248 -0.816497 -0.408248 -0.408248
-0.408248 -0.408248 -0.816497 -0.408248 -0.408248 -0.816497
-0.408248 -0.816497 0.408248 -0.408248 -0.816497 0.408248
-0.408248 -0.408248 0.816497 -0.408248 -0.408248 0.816497
-0.816497 -0.408248 0.408248 -0.816497 -0.408248 0.408248
0 0.19509 0.980785 0 0.19509 0.980785
0.19509 0 0.980785 0.19509 0 0.980785
0.198757 0.198757 0.959683 0.198757 0.198757 0.959683
0.55557 0 0.83147 0.55557 0 0.83147
0.57735 0.211325 0.788675 0.57735 0.211325 0.788675
0.404615 0.208847 0.89032 0.404615 0.208847 0.89032
0.211325 0.57735 0.788675 0.211325 0.57735 0.788675
0 0.55557 0.83147 0 0.55557 0.83147
0.208847 0.404615 0.89032 0.208847 0.404615 0.89032
0.980785 0 0.19509 0.980785 0 0.19509
0.980785 0.19509 0 0.980785 0.19509 0
0.959683 0.198757 0.198757 0.959683 0.198757 0.198757
0.83147 0.55557 0 0.83147 0.55557 0
0.788675 0.57735 0.211325 0.788675 0.57735 0.211325
0.89032 0.404615 0.208847 0.89032 0.404615 0.208847
0.788675 0.211325 0.57735 0.788675 0.211325 0.57735
0.83147 0 0.55557 0.83147 0 0.55557
0.89032 0.208847 0.404615 0.89032 0.208847 0.404615
0.19509 0.980785 0 0.19509 0.980785 0
0 0.980785 0.19509 0 0.980785 0.19509
0.198757 0.959683 0.198757 0.198757 0.959683 0.198757
0 0.83147 0.55557 0 0.83147 0.55557
0.211325 0.788675 0.57735 0.211325 0.788675 0.57735
0.208847 0.89032 0.404615 0.208847 0.89032 0.404615
0.57735 0.788675 0.211325 0.57735 0.788675 0.211325
0.55557 0.83147 0 0.55557 0.83147 0
0.404615 0.89032 0.208847 0.404615 0.89032 0.208847
0.639602 0.426401 0.639602 0.639602 0.426401 0.639602
0.639602 0.639602 0.426401 0.639602 0.639602 0.426401
0.426401 0.639602 0.639602 0.426401 0.639602 0.639602
0.980785 0 -0.19509 0.980785 0 -0.19509
0.959683 0.198757 -0.198757 0.959683 0.198757 -0.198757
0.83147 0 -0.55557 0.83147 0 -0.55557
0.788675 0.211325 -0.57735 0.788675 0.211325 -0.57735
0.89032 0.208847 -0.404615 0.89032 0.208847 -0.404615
0.788675 0.57735 -0.211325 0.788675 0.57735 -0.211325
0.89032 0.404615 -0.208847 0.89032 0.404615 -0.208847
0.19509 0 -0.980785 0.19509 0 -0.980785
0 0.19509 -0.980785 0 0.19509 -0.980785
0.198757 0.198757 -0.959683 0.198757 0.198757 -0.959683
0 0.55557 -0.83147 0 0.55557 -0.83147
0.211325 0.57735 -0.788675 0.211325 0.57735 -0.788675
0.208847 0.404615 -0.89032 0.208847 0.404615 -0.89032
0.57735 0.211325 -0.788675 0.57735 0.211325 -0.788675
0.55557 0 -0.83147 0.55557 0 -0.83147
0.404615 0.208847 -0.89032 0.404615 0.208847 -0.89032
0 0.980785 -0.19509 0 0.980785 -0.19509
0.198757 0.959683 -0.198757 0.198757 0.959683 -0.198757
0.57735 0.788675 -0.211325 0.57735 0.788675 -0.211325
0.404615 0.89032 -0.208847 0.404615 0.89032 -0.208847
0.211325 0.788675 -0.57735 0.211325 0.788675 -0.57735
0 0.83147 -0.55557 0 0.83147 -0.55557
0.208847 0.89032 -0.404615 0.208847 0.89032 -0.404615
0.639602 0.426401 -0.639602 0.639602 0.426401 -0.639602
0.426401 0.639602 -0.639602 0.426401 0.639602 -0.639602
0.639602 0.639602 -0.426401 0.639602 0.639602 -0.426401
-0.19509 0 -0.980785 -0.19509 0 -0.980785
-0.198757 0.198757 -0.959683 -0.198757 0.198757 -0.959683
-0.55557 0 -0.83147 -0.55557 0 -0.83147
-0.57735 0.211325 -0.788675 -0.57735 0.211325 -0.788675
-0.404615 0.208847 -0.89032 -0.404615 0.208847 -0.89032
-0.211325 0.57735 -0.788675 -0.211325 0.57735 -0.788675
-0.208847 0.404615 -0.89032 -0.208847 0.404615 -0.89032
-0.980785 0 -0.19509 -0.980785 0 -0.19509
-0.980785 0.19509 0 -0.980785 0.19509 0
-0.959683 0.198757 -0.198757 -0.959683 0.198757 -0.198757
-0.83147 0.55557 0 -0.83147 0.55557 0
-0.788675 0.57735 -0.211325 -0.788675 0.57735 -0.211325
-0.89032 0.404615 -0.208847 -0.89032 0.404615 -0.208847
-0.788675 0.211325 -0.57735 -0.788675 0.211325 -0.57735
-0.83147 0 -0.55557 -0.83147 0 -0.55557
-0.89032 0.208847 -0.404615 -0.89032 0.208847 -0.404615
-0.19509 0.980785 0 -0.19509 0.980785 0
-0.198757 0.959683 -0.198757 -0.198757 0.959683 -0.198757
-0.211325 0.788675 -0.57735 -0.211325 0.788675 -0.57735
-0.208847 0.89032 -0.404615 -0.208847 0.89032 -0.404615
-0.57735 0.788675 -0.211325 -0.57735 0.788675 -0.211325
-0.55557 0.83147 0 -0.55557 0.83147 0
-0.404615 0.89032 -0.208847 -0.404615 0.89032 -0.208847
-0.639602 0.426401 -0.639602 -0.639602 0.426401 -0.639602
-0.639602 0.639602 -0.426401 -0.639602 0.639602 -0.426401
-0.426401 0.639602 -0.639602 -0.426401 0.639602 -0.639602
-0.980785 0 0.19509 -0.980785 0 0.19509
-0.959683 0.198757 0.198757 -0.959683 0.198757 0.198757
-0.83147 0 0.55557 -0.83147 0 0.55557
-0.788675 0.211325 0.57735 -0.788675 0.211325 0.57735
-0.89032 0.208847 0.404615 -0.89032 0.208847 0.404615
-0.788675 0.57735 0.211325 -0.788675 0.57735 0.211325
-0.89032 0.404615 0.208847 -0.89032 0.404615 0.208847
-0.19509 0 0.980785 -0.19509 0 0.980785
-0.198757 0.198757 0.959683 -0.198757 0.198757 0.959683
-0.211325 0.57735 0.788675 -0.211325 0.57735 0.788675
-0.208847 0.404615 0.89032 -0.208847 0.404615 0.89032
-0.57735 0.211325 0.788675 -0.57735 0.211325 0.788675
-0.55557 0 0.83147 -0.55557 0 0.83147
-0.404615 0.208847 0.89032 -0.404615 0.208847 0.89032
-0.198757 0.959683 0.198757 -0.198757 0.959683 0.198757
-0.57735 0.788675 0.211325 -0.57735 0.788675 0.211325
-0.404615 0.89032 0.208847 -0.404615 0.89032 0.208847
-0.211325 0.788675 0.57735 -0.211325 0.788675 0.57735
-0.208847 0.89032 0.404615 -0.208847 0.89032 0.404615
-0.639602 0.426401 0.639602 -0.639602 0.426401 0.639602
-0.426401 0.639602 0.639602 -0.426401 0.639602 0.639602
-0.639602 0.639602 0.426401 -0.639602 0.639602 0.426401
0 -0.980785 0.19509 0 -0.980785 0.19509
0.19509 -0.980785 0 0.19509 -0.980785 0
0.198757 -0.959683 0.198757 0.198757 -0.959683 0.198757
0.55557 -0.83147 0 0.55557 -0.83147 0
0.57735 -0.788675 0.211325 0.57735 -0.788675 0.211325
0.404615 -0.89032 0.208847 0.404615 -0.89032 0.208847
0.211325 -0.788675 0.57735 0.211325 -0.788675 0.57735
0 -0.83147 0.55557 0 -0.83147 0.55557
0.208847 -0.89032 0.404615 0.208847 -0.89032 0.404615
0.980785 -0.19509 0 0.980785 -0.19509 0
0.959683 -0.198757 0.198757 0.959683 -0.198757 0.198757
0.788675 -0.211325 0.57735 0.788675 -0.211325 0.57735
0.89032 -0.208847 0.404615 0.89032 -0.208847 0.404615
0.788675 -0.57735 0.211325 0.788675 -0.57735 0.211325
0.83147 -0.55557 0 0.83147 -0.55557 0
0.89032 -0.404615 0.208847 0.89032 -0.404615 0.208847
0 -0.19509 0.980785 0 -0.19509 0.980785
0.198757 -0.198757 0.959683 0.198757 -0.198757 0.959683
0 -0.55557 0.83147 0 -0.55557 0.83147
0.211325 -0.57735 0.788675 0.211325 -0.57735 0.788675
0.208847 -0.404615 0.89032 0.208847 -0.404615 0.89032
0.57735 -0.211325 0.788675 0.57735 -0.211325 0.788675
0.404615 -0.208847 0.89032 0.404615 -0.208847 0.89032
0.639602 -0.639602 0.426401 0.639602 -0.639602 0.426401
0.639602 -0.426401 0.639602 0.639602 -0.426401 0.639602
0.426401 -0.639602 0.639602 0.426401 -0.639602 0.639602
0 -0.980785 -0.19509 0 -0.980785 -0.19509
0.198757 -0.959683 -0.198757 0.198757 -0.959683 -0.198757
0 -0.83147 -0.55557 0 -0.83147 -0.55557
0.211325 -0.788675 -0.57735 0.211325 -0.788675 -0.57735
0.208847 -0.89032 -0.404615 0.208847 -0.89032 -0.404615
0.57735 -0.788675 -0.211325 0.57735 -0.788675 -0.211325
0.404615 -0.89032 -0.208847 0.404615 -0.89032 -0.208847
0 -0.19509 -0.980785 0 -0.19509 -0.980785
0.198757 -0.198757 -0.959683 0.198757 -0.198757 -0.959683
0.57735 -0.211325 -0.788675 0.57735 -0.211325 -0.788675
0.404615 -0.208847 -0.89032 0.404615 -0.208847 -0.89032
0.211325 -0.57735 -0.788675 0.211325 -0.57735 -0.788675
0 -0.55557 -0.83147 0 -0.55557 -0.83147
0.208847 -0.404615 -0.89032 0.208847 -0.404615 -0.89032
0.959683 -0.198757 -0.198757 0.959683 -0.198757 -0.198757
0.788675 -0.57735 -0.211325 0.788675 -0.57735 -0.211325
0.89032 -0.404615 -0.208847 0.89032 -0.404615 -0.208847
0.788675 -0.211325 -0.57735 0.788675 -0.211325 -0.57735
0.89032 -0.208847 -0.404615 0.89032 -0.208847 -0.404615
0.426401 -0.639602 -0.639602 0.426401 -0.639602 -0.639602
0.639602 -0.426401 -0.639602 0.639602 -0.426401 -0.639602
0.639602 -0.639602 -0.426401 0.639602 -0.639602 -0.426401
-0.19509 -0.980785 0 -0.19509 -0.980785 0
-0.198757 -0.959683 -0.198757 -0.198757 -0.959683 -0.198757
-0.55557 -0.83147 0 -0.55557 -0.83147 0
-0.57735 -0.788675 -0.211325 -0.57735 -0.788675 -0.211325
-0.404615 -0.89032 -0.208847 -0.404615 -0.89032 -0.208847
-0.211325 -0.788675 -0.57735 -0.211325 -0.788675 -0.57735
-0.208847 -0.89032 -0.404615 -0.208847 -0.89032 -0.404615
-0.980785 -0.19509 0 -0.980785 -0.19509 0
-0.959683 -0.198757 -0.198757 -0.959683 -0.198757 -0.198757
-0.788675 -0.211325 -0.57735 -0.788675 -0.211325 -0.57735
-0.89032 -0.208847 -0.404615 -0.89032 -0.208847 -0.404615
-0.788675 -0.57735 -0.211325 -0.788675 -0.57735 -0.211325
-0.83147 -0.55557 0 -0.83147 -0.55557 0
-0.89032 -0.404615 -0.208847 -0.89032 -0.404615 -0.208847
-0.198757 -0.198757 -0.959683 -0.198757 -0.198757 -0.959683
-0.211325 -0.57735 -0.788675 -0.211325 -0.57735 -0.788675
-0.208847 -0.404615 -0.89032 -0.208847 -0.404615 -0.89032
-0.57735 -0.211325 -0.788675 -0.57735 -0.211325 -0.788675
-0.404615 -0.208847 -0.89032 -0.404615 -0.208847 -0.89032
-0.639602 -0.639602 -0.426401 -0.639602 -0.639602 -0.426401
-0.639602 -0.426401 -0.639602 -0.639602 -0.426401 -0.639602
-0.426401 -0.639602 -0.639602 -0.426401 -0.639602 -0.639602
-0.198757 -0.959683 0.198757 -0.198757 -0.959683 0.198757
-0.211325 -0.788675 0.57735 -0.211325 -0.788675 0.57735
-0.208847 -0.89032 0.404615 -0.208847 -0.89032 0.404615
-0.57735 -0.788675 0.211325 -0.57735 -0.788675 0.211325
-0.404615 -0.89032 0.208847 -0.404615 -0.89032 0.208847
-0.198757 -0.198757 0.959683 -0.198757 -0.198757 0.959683
-0.57735 -0.211325 0.788675 -0.57735 -0.211325 0.788675
-0.404615 -0.208847 0.89032 -0.404615 -0.208847 0.89032
-0.211325 -0.57735 0.788675 -0.211325 -0.57735 0.788675
-0.208847 -0.404615 0.89032 -0.208847 -0.404615 0.89032
-0.959683 -0.198757 0.198757 -0.959683 -0.198757 0.198757
-0.788675 -0.57735 0.211325 -0.788675 -0.57735 0.211325
-0.89032 -0.404615 0.208847 -0.89032 -0.404615 0.208847
-0.788675 -0.211325 0.57735 -0.788675 -0.211325 0.57735
-0.89032 -0.208847 0.404615 -0.89032 -0.208847 0.404615
-0.426401 -0.639602 0.639602 -0.426401 -0.639602 0.639602
-0.639602 -0.426401 0.639602 -0.639602 -0.426401 0.639602
-0.639602 -0.639602 0.426401 -0.639602 -0.639602 0.426401
