0.323810 0.936610 0.156356 0.114853 -0.029249 0.992952
0.209066 0.553172 0.259672 0.012350 0.279023 -0.960205
0.395019 0.836488 0.270322 0.329983 -0.914685 0.233370
0.303685 0.803871 0.287150 0.062315 -0.670579 0.739216
0.397324 0.189214 0.271099 -0.297201 -0.903842 -0.307800
0.654620 0.655821 0.226971 0.110566 0.434096 0.894056
0.388410 0.453227 0.192493 0.156032 -0.987751 0.001096
0.233677 0.435240 0.102600 -0.656396 0.751183 -0.069774
0.628954 0.389565 0.215664 -0.020274 0.695799 0.717951
0.045894 0.494559 0.241453 -0.117817 -0.989765 0.080523
0.326329 0.386118 0.129092 -0.148890 0.028083 0.988455
0.573859 0.582787 0.226181 -0.273974 0.866324 0.417638
0.256947 0.335681 0.149909 0.003893 -0.029169 -0.999567
0.308015 0.145997 0.154910 -0.070376 -0.029240 -0.997092
0.278581 0.640295 0.287213 0.028127 -0.942268 0.333676
0.189274 0.573206 0.260340 -0.014055 0.975604 -0.219085
0.214096 0.103900 0.142537 0.718249 0.020126 0.695495
0.329179 0.428016 0.128291 -0.157818 0.028012 0.987071
0.313263 0.144309 0.134738 -0.133734 0.028203 0.990616
0.182661 0.287006 0.283331 0.132662 0.855446 -0.500612
0.193727 0.342788 0.286697 0.050317 0.925436 -0.375549
0.269269 0.492041 0.119360 0.145083 -0.079871 -0.986190
0.366694 0.656929 0.142185 0.864054 -0.017480 0.503096
0.186568 0.697034 0.263044 -0.118031 0.877735 -0.464382
0.308688 0.579973 0.126734 0.066849 0.028580 -0.997354
0.612315 0.493558 0.213751 -0.000551 0.999376 0.035309
0.414663 0.458859 0.206492 0.143527 -0.984421 0.101563
0.251323 0.599991 0.147904 -0.014922 -0.029154 0.999464
0.642254 0.347919 0.228091 -0.063876 0.444955 -0.893272
0.434338 0.950762 0.273740 0.359414 -0.421008 0.832811
0.275048 0.969332 0.287918 0.007992 -0.031871 0.999460
0.189737 0.416414 0.260380 0.018784 0.990133 0.138868
0.275823 0.852202 0.134061 0.031394 0.028707 -0.999095
0.164747 0.670085 0.270828 -0.350227 0.924895 -0.148019
0.419708 0.948994 0.271740 0.420809 -0.548745 0.722356
0.321207 0.885862 0.260433 0.098980 -0.483167 -0.869915
0.374212 0.477335 0.250300 -0.007597 -0.418677 0.908103
0.285927 0.901707 0.259859 0.037700 -0.342294 -0.938836
0.344736 0.426373 0.268035 -0.021452 -0.992188 0.122892
0.203312 0.233703 0.285879 0.089215 0.752731 -0.652256
0.319193 0.063531 0.287173 -0.064229 -0.324621 -0.943661
0.282847 0.069954 0.157518 -0.027872 -0.029215 -0.999184
0.369150 0.861233 0.266300 0.226471 -0.794053 -0.564084
0.153424 0.520319 0.229304 -0.017274 0.174946 0.984426
0.586999 0.373540 0.226801 0.251047 0.647238 -0.719763
0.414497 0.073360 0.271416 -0.418214 -0.630700 -0.653693
0.559144 0.483239 0.210153 0.149094 -0.980441 0.128480
0.622087 0.401623 0.229257 -0.040835 0.759771 -0.648907
0.218377 0.088436 0.262259 0.158606 0.438239 0.884755
0.362101 0.513192 0.275960 0.010372 -0.999657 0.024034
0.201865 0.390060 0.260006 0.016004 0.994065 0.107604
0.153576 0.479517 0.119664 -0.179062 -0.172557 -0.968587
0.657827 0.404575 0.227032 -0.146573 0.788738 -0.597000
0.248174 0.555337 0.121761 -0.535414 -0.829617 -0.158327
0.363586 0.644677 0.142255 0.828338 -0.019012 0.559907
0.284740 0.960228 0.287751 0.020329 -0.099807 0.994799
0.361726 0.307274 0.136243 -0.378689 0.025542 0.925171
0.280043 0.295746 0.150968 -0.034277 -0.029216 -0.998985
0.301259 0.756541 0.131700 0.080383 0.028509 -0.996356
0.383062 0.623987 0.272446 0.086423 -0.994664 0.056342
0.642339 0.558025 0.215135 0.049552 0.931642 -0.359983
0.229564 0.309519 0.287870 -0.002749 -0.387448 -0.921888
0.239434 0.320869 0.259584 0.017557 -0.722597 -0.691047
0.187075 0.762774 0.282966 -0.257130 0.780590 0.569705
0.415142 0.085015 0.275762 -0.337427 -0.488581 -0.804631
0.178256 0.509307 0.260470 -0.001308 0.999022 -0.044186
0.370951 0.058851 0.144609 -0.762129 -0.021306 -0.647074
0.282474 0.367243 0.287138 -0.026440 -0.949179 -0.313623
0.683756 0.378655 0.221399 -0.263946 0.854787 -0.446847
0.384230 0.187011 0.278228 -0.285055 -0.694314 -0.660812
0.209260 0.152814 0.262416 0.152563 0.581046 0.799444
0.242528 0.746239 0.151896 -0.057039 -0.029079 0.997948
0.294001 0.694826 0.150478 0.067137 -0.029247 0.997315
0.154452 0.611984 0.274555 -0.189242 0.981576 0.026371
0.693515 0.482463 0.222741 -0.030750 0.995175 -0.093173
0.648068 0.438882 0.215954 -0.052474 0.923001 0.381204
0.209063 0.543890 0.219647 -0.040099 0.673935 0.737702
0.169277 0.410274 0.047955 -0.419682 -0.907668 -0.002312
0.359693 0.323754 0.279193 -0.161790 -0.912844 -0.374886
0.257332 0.493926 0.287275 -0.001034 -0.999925 -0.012242
0.234319 0.270524 0.287864 -0.002956 -0.133424 -0.991055
0.223576 0.310374 0.287734 -0.002314 0.630992 -0.775786
0.481817 0.477318 0.226411 0.079408 -0.854600 0.513180
0.384579 0.210163 0.143621 -0.814080 -0.019529 -0.580424
0.286191 0.322890 0.150081 -0.049616 -0.029233 -0.998340
0.370764 0.154684 0.280667 -0.227120 -0.616873 -0.753581
0.246858 0.620189 0.259814 0.015840 -0.413295 -0.910459
0.101085 0.480777 0.136750 -0.469865 -0.118300 -0.874775
0.307275 0.554028 0.210114 -0.036597 0.916404 0.398577
0.530270 0.520722 0.176870 0.158231 0.973837 -0.163109
0.254049 0.944775 0.287681 -0.018703 0.223293 0.974572
0.274780 0.880774 0.259729 0.016916 -0.357391 -0.933802
0.259162 0.498834 0.241988 -0.643556 -0.005240 0.765381
0.297161 0.953024 0.287545 0.035806 -0.176234 0.983697
0.617522 0.600177 0.215325 0.010312 0.750630 -0.660642
0.199345 0.441620 0.184330 0.000658 -0.994018 0.109218
0.261852 0.555630 0.146853 0.013509 -0.029188 0.999483
0.265004 0.267002 0.130465 -0.010662 0.028757 0.999530
0.368378 0.866818 0.148130 0.399565 -0.027903 0.916280
0.152722 0.434187 0.277657 0.074392 0.990164 -0.118499
0.196083 0.827486 0.264381 -0.295330 0.641191 -0.708276
0.225829 0.438915 0.113924 -0.241884 0.919229 -0.310662
0.345418 0.968999 0.261098 0.140788 -0.370965 -0.917913
0.323689 0.905838 0.260432 0.102701 -0.443912 -0.890166
0.283568 0.077940 0.259782 -0.033743 -0.394043 0.918472
0.257358 0.210150 0.132221 0.004319 0.028777 0.999577
0.216690 0.377115 0.287773 -0.002944 0.160781 -0.986986
0.254191 0.739837 0.152048 -0.014325 -0.029154 0.999472
0.539165 0.495914 0.228112 -0.058739 -0.209106 0.976127
0.212180 0.115123 0.262770 0.162646 0.497154 0.852281
0.244503 0.345546 0.149313 0.038449 -0.029116 -0.998836
0.668203 0.496359 0.192267 0.605572 -0.755193 -0.250932
0.378035 0.898648 0.266865 0.340259 -0.850465 -0.401165
0.233125 0.942149 0.156696 -0.164487 -0.028681 0.985962
0.218148 0.408209 0.259577 0.034516 0.046895 -0.998303
0.378009 0.516932 0.273650 0.011778 -0.999750 0.019004
0.677975 0.620051 0.224036 0.234314 0.664127 0.709952
0.195581 0.568899 0.085402 0.007832 0.903122 0.429312
0.686718 0.521000 0.223654 0.037244 0.992915 0.112842
0.250716 0.769057 0.131776 -0.021555 0.028789 -0.999353
0.653638 0.528056 0.216449 0.022233 0.986620 -0.161514
0.281073 0.490099 0.286917 -0.001695 -0.999797 -0.020100
0.223619 0.427268 0.085763 -0.256656 0.916905 -0.305636
0.211544 0.172485 0.261527 0.119205 0.622850 0.773206
0.355209 0.878758 0.150305 0.319684 -0.028551 0.947094
0.374862 0.540015 0.150887 0.179492 0.839895 -0.512210
0.587977 0.485821 0.204170 0.187206 -0.982319 0.001624
0.401454 0.042743 0.269065 -0.529945 -0.764390 -0.367243
0.309013 0.805437 0.260404 0.076597 -0.637786 -0.766396
0.350883 0.278917 0.135550 -0.320096 0.026359 0.947018
0.200723 0.829283 0.263567 -0.225836 0.631587 -0.741684
0.229565 0.217752 0.133970 0.175637 0.028428 0.984044
0.327951 0.059559 0.287046 -0.072879 -0.348245 -0.934566
0.226586 0.704427 0.287760 0.002546 0.520627 0.853780
0.263308 0.060339 0.136400 -0.016790 0.028748 0.999446
0.374685 0.825079 0.267710 0.228714 -0.897740 -0.376499
0.290124 0.103947 0.259935 -0.045045 -0.462939 0.885245
0.212019 0.440522 0.259623 0.029526 0.221639 -0.974682
0.415991 0.938049 0.276055 0.326867 -0.439456 0.836682
0.399961 0.316839 0.273733 -0.168628 -0.905100 -0.390332
0.589823 0.664921 0.223143 -0.775880 0.616115 -0.135692
0.295032 0.212437 0.260225 -0.050900 -0.735778 0.675307
0.346710 0.839054 0.263588 0.107167 -0.616717 -0.779856
0.354948 0.450922 0.162573 0.171795 -0.947862 -0.268410
0.045190 0.495226 0.175562 0.170748 -0.984213 -0.046580
0.227621 0.419401 0.287879 -0.009308 -0.982096 -0.188149
0.233225 0.317564 0.287978 -0.001645 -0.834135 -0.551557
0.408086 0.466604 0.151230 0.169926 -0.793513 -0.584347
0.278723 0.655299 0.260235 0.008921 -0.870927 -0.491332
0.360318 0.610456 0.133700 0.355072 0.025879 -0.934481
0.338370 0.936447 0.154335 0.204151 -0.029108 0.978507
0.390446 0.124242 0.278484 -0.279580 -0.560581 -0.779477
0.123678 0.499266 0.187589 0.313775 -0.807080 0.500167
0.314936 0.429345 0.263962 -0.019836 -0.996991 0.074932
0.283598 0.584987 0.147432 0.062889 -0.029250 0.997592
0.604244 0.421937 0.214802 -0.003313 0.857516 0.514447
0.316298 0.636074 0.128465 0.095868 0.028437 -0.994988
0.096949 0.538551 0.223052 -0.110457 0.448242 0.887062
0.143646 0.558086 0.189186 -0.021324 0.989184 0.145119
0.165579 0.558188 0.263626 -0.047949 0.992208 -0.114995
0.059820 0.537721 0.201266 -0.757694 0.637695 0.138726
0.574719 0.596948 0.224260 -0.320651 0.811336 0.488791
0.246241 0.434793 0.126006 0.040636 0.028786 0.998759
0.208617 0.454148 0.259661 0.026181 0.358991 -0.932974
0.383013 0.612361 0.274828 0.098665 -0.968503 0.228620
0.303140 0.733598 0.131069 0.080665 0.028509 -0.996333
0.372951 0.681848 0.137486 0.536547 0.022659 -0.843566
0.394841 0.313520 0.272965 -0.163098 -0.943771 -0.287566
0.381364 0.631191 0.272083 0.086425 -0.996170 0.013242
0.551896 0.516727 0.176669 0.166057 0.959175 -0.228927
0.317165 0.517936 0.234657 -0.229097 0.160542 0.960073
0.480499 0.469655 0.193453 0.151867 -0.988129 0.023178
0.216876 0.429150 0.092339 -0.111259 0.925247 -0.362683
0.197625 0.308214 0.286596 0.062609 0.881883 -0.467292
0.358519 0.225067 0.138144 -0.479420 0.023811 0.877262
0.234877 0.433479 0.047769 0.217567 0.968209 -0.123432
0.374383 0.408299 0.139200 -0.868171 0.011483 0.496132
0.199748 0.842460 0.264059 -0.276984 0.607189 -0.744716
0.371761 0.916005 0.144003 0.841489 -0.018465 0.539959
0.327604 0.277772 0.263021 -0.074768 -0.866064 0.494310
0.412365 0.033596 0.270413 -0.485675 -0.613200 -0.622981
0.219836 0.176080 0.287059 0.070883 0.626755 -0.775985
0.049891 0.496948 0.216614 -0.654369 -0.755429 0.033585
0.290769 0.355986 0.128301 -0.043870 0.028663 0.998626
0.170904 0.551868 0.262493 -0.020910 0.993759 -0.109573
0.136195 0.508601 0.123000 -0.285909 0.081385 -0.954795
0.326151 0.202275 0.285998 -0.085021 -0.690338 -0.718474
0.233665 0.353335 0.129295 0.149449 0.028542 0.988357
0.222427 0.673825 0.287754 0.002564 0.510503 0.859872
0.398845 0.110093 0.269902 -0.413491 -0.852775 -0.319062
0.603221 0.612968 0.229037 -0.009186 0.680735 0.732472
0.281541 0.875495 0.134820 0.051813 0.028630 -0.998246
0.344634 0.740262 0.265058 0.079094 -0.803790 -0.589632
0.328739 0.487820 0.128063 0.141849 -0.104716 -0.984334
0.563752 0.508358 0.241402 -0.086598 0.626072 0.774942
0.642962 0.514123 0.214854 0.010693 0.996920 -0.077687
0.332019 0.329767 0.131488 -0.195262 0.027708 0.980360
0.499588 0.493012 0.233703 -0.031143 -0.311996 0.949573
0.240733 0.721808 0.259519 0.016817 -0.099005 -0.994945
0.161968 0.493433 0.284406 0.002675 0.999912 -0.012986
0.181763 0.740986 0.264988 -0.226320 0.811902 -0.538140
0.323641 0.460527 0.265722 -0.010140 -0.999829 0.015444
0.203921 0.702745 0.260432 -0.045501 0.846337 -0.530700
0.345613 0.491549 0.278158 -0.006604 -0.999861 -0.015301
0.694290 0.506377 0.222727 0.010761 0.999411 0.032599
0.350153 0.078578 0.262600 -0.142514 -0.480631 0.865265
0.314092 0.355298 0.148706 -0.133235 -0.029223 -0.990654
0.290119 0.533037 0.261195 0.011356 -0.984207 -0.176654
0.041777 0.504306 0.193256 0.192733 0.967042 -0.166387
0.117102 0.448305 0.146669 -0.244040 -0.796505 -0.553194
0.233507 0.559053 0.177424 -0.009212 0.999778 0.018932
0.674343 0.473956 0.219299 -0.020509 0.988625 0.148994
0.266747 0.850607 0.259665 0.014813 -0.295582 -0.955202
0.313833 0.923107 0.136687 0.149365 0.028095 -0.988383
0.359649 0.289032 0.144751 -0.490464 -0.026900 -0.871046
0.354688 0.193708 0.265275 -0.100136 -0.690935 0.715948
0.693273 0.496157 0.221735 -0.002805 0.999788 0.020380
0.342980 0.458837 0.244034 0.056882 -0.764098 0.642587
0.387744 0.075080 0.147159 -0.505391 -0.026677 -0.862478
0.676758 0.544614 0.224835 0.084642 0.962843 0.256456
0.377715 0.885978 0.280428 0.232608 -0.528642 0.816352
0.226034 0.764833 0.259908 -0.009271 0.328957 -0.944299
0.224034 0.549351 0.132835 0.002767 0.789639 -0.613566
0.367018 0.258525 0.144629 -0.560923 -0.025865 -0.827464
0.530570 0.479852 0.174526 0.160515 -0.975191 -0.152439
0.300490 0.506102 0.235487 0.051264 0.042851 0.997765
0.415643 0.097815 0.275465 -0.339547 -0.515454 -0.786775
0.403865 0.825500 0.275732 0.294255 -0.669717 0.681830
0.158840 0.510997 0.230213 -0.019522 0.093355 0.995441
0.347203 0.316303 0.266419 -0.060382 -0.908210 0.414137
0.352232 0.705141 0.135282 0.325092 0.026293 -0.945317
0.233914 0.320915 0.130186 0.144082 0.028562 0.989153
0.302129 0.539886 0.131565 0.133334 0.559029 -0.818357
0.374497 0.129866 0.266883 -0.276457 -0.847655 0.452827
0.295757 0.912192 0.156798 0.047201 -0.029232 0.998458
0.582641 0.454184 0.214689 0.024823 0.958983 0.282373
0.354079 0.570249 0.269389 0.021278 -0.984505 -0.174062
0.470530 0.531840 0.188514 0.156833 0.986493 -0.047269
0.269609 0.548650 0.260306 0.007238 -0.911068 -0.412193
0.217343 0.631911 0.132482 -0.603954 0.023060 -0.796686
0.331116 0.531558 0.280577 0.025394 -0.997944 0.058843
0.364524 0.497457 0.132303 0.142440 -0.014483 -0.989697
0.236555 0.930815 0.260278 -0.053289 0.308298 -0.949796
0.689778 0.392631 0.222508 -0.213432 0.732290 -0.646682
0.352868 0.586369 0.268935 0.026514 -0.976855 -0.212252
0.658060 0.677598 0.218310 0.265917 0.548691 -0.792607
0.334744 0.111251 0.138100 -0.295252 0.026660 0.955048
0.348635 0.473240 0.278066 -0.021404 -0.998540 -0.049595
0.204382 0.860508 0.283843 -0.221467 0.564265 0.795335
0.663821 0.657386 0.218939 0.261367 0.714428 -0.649061
0.608404 0.366897 0.215907 0.013363 0.561844 0.827135
0.221903 0.387781 0.130471 0.402147 0.026471 0.915193
0.277393 0.081970 0.259695 -0.022726 -0.396136 0.917911
0.302867 0.441348 0.262505 -0.015647 -0.999417 0.030356
0.071597 0.446710 0.196888 -0.442792 -0.895401 0.046829
0.193776 0.745930 0.262873 -0.123960 0.795332 -0.593365
0.187194 0.671868 0.262332 -0.078095 0.909085 -0.409226
0.526722 0.478110 0.186985 0.154168 -0.987823 -0.020929
0.268584 0.581891 0.050319 0.289445 0.956979 0.020303
0.280545 0.664069 0.149788 0.037000 -0.029218 0.998888
0.389895 0.252200 0.276284 -0.230779 -0.812889 -0.534746
0.227185 0.514436 0.116050 0.011278 0.119921 -0.992719
0.275209 0.352979 0.260197 -0.003081 -0.971233 0.238111
0.303472 0.296747 0.286954 -0.042314 -0.863873 -0.501928
0.228337 0.543977 0.144235 -0.172391 -0.028636 0.984612
0.456801 0.469829 0.222605 0.105646 -0.928391 0.356272
0.270278 0.065720 0.259554 -0.014227 -0.336765 0.941481
0.377487 0.173767 0.145674 -0.547429 -0.026070 -0.836446
0.390540 0.816701 0.277420 0.287907 -0.687065 0.667121
0.397504 0.664547 0.273750 0.150134 -0.925439 0.347881
0.200746 0.380145 0.260087 0.020273 0.982685 0.184172
0.241079 0.420214 0.126644 0.082474 0.028734 0.996179
0.330841 0.405461 0.129165 -0.172635 0.027895 0.984591
0.184525 0.274989 0.283391 0.138320 0.835916 -0.531143
0.218701 0.558583 0.182433 -0.012843 0.997327 0.071931
0.249329 0.063647 0.259879 0.035200 0.164365 0.985771
0.351725 0.448893 0.220894 0.131521 -0.971130 0.199017
0.407809 0.178936 0.275107 -0.291084 -0.678487 -0.674482
0.241153 0.370790 0.128065 0.076914 0.028744 0.996623
0.328728 0.959359 0.287072 0.069381 -0.291595 0.954022
0.190418 0.192708 0.282527 0.376551 0.700096 -0.606692
0.328545 0.843612 0.135954 0.208986 0.027596 -0.977529
0.355827 0.189084 0.282124 -0.188088 -0.684316 -0.704511
0.571533 0.442209 0.227624 0.073784 0.931978 -0.354926
0.276833 0.310881 0.287336 -0.039156 -0.884733 -0.464450
0.313414 0.116890 0.155677 -0.078743 -0.029241 -0.996466
0.321641 0.361415 0.283792 -0.106143 -0.949245 -0.296088
0.221478 0.554921 0.130130 -0.071204 -0.923790 -0.376220
0.316690 0.067316 0.157074 -0.076762 -0.029238 -0.996621
0.356873 0.459845 0.270311 -0.011126 -0.998074 0.061022
0.354422 0.067778 0.151988 -0.303260 -0.028660 -0.952477
0.070422 0.477453 0.158584 -0.642551 -0.111155 -0.758138
0.184551 0.430061 0.085335 0.343027 -0.839153 0.422083
0.260197 0.543431 0.287304 0.007797 -0.995681 0.092508
0.251010 0.530692 0.229711 -0.400652 0.358364 0.843240
0.386079 0.781722 0.142154 0.987020 -0.007927 0.160400
0.301469 0.325088 0.286929 -0.035950 -0.903798 -0.426446
0.623065 0.372061 0.228771 -0.028904 0.590355 -0.806626
0.289091 0.119178 0.135089 -0.073472 0.028535 0.996889
0.223398 0.469979 0.119209 0.013265 -0.361936 -0.932109
0.093193 0.487149 0.141814 -0.521076 -0.064946 -0.851036
0.579933 0.422231 0.216519 0.093537 0.865254 0.492531
0.183579 0.723170 0.264215 -0.208119 0.841168 -0.499122
0.291676 0.051354 0.259855 -0.047867 -0.344024 0.937740
0.295029 0.685553 0.287049 0.038353 -0.889682 0.454968
0.344765 0.636483 0.280553 0.122249 -0.951216 0.283272
0.565440 0.487587 0.234872 0.086118 -0.854693 0.511940
0.308480 0.128205 0.155422 -0.067718 -0.029237 -0.997276
0.214711 0.281305 0.136940 0.744077 0.019332 0.667814
0.421166 0.460450 0.172245 0.164724 -0.976374 -0.139856
0.307783 0.954676 0.287385 0.047455 -0.217489 0.974908
0.207372 0.771733 0.260975 -0.082611 0.741337 -0.666029
0.300386 0.633749 0.128153 0.057251 0.028617 -0.997950
0.330083 0.495057 0.267228 -0.000268 -0.998821 -0.048547
0.347260 0.581886 0.131077 0.270944 0.026941 -0.962218
0.181514 0.318796 0.263602 0.165773 0.901164 0.400529
0.273450 0.861943 0.287730 0.025148 -0.380187 0.924568
0.598653 0.513020 0.235465 0.186364 0.982444 0.008492
0.495066 0.499498 0.235422 -0.075042 -0.035344 0.996554
0.174710 0.409862 0.284777 0.038366 0.979153 -0.199468
0.269302 0.357067 0.260115 -0.001182 -0.989570 0.144048
0.064778 0.501713 0.163504 -0.664360 0.018596 -0.747182
0.288191 0.718782 0.130413 0.043402 0.028667 -0.998646
0.305326 0.131369 0.134988 -0.114991 0.028317 0.992963
0.348837 0.638005 0.267458 0.044065 -0.939305 -0.340243
0.245737 0.426678 0.259890 0.013503 -0.737308 -0.675422
0.171275 0.583047 0.063095 -0.563561 0.339357 0.753151
0.689709 0.503408 0.221237 0.002485 0.999834 -0.018049
0.386490 0.837398 0.143800 0.836240 -0.018662 0.548045
0.228010 0.903606 0.260511 -0.082370 0.439652 -0.894383
0.310965 0.290978 0.286523 -0.053452 -0.856659 -0.513107
0.366509 0.133026 0.265833 -0.212208 -0.752214 0.623813
0.342761 0.353698 0.145186 -0.334245 -0.028450 -0.942057
0.305463 0.311388 0.129810 -0.077511 0.028527 0.996583
0.336942 0.202072 0.284508 -0.124495 -0.699338 -0.703866
0.283195 0.361300 0.149006 -0.049889 -0.029235 -0.998327
0.272494 0.067039 0.259591 -0.014831 -0.356466 0.934191
0.592834 0.480870 0.230844 0.000042 0.993952 -0.109815
0.228278 0.125358 0.260327 0.069267 0.514419 0.854737
0.398496 0.032031 0.279009 -0.256333 -0.363490 -0.895638
0.140260 0.474254 0.228244 -0.021550 -0.240361 0.970444
0.424907 0.521894 0.145479 0.165379 0.568991 -0.805542
0.420391 0.475872 0.145246 0.160035 -0.512566 -0.843602
0.289380 0.075273 0.287609 -0.032499 -0.232141 -0.972139
0.266750 0.878629 0.287866 0.013238 -0.286057 0.958121
0.663342 0.560390 0.218062 0.051786 0.925087 -0.376209
0.350917 0.196397 0.137910 -0.402926 0.025151 0.914887
0.303345 0.764151 0.260399 0.064035 -0.715436 -0.695737
0.293450 0.382292 0.148235 -0.082703 -0.029256 -0.996145
0.271028 0.526781 0.249517 0.038167 0.312097 0.949283
0.234080 0.584799 0.127431 -0.150699 0.028536 -0.988168
0.294547 0.711780 0.150965 0.064884 -0.029244 0.997464
0.360691 0.303573 0.144179 -0.552231 -0.026012 -0.833285
0.680276 0.413305 0.223997 -0.174055 0.831614 -0.527373
0.419098 0.489694 0.140594 0.145430 -0.112475 -0.982954
0.337065 0.168252 0.262383 -0.107500 -0.646922 0.754941
0.251388 0.354998 0.149218 0.016886 -0.029150 -0.999432
0.251799 0.198085 0.132697 0.017600 0.028788 0.999431
0.379369 0.188243 0.268595 -0.241615 -0.943839 0.225367
0.369173 0.362525 0.141269 -0.979734 -0.009080 -0.200097
0.134101 0.441231 0.182441 -0.031245 -0.996734 0.074462
0.189379 0.440291 0.118934 0.065128 0.918714 -0.389516
0.259790 0.052268 0.287805 0.009065 0.147300 -0.989050
0.154992 0.477995 0.264722 0.017305 0.998989 0.041501
0.633342 0.417969 0.215279 -0.025387 0.842927 0.537429
0.330939 0.436193 0.128301 -0.166963 0.027939 0.985567
0.197383 0.559783 0.119252 0.007208 -0.920472 -0.390742
0.201578 0.442616 0.195435 -0.002408 -0.976246 0.216651
0.621360 0.548028 0.214553 0.004705 0.953474 -0.301437
0.252006 0.650253 0.149385 -0.015588 -0.029152 0.999453
0.284952 0.145667 0.287538 -0.041391 -0.460543 -0.886672
0.591629 0.493408 0.164558 0.149704 -0.680965 -0.716851
0.311205 0.414240 0.263177 -0.024832 -0.994027 0.106272
0.462704 0.494913 0.146020 0.142625 -0.048771 -0.988575
0.451054 0.535303 0.200356 0.147725 0.988053 0.043907
0.625354 0.489921 0.258880 0.221346 -0.971873 0.080424
0.289271 0.375091 0.127728 -0.040888 0.028672 0.998752
0.387669 0.099311 0.145769 -0.627270 -0.024645 -0.778412
0.308339 0.834487 0.287139 0.067072 -0.602039 0.795645
0.345813 0.893734 0.284983 0.121163 -0.482582 0.867429
0.655347 0.494607 0.291682 0.562051 -0.773080 0.294016
0.637495 0.453402 0.214778 -0.023609 0.957833 0.286354
0.378396 0.857778 0.146477 0.492964 -0.026850 0.869635
0.242782 0.486910 0.287512 -0.002251 -0.999642 -0.026672
0.378804 0.770782 0.140835 0.947822 0.006081 -0.318741
0.381172 0.281668 0.139666 -0.832736 0.013273 0.553511
0.216627 0.702065 0.135044 -0.624319 0.022600 -0.780843
0.289476 0.563929 0.260581 0.020325 -0.969333 -0.244910
0.366832 0.623071 0.141169 0.979441 -0.009125 0.201525
0.636366 0.490768 0.243437 0.234558 -0.971897 0.019968
0.202401 0.151756 0.283768 0.221158 0.592158 -0.774879
0.229040 0.806716 0.134773 -0.178404 0.028415 -0.983547
0.320999 0.687737 0.130461 0.131396 0.028214 -0.990928
0.216525 0.200217 0.260426 0.071909 0.699940 0.710572
0.208877 0.556861 0.125938 -0.032366 -0.922544 -0.384532
0.600857 0.490981 0.268905 0.068657 -0.870244 0.487814
0.214869 0.817731 0.147722 -0.776739 -0.018273 0.629557
0.512762 0.524128 0.184459 0.155930 0.983990 -0.086305
0.433739 0.972304 0.273268 0.379543 -0.403047 0.832767
0.286000 0.228730 0.131889 -0.042525 0.028671 0.998684
0.163625 0.428002 0.051035 -0.594755 0.749683 0.290244
0.318716 0.805278 0.153195 0.113893 -0.029239 0.993063
0.201037 0.444121 0.145942 0.003635 -0.954947 -0.296756
0.231321 0.552837 0.139273 0.007113 0.879040 -0.476694
0.696047 0.495945 0.222504 -0.006785 0.999766 -0.020564
0.291380 0.577873 0.147104 0.085842 -0.029259 0.995879
0.330248 0.036119 0.260418 -0.110749 -0.353478 0.928864
0.274286 0.713762 0.287424 0.044629 -0.847170 0.529444
0.332550 0.085826 0.286924 -0.076094 -0.423629 -0.902634
0.216982 0.121841 0.151034 0.644111 -0.022191 -0.764610
0.256831 0.728159 0.130456 -0.008238 0.028781 -0.999552
0.224946 0.556130 0.143963 -0.235906 -0.028238 0.971366
0.625756 0.482523 0.214134 -0.001557 0.995006 0.099799
0.230528 0.150089 0.287398 0.032854 0.563374 -0.825549
0.206572 0.566966 0.033706 0.129105 -0.791194 -0.597783
0.268227 0.576430 0.053461 0.297841 -0.891155 0.342247
0.334525 0.443606 0.189231 0.133484 -0.991050 0.001092
0.152429 0.541836 0.279715 -0.045970 0.996255 0.073225
0.242583 0.610118 0.127449 -0.064426 0.028763 -0.997508
0.194205 0.413933 0.072727 -0.205496 -0.519609 0.829324
0.323961 0.420865 0.265061 -0.022853 -0.993911 0.107790
0.264757 0.870612 0.259595 0.015146 -0.221217 -0.975107
0.376952 0.848263 0.142789 0.964694 -0.010845 0.263151
0.387758 0.566683 0.136612 0.578333 0.021719 -0.815512
0.220423 0.100758 0.285886 0.139468 0.463207 -0.875207
0.375788 0.053050 0.281779 -0.196546 -0.389678 -0.899734
0.678476 0.505616 0.219701 0.004127 0.999542 -0.029976
0.314343 0.637637 0.128480 0.090896 0.028463 -0.995454
0.224499 0.826196 0.136175 -0.255492 0.027934 -0.966408
0.290352 0.772820 0.287294 0.056775 -0.736992 0.673513
0.240358 0.453655 0.287615 -0.008352 -0.995049 -0.099035
0.381989 0.547224 0.204456 0.151483 0.985911 0.070942
0.298951 0.904252 0.135915 0.105196 0.028371 -0.994047
0.329104 0.777329 0.262248 0.089708 -0.725533 -0.682315
0.210170 0.292496 0.139969 0.999168 0.001168 0.040767
0.315150 0.524426 0.282661 0.019481 -0.998791 0.045144
0.272336 0.306474 0.129442 -0.019497 0.028735 0.999397
0.280120 0.186416 0.287532 -0.043046 -0.586948 -0.808480
0.307109 0.751525 0.260482 0.069783 -0.748704 -0.659222
0.374434 0.772748 0.268606 0.175381 -0.935421 -0.306967
0.297731 0.442701 0.201585 0.075385 -0.975392 0.207187
0.265612 0.459386 0.124938 -0.003192 0.028769 0.999581
0.307820 0.343320 0.128928 -0.077194 0.028530 0.996608
0.391533 0.479561 0.248113 -0.007442 -0.423768 0.905740
0.568958 0.513665 0.236144 0.087092 0.955863 0.280608
0.343653 0.426253 0.142927 -0.526643 -0.026429 -0.849675
0.401728 0.223730 0.275152 -0.255863 -0.763570 -0.592870
0.224374 0.569458 0.144245 -0.249532 -0.028137 0.967958
0.302592 0.121604 0.135227 -0.109633 0.028348 0.993568
0.350333 0.283406 0.146207 -0.331314 -0.028461 -0.943091
0.344179 0.519947 0.278562 0.015819 -0.999203 0.036657
0.315986 0.821007 0.153824 0.099518 -0.029243 0.994606
0.207182 0.069475 0.282700 0.448682 0.448091 -0.773239
0.134760 0.557324 0.155797 -0.100769 0.966770 -0.234951
0.610282 0.490550 0.178218 0.182487 -0.948968 -0.257212
0.215373 0.830797 0.148472 -0.744859 -0.019358 0.666941
0.648539 0.510889 0.229024 0.018667 0.998225 0.056561
0.096866 0.549708 0.213909 -0.149035 0.766737 0.624422
0.223303 0.240777 0.287521 0.018803 0.734078 -0.678805
0.216036 0.654054 0.143839 -0.610707 -0.022982 0.791523
0.217496 0.661416 0.287677 0.001742 0.811635 0.584163
0.229731 0.253474 0.150382 0.178058 -0.028606 -0.983604
0.163002 0.496427 0.230921 -0.021680 -0.036559 0.999096
0.646583 0.492973 0.280834 0.379286 -0.912112 0.155544
0.215565 0.057051 0.151865 0.840093 -0.015747 -0.542214
0.223914 0.447548 0.209058 -0.021150 -0.870343 0.491992
0.408778 0.086392 0.276619 -0.318604 -0.487799 -0.812738
0.258545 0.435755 0.147028 -0.004832 -0.029180 -0.999563
0.161391 0.497405 0.284394 0.001051 0.999986 -0.005102
0.144007 0.455770 0.132139 -0.165495 -0.638931 -0.751251
0.262282 0.923422 0.287934 0.002968 0.096328 0.995345
0.194181 0.292674 0.261883 0.095675 0.859941 0.501346
0.184276 0.503319 0.114991 -0.059439 0.033993 -0.997653
0.360502 0.204324 0.147126 -0.368744 -0.028175 -0.929104
0.305805 0.606780 0.262056 0.034021 -0.946189 -0.321820
0.263327 0.725678 0.259859 0.014003 -0.500771 -0.865466
0.218636 0.435745 0.108140 -0.102694 0.924792 -0.366353
0.645157 0.337716 0.216740 -0.111953 0.419169 0.900979
0.247207 0.352935 0.287709 -0.024972 -0.932132 -0.361257
0.651448 0.610462 0.227789 0.099827 0.701515 0.705628
0.240441 0.195609 0.133148 0.069390 0.028756 0.997175
0.374533 0.851028 0.267227 0.255546 -0.870294 -0.421052
0.198300 0.431278 0.098284 -0.004323 0.920733 -0.390169
0.280649 0.849189 0.134049 0.043850 0.028662 -0.998627
0.355404 0.381812 0.268720 -0.036828 -0.967607 0.249760
0.106024 0.548784 0.146740 -0.338441 0.714301 -0.612562
0.329252 0.371635 0.282557 -0.114256 -0.957526 -0.264744
0.320011 0.448746 0.146216 0.129800 -0.855953 -0.500497
0.312470 0.454248 0.145842 -0.150574 -0.029200 -0.988167
0.342287 0.517135 0.278773 0.013540 -0.999416 0.031377
0.197952 0.550119 0.124883 -0.003378 0.902790 0.430068
0.376361 0.494201 0.273854 -0.004515 -0.999935 -0.010464
0.366011 0.477710 0.135128 0.152000 -0.316226 -0.936428
0.368701 0.615057 0.276858 0.101274 -0.966786 0.234666
0.319595 0.378454 0.147665 -0.160892 -0.029183 -0.986541
0.228396 0.599966 0.287906 0.007657 -0.969039 0.246788
0.316321 0.940198 0.137217 0.159608 0.028022 -0.986783
0.490999 0.524328 0.163621 0.168181 0.898054 -0.406466
0.378292 0.703178 0.141941 0.960163 -0.011292 0.279211
0.378826 0.576946 0.274778 0.065252 -0.986347 0.151199
0.404035 0.086682 0.277270 -0.303970 -0.485456 -0.819716
0.413676 0.499915 0.247861 -0.055229 -0.019193 0.998289
0.383426 0.895938 0.145046 0.699115 -0.023039 0.714638
0.679575 0.533231 0.220083 0.026744 0.980581 -0.194285
0.096678 0.451652 0.215256 -0.118469 -0.760439 0.638512
0.233599 0.360850 0.259573 0.019471 -0.408008 -0.912771
0.227059 0.700478 0.132069 -0.209666 0.028245 -0.977365
0.188280 0.336612 0.261930 0.073850 0.919125 0.386981
0.301481 0.649428 0.128622 0.059502 0.028609 -0.997818
0.387680 0.338094 0.139426 -0.864044 0.011721 0.503281
0.208244 0.306359 0.287296 0.019083 0.877325 -0.479517
0.189967 0.667099 0.261707 -0.075708 0.914813 -0.396718
0.289559 0.599515 0.127002 0.040201 0.028674 -0.998780
0.186705 0.551814 0.136413 -0.026204 0.862378 -0.505587
0.173137 0.482488 0.261266 0.006736 0.999354 0.035296
0.415744 0.540662 0.212260 0.141701 0.981806 0.126400
0.363574 0.384668 0.134290 -0.375100 0.025590 0.926631
0.316462 0.488649 0.282246 -0.008903 -0.999748 -0.020626
0.328767 0.875729 0.286906 0.072328 -0.508558 0.857984
0.238217 0.872832 0.155387 -0.109638 -0.028925 0.993551
0.237451 0.643264 0.128641 -0.112626 0.028665 -0.993224
0.316876 0.911941 0.156465 0.081858 -0.029240 0.996215
0.224551 0.500072 0.287767 0.000013 -1.000000 0.000193
0.531032 0.513984 0.224815 0.010674 0.773251 0.634010
0.460761 0.480043 0.149962 0.157610 -0.513356 -0.843578
0.661159 0.495512 0.293767 0.702868 -0.614959 0.357495
0.215866 0.425818 0.084389 -0.113197 0.925408 -0.361671
0.318476 0.527746 0.282259 0.022221 -0.998426 0.051492
0.391732 0.276424 0.275599 -0.208146 -0.850917 -0.482303
0.149345 0.515186 0.119759 -0.211552 0.135858 -0.967878
0.343276 0.671390 0.281380 0.156953 -0.918204 0.363687
0.355342 0.504388 0.256280 -0.035486 0.036930 0.998688
0.223496 0.852152 0.137110 -0.275109 0.027781 -0.961012
0.396088 0.892052 0.269482 0.418183 -0.877955 0.233064
0.177912 0.259304 0.267805 0.413555 0.846330 0.335706
0.220164 0.232630 0.260066 0.035850 0.766890 0.640777
0.276836 0.804065 0.132692 0.030765 0.028708 -0.999114
0.469862 0.529934 0.217319 0.112164 0.963064 0.244800
0.214560 0.929596 0.143165 -0.673665 0.021374 -0.738728
0.673442 0.502306 0.306777 0.427982 0.770531 0.472348
0.345185 0.847534 0.263226 0.108973 -0.598094 -0.793982
0.278472 0.914092 0.135883 0.051590 0.028628 -0.998258
0.384178 0.909741 0.147206 0.480988 -0.026999 0.876311
0.231894 0.906915 0.155445 -0.172516 -0.028638 0.984590
0.185118 0.565830 0.103022 0.228459 -0.900173 -0.370802
0.598618 0.377128 0.228664 0.032567 0.624933 -0.779998
0.267547 0.435361 0.260242 0.003834 -0.984908 -0.173038
0.260549 0.559725 0.260144 0.010764 -0.793158 -0.608921
0.274088 0.196926 0.287604 -0.037209 -0.600640 -0.798653
0.669978 0.388130 0.225212 -0.221162 0.708555 -0.670103
0.257946 0.730097 0.130486 -0.005390 0.028779 -0.999571
0.364272 0.651225 0.269360 0.048585 -0.934676 -0.352166
0.266195 0.442427 0.161175 0.041968 -0.984063 -0.172795
0.052493 0.485640 0.194376 -0.822436 -0.561775 -0.089486
0.364029 0.776083 0.138940 0.601942 0.021116 -0.798260
0.474747 0.469170 0.181464 0.158981 -0.984646 -0.072087
0.286878 0.730647 0.130734 0.042027 0.028672 -0.998705
0.191551 0.673535 0.285908 -0.056133 0.906268 0.418960
0.317959 0.665519 0.129406 0.108412 0.028364 -0.993701
0.420052 0.919421 0.272313 0.385419 -0.575631 0.721180
0.245927 0.046788 0.260007 0.044978 0.274479 0.960541
0.239316 0.650921 0.287838 0.014575 -0.918533 0.395077
0.380288 0.593952 0.135994 0.478743 0.023845 -0.877631
0.207860 0.379202 0.259900 0.029261 0.993442 -0.110529
0.341281 0.499609 0.268859 0.000718 -0.999055 -0.043466
0.309596 0.123314 0.287203 -0.066291 -0.484834 -0.872090
0.403766 0.800871 0.272167 0.286036 -0.842162 0.457107
0.390135 0.154452 0.269485 -0.333564 -0.939697 -0.075530
0.235232 0.053398 0.287042 0.098504 0.358046 -0.928493
0.425797 0.909912 0.273278 0.354160 -0.528740 0.771366
0.204669 0.556277 0.199849 -0.015014 0.961656 0.273848
0.371540 0.570021 0.138956 0.843399 0.012750 -0.537137
0.246393 0.443985 0.120593 -0.698567 -0.503686 0.508237
0.218703 0.111789 0.261645 0.130492 0.486782 0.863722
0.611505 0.511815 0.230547 0.211653 0.977291 -0.010259
0.387168 0.553704 0.136312 0.554585 0.022271 -0.831829
0.310915 0.597340 0.127268 0.073119 0.028552 -0.996914
0.249480 0.339830 0.259776 0.008381 -0.957273 -0.289063
0.371348 0.309262 0.137518 -0.527274 0.022857 0.849388
0.161911 0.556811 0.149654 -0.045556 0.964123 -0.261518
0.632788 0.632532 0.216075 0.049324 0.573034 -0.818046
0.181239 0.640469 0.262686 -0.062415 0.942941 -0.327058
0.478401 0.473858 0.162297 0.166340 -0.916483 -0.363854
0.418355 0.893618 0.274937 0.335368 -0.532592 0.777093
0.297622 0.611085 0.286629 0.028232 -0.966712 0.254305
0.628888 0.541999 0.214573 0.004050 0.965742 -0.259471
0.250088 0.353906 0.259813 0.008758 -0.941980 -0.335555
0.235404 0.578057 0.033329 0.237249 -0.099189 -0.966372
0.251298 0.643314 0.128139 -0.025199 0.028788 -0.999268
0.606162 0.489954 0.230909 -0.003985 0.998438 -0.055727
0.040278 0.489178 0.206376 0.608761 -0.788308 0.089332
0.272413 0.199115 0.259850 -0.010815 -0.680690 0.732491
0.332572 0.234225 0.284541 -0.118305 -0.765241 -0.632780
0.220856 0.550163 0.133603 0.001009 0.808138 -0.588992
0.324019 0.748689 0.150795 0.158966 -0.029195 0.986852
0.349729 0.499594 0.277446 -0.000314 -1.000000 -0.000726
0.582286 0.373110 0.224442 0.465889 0.725131 -0.507083
0.202522 0.859392 0.263949 -0.269811 0.568996 -0.776818
0.279810 0.189591 0.287530 -0.043223 -0.596840 -0.801195
0.371283 0.563507 0.133879 0.410128 0.025045 -0.911684
0.259486 0.038916 0.287758 0.013567 0.149101 -0.988729
0.622458 0.510364 0.209210 0.247352 0.965371 -0.082927
0.213457 0.344996 0.136021 0.896862 0.012792 0.442125
0.287892 0.972884 0.287727 0.021596 -0.076914 0.996804
0.229827 0.180306 0.152527 0.183535 -0.028576 -0.982598
0.253513 0.144391 0.287933 -0.002975 -0.068706 -0.997633
0.292835 0.726646 0.151425 0.056895 -0.029237 0.997952
0.331510 0.637837 0.146495 0.229595 -0.029001 0.972854
0.265147 0.219845 0.259779 -0.009341 -0.732391 0.680820
0.665561 0.350094 0.225506 -0.184708 0.483322 -0.855735
0.270808 0.469369 0.287116 -0.005402 -0.997931 -0.064062
0.366317 0.518553 0.253125 -0.025086 0.215048 0.976281
0.327946 0.716517 0.284305 0.114074 -0.853912 0.507762
0.112113 0.497031 0.161495 0.366015 -0.697153 -0.616450
0.326055 0.549117 0.224812 -0.037711 0.842735 0.537007
0.415170 0.896764 0.275434 0.336927 -0.526287 0.780706
0.386917 0.108905 0.268229 -0.392472 -0.915546 0.087990
0.353002 0.874555 0.263828 0.131982 -0.579174 -0.804449
0.285217 0.786911 0.287401 0.053693 -0.692648 0.719274
0.319495 0.183381 0.153421 -0.116031 -0.029239 -0.992815
0.279595 0.516598 0.260523 0.003147 -0.984405 -0.175889
0.233951 0.905186 0.287229 -0.058837 0.441527 0.895317
0.303061 0.709367 0.150763 0.088784 -0.029251 0.995621
0.290149 0.940048 0.157697 0.037879 -0.029225 0.998855
0.394494 0.890907 0.278193 0.285318 -0.529130 0.799134
0.334757 0.640498 0.282010 0.126219 -0.947908 0.292471
0.603444 0.372752 0.228730 0.024375 0.598092 -0.801057
0.516578 0.504150 0.153570 0.146596 0.213044 -0.965982
0.628265 0.415430 0.229382 -0.039974 0.828196 -0.559011
0.307689 0.653941 0.128847 0.076262 0.028534 -0.996679
0.265628 0.762193 0.131314 0.012825 0.028753 -0.999504
0.681669 0.634837 0.223402 0.254984 0.581469 0.772578
0.085452 0.445404 0.198433 -0.281114 -0.945867 0.162205
0.381166 0.731998 0.140055 0.878574 0.010916 -0.477482
0.289167 0.819774 0.260071 0.040969 -0.552048 -0.832805
0.592078 0.441181 0.229961 0.000604 0.925956 -0.377630
0.063672 0.522212 0.223342 -0.397194 0.240123 0.885764
0.635822 0.551513 0.229792 0.023283 0.945225 0.325589
0.674060 0.503209 0.277012 0.724876 0.682687 0.092159
0.553235 0.517500 0.205969 0.144664 0.988493 0.044211
0.243768 0.954067 0.260083 -0.028459 0.196193 -0.980152
0.292176 0.412442 0.260576 -0.024105 -0.996089 0.085005
0.251204 0.062777 0.157734 0.030099 -0.029132 -0.999122
0.311723 0.626422 0.128117 0.081429 0.028511 -0.996271
0.626996 0.538194 0.230140 0.016668 0.972311 0.233095
0.369252 0.941499 0.144383 0.795114 -0.020232 0.606122
0.217048 0.733028 0.260021 -0.012229 0.691064 -0.722690
0.605484 0.516004 0.230825 0.006490 0.995851 0.090762
0.596016 0.440067 0.230027 0.000148 0.922650 -0.385640
0.346780 0.874757 0.139367 0.486228 0.023661 -0.873512
0.372821 0.638831 0.276710 0.124570 -0.949297 0.288647
0.341619 0.139921 0.151637 -0.241372 -0.028971 -0.970000
0.189931 0.594646 0.287038 -0.008603 0.976314 0.216185
0.239371 0.749728 0.287921 0.002734 -0.399007 0.916944
0.336290 0.345896 0.131619 -0.218210 0.027495 0.975514
0.254263 0.428098 0.287452 -0.013398 -0.987204 -0.158899
0.370649 0.634899 0.135828 0.419334 0.024901 -0.907491
0.251353 0.944311 0.259856 -0.010327 0.056051 -0.998375
0.213189 0.113514 0.142928 0.777793 0.018183 0.628257
0.343639 0.570119 0.279529 0.059024 -0.988843 0.136769
0.335265 0.768210 0.284211 0.127478 -0.762096 0.634790
0.328079 0.569829 0.265797 0.021706 -0.977935 -0.207777
0.177167 0.557852 0.156865 -0.021351 0.985990 -0.165432
0.300836 0.027696 0.259949 -0.062449 -0.304471 0.950472
0.189446 0.425245 0.083410 0.108034 0.915823 -0.386779
0.637452 0.524158 0.214420 0.010320 0.990187 -0.139365
0.305467 0.062927 0.157375 -0.059959 -0.029238 -0.997773
0.362856 0.708616 0.279331 0.193722 -0.872340 0.448882
0.183897 0.579355 0.071795 -0.420394 0.017441 0.907174
0.343308 0.338919 0.132789 -0.262563 0.027040 0.964536
0.257830 0.137114 0.259503 -0.012653 -0.392962 0.919468
0.238163 0.820257 0.133710 -0.088259 0.028723 -0.995683
0.259309 0.509112 0.241415 -0.648225 0.077159 0.757529
0.380922 0.782475 0.278143 0.261071 -0.752256 0.604940
0.325046 0.492819 0.127120 0.142725 -0.059564 -0.987968
0.209628 0.436960 0.097936 -0.041555 -0.899051 0.435867
0.374747 0.814443 0.141519 0.985188 0.001681 -0.171471
0.346522 0.525210 0.254341 -0.006073 0.343948 0.938969
0.242844 0.542392 0.222235 -0.162735 0.643946 0.747563
0.343561 0.650269 0.266510 0.048360 -0.924970 -0.376950
0.288579 0.665344 0.128881 0.041645 0.028671 -0.998721
0.418024 0.491992 0.140205 0.144507 -0.083853 -0.985944
0.304627 0.829646 0.287186 0.066368 -0.612992 0.787297
0.337626 0.821281 0.262646 0.102100 -0.646035 -0.756448
0.426555 0.064488 0.274547 -0.353845 -0.450050 -0.819907
0.332046 0.034771 0.260443 -0.113513 -0.352530 0.928891
0.211140 0.305474 0.287425 0.019177 0.876028 -0.481878
0.214830 0.887080 0.285142 -0.160764 0.492199 0.855508
0.146120 0.484315 0.277537 0.016675 0.999508 -0.026562
0.227423 0.367476 0.146641 0.188907 -0.028542 -0.981580
0.368597 0.953169 0.264589 0.306709 -0.634281 -0.709661
0.169151 0.533331 0.122096 -0.122571 0.415289 -0.901394
0.301292 0.351460 0.149015 -0.097391 -0.029253 -0.994816
0.307788 0.668534 0.286243 0.051528 -0.914041 0.402336
0.182238 0.739841 0.282617 -0.284917 0.822744 0.491849
0.224645 0.811242 0.151325 -0.265258 -0.028011 0.963771
0.346485 0.449805 0.226231 0.118953 -0.950747 0.286234
0.247827 0.502782 0.233839 -0.325701 0.039393 0.944652
0.345445 0.327480 0.266375 -0.056345 -0.922546 0.381751
0.329007 0.666359 0.283266 0.127463 -0.922904 0.363319
0.320833 0.558128 0.174536 0.095718 0.991858 -0.084002
0.252237 0.695976 0.150724 -0.017142 -0.029150 0.999428
0.266369 0.515429 0.247848 -0.557902 0.131806 0.819373
0.273867 0.588138 0.126433 0.017128 0.028738 -0.999440
0.355296 0.423252 0.141403 -0.886068 -0.016423 -0.463264
0.074976 0.505953 0.228725 -0.182454 0.022682 0.982953
0.330709 0.357286 0.130521 -0.181637 0.027824 0.982972
0.260512 0.160453 0.287885 -0.012074 -0.403799 -0.914768
0.239088 0.750602 0.131660 -0.085779 0.028728 -0.995900
0.618229 0.436430 0.214753 -0.006431 0.911138 0.412052
0.231880 0.568953 0.038664 0.201492 -0.830647 -0.519063
0.297335 0.410774 0.126825 -0.050938 0.028638 0.998291
0.355027 0.266627 0.146051 -0.368546 -0.028179 -0.929182
0.236773 0.757846 0.287836 0.002937 0.172185 0.985060
0.426866 0.963939 0.275009 0.343595 -0.392097 0.853348
0.626243 0.398312 0.229140 -0.047841 0.741692 -0.669032
0.238638 0.484634 0.287581 -0.002651 -0.999503 -0.031415
0.132116 0.442555 0.196398 -0.024202 -0.973786 0.226175
0.589571 0.404776 0.215674 0.057619 0.782403 0.620101
0.380278 0.743668 0.277542 0.226993 -0.819648 0.525976
0.298947 0.848737 0.287311 0.059465 -0.538116 0.840771
0.187322 0.519419 0.230070 -0.023125 0.174726 0.984345
0.363734 0.448596 0.132488 -0.364086 0.025746 0.931009
0.492036 0.509868 0.150904 0.149107 0.334616 -0.930483
0.445426 0.471289 0.229634 0.080137 -0.855889 0.510913
0.205298 0.792216 0.285632 -0.110041 0.700048 0.705567
0.336762 0.356690 0.281783 -0.129005 -0.945519 -0.298918
0.152229 0.428635 0.276767 0.081173 0.988277 -0.129300
0.296362 0.744113 0.151881 0.062711 -0.029241 0.997603
0.332614 0.536409 0.135907 0.171200 0.575137 -0.799943
0.184230 0.168629 0.271740 0.672298 0.683580 0.284138
0.221160 0.267752 0.148384 0.363955 -0.027047 -0.931024
0.591836 0.349567 0.226410 0.357056 0.535797 -0.765136
0.409314 0.054775 0.270368 -0.470532 -0.676198 -0.566882
0.260880 0.504162 0.243518 -0.677663 0.033358 0.734616
0.214843 0.440953 0.106468 -0.061950 -0.895924 0.439867
0.293332 0.338544 0.128842 -0.048311 0.028649 0.998421
0.381944 0.205199 0.141955 -0.998266 -0.005021 -0.058644
0.649417 0.393093 0.228100 -0.085466 0.719314 -0.689408
0.207190 0.093596 0.283273 0.350904 0.485491 -0.800728
0.348404 0.194847 0.149081 -0.294835 -0.028701 -0.955117
0.228321 0.434796 0.259638 0.018604 -0.279143 -0.960069
0.584445 0.519738 0.230637 -0.000044 0.993531 0.113560
0.282921 0.715676 0.260180 0.022049 -0.773576 -0.633320
0.663624 0.504321 0.203606 0.839305 0.505603 -0.199831
0.249627 0.636917 0.287652 0.027370 -0.945415 0.324716
0.372925 0.292458 0.142812 -0.827873 -0.019015 -0.560594
0.362006 0.914188 0.264370 0.215697 -0.619643 -0.754664
0.363050 0.451559 0.164937 0.170030 -0.957643 -0.232401
0.207501 0.522339 0.116582 -0.019505 0.200585 -0.979482
0.202393 0.137477 0.264047 0.279654 0.562992 0.777711
0.189696 0.300096 0.284940 0.090202 0.871185 -0.482597
0.379358 0.541314 0.274071 0.033642 -0.996389 0.077952
0.229131 0.425636 0.069144 0.263767 0.432580 0.862150
0.273603 0.325466 0.128915 -0.020496 0.028732 0.999377
0.221320 0.876408 0.138212 -0.319602 0.027388 -0.947156
0.649451 0.355932 0.216838 -0.116219 0.523127 0.844293
0.176619 0.585766 0.032417 -0.329531 0.596740 -0.731649
0.179164 0.640020 0.284416 -0.066862 0.943467 0.324654
0.300266 0.167803 0.154393 -0.057345 -0.029234 -0.997926
0.299461 0.062314 0.157485 -0.051332 -0.029234 -0.998254
0.379109 0.741726 0.277670 0.225202 -0.822789 0.521826
0.264038 0.058805 0.287922 -0.000835 0.091490 -0.995806
0.220477 0.442441 0.110126 -0.117114 -0.883943 0.452691
0.232614 0.422823 0.032836 0.240503 0.196261 -0.950600
0.291209 0.660093 0.128770 0.045199 0.028660 -0.998567
0.377511 0.389182 0.139330 -0.876389 0.011035 0.481477
0.229958 0.552999 0.139636 0.005586 0.883713 -0.467997
0.342078 0.542260 0.144716 0.181090 0.774208 -0.606472
0.667564 0.502791 0.311176 0.059889 0.808069 0.586035
0.615038 0.380346 0.229026 -0.009958 0.640453 -0.767933
0.302520 0.047730 0.287461 -0.042044 -0.202107 -0.978461
0.332040 0.103374 0.154039 -0.174323 -0.029179 -0.984256
0.325069 0.203638 0.286124 -0.081461 -0.692431 -0.716871
0.318481 0.760992 0.151924 0.122539 -0.029233 0.992033
0.282208 0.682465 0.287240 0.037657 -0.893881 0.446719
0.304679 0.064343 0.260080 -0.070227 -0.387152 0.919338
0.375051 0.195409 0.145374 -0.555132 -0.025950 -0.831357
0.284632 0.041424 0.259727 -0.036123 -0.314951 0.948420
0.203461 0.735478 0.260837 -0.067705 0.810935 -0.581206
0.260090 0.168818 0.259601 -0.011575 -0.532572 0.846306
0.384893 0.458098 0.158051 0.172211 -0.913946 -0.367485
0.382046 0.074680 0.147960 -0.464392 -0.027207 -0.885212
0.243287 0.820507 0.133481 -0.048266 0.028780 -0.998420
0.199457 0.968810 0.273532 -0.829497 0.428634 -0.358060
0.298025 0.060907 0.287504 -0.039674 -0.224112 -0.973756
0.277109 0.770747 0.287493 0.046316 -0.717166 0.695361
0.392445 0.544892 0.177506 0.167952 0.978795 -0.117271
0.387697 0.230688 0.276971 -0.249907 -0.776033 -0.579067
0.330355 0.551955 0.220998 0.050427 0.933323 0.355478
0.134190 0.535080 0.224621 -0.022108 0.413178 0.910382
0.328219 0.497797 0.245474 -0.147273 -0.039022 0.988326
0.161134 0.547557 0.132949 -0.111074 0.746531 -0.656014
0.301469 0.614644 0.127620 0.057980 0.028614 -0.997908
0.229404 0.754671 0.287675 -0.003747 0.681358 0.731940
0.255787 0.953763 0.287694 -0.018117 0.198285 0.979977
0.261066 0.293221 0.129742 -0.001365 0.028772 0.999585
0.361003 0.636575 0.134540 0.364016 0.025754 -0.931036
0.259288 0.611056 0.260024 0.012650 -0.675240 -0.737489
0.376389 0.155775 0.142596 -0.979816 -0.009057 -0.199695
0.618397 0.490497 0.186551 0.207606 -0.963618 -0.168345
0.330991 0.602039 0.265627 0.032084 -0.960068 -0.277922
0.262312 0.557224 0.207428 -0.135338 0.969513 0.204276
0.240157 0.470835 0.119091 0.038033 -0.353425 -0.934689
0.193709 0.419378 0.070107 0.026352 0.920049 -0.390917
0.250308 0.444898 0.204572 -0.092111 -0.932483 0.349272
0.618487 0.407428 0.215219 -0.009564 0.790210 0.612762
0.376804 0.087638 0.281024 -0.216865 -0.467624 -0.856912
0.174618 0.371432 0.283849 0.060783 0.953520 -0.295134
0.371901 0.480249 0.135135 0.148814 -0.238303 -0.959722
0.223635 0.912535 0.286163 -0.134024 0.433610 0.891078
0.347035 0.560305 0.278884 0.050209 -0.991939 0.116344
0.394896 0.250301 0.275625 -0.232508 -0.809745 -0.538752
0.372616 0.087653 0.265871 -0.306804 -0.763385 0.568432
0.397035 0.331089 0.273582 -0.152618 -0.929310 -0.336289
0.655152 0.502650 0.314036 -0.130954 0.740214 0.659496
0.354188 0.735753 0.266461 0.077952 -0.818390 -0.569351
0.314443 0.425090 0.146663 -0.149534 -0.029200 -0.988325
0.275653 0.112137 0.259728 -0.018158 -0.466021 0.884588
0.355071 0.863944 0.264303 0.136849 -0.617087 -0.774904
0.340509 0.175370 0.262986 -0.105432 -0.660015 0.743818
0.140500 0.552435 0.209127 -0.015659 0.863370 0.504328
0.188097 0.595711 0.049850 -0.174993 0.984551 0.006063
0.237905 0.846000 0.154591 -0.109859 -0.028924 0.993526
0.216404 0.855681 0.261298 -0.111722 0.558277 -0.822098
0.320067 0.675159 0.129973 0.123165 0.028269 -0.991983
0.324953 0.448596 0.127119 -0.127697 0.028230 0.991411
0.254129 0.607542 0.127043 -0.019754 0.028787 -0.999390
0.198024 0.958126 0.273897 -0.828154 0.452160 -0.331228
0.307865 0.231068 0.132158 -0.100924 0.028402 0.994489
0.315347 0.559302 0.181400 0.060442 0.998161 0.004607
0.087218 0.554652 0.174671 -0.354462 0.918279 -0.176407
0.544412 0.490875 0.225669 -0.011776 -0.482272 0.875942
0.389503 0.454205 0.181235 0.161855 -0.983579 -0.079848
0.279295 0.703905 0.287328 0.042458 -0.862849 0.503675
0.330316 0.718082 0.284005 0.122324 -0.852432 0.508327
0.249442 0.242358 0.131476 0.025113 0.028789 0.999270
0.246288 0.080044 0.157116 0.041217 -0.029110 -0.998726
0.361992 0.276554 0.279714 -0.208022 -0.851112 -0.482012
0.228229 0.373890 0.129704 0.200286 0.028299 0.979329
0.273166 0.347134 0.128285 -0.018928 0.028735 0.999408
0.276830 0.657767 0.149661 0.031817 -0.029212 0.999067
0.361286 0.549878 0.139783 0.971977 0.003543 -0.235050
0.578553 0.447264 0.215432 0.060696 0.944640 0.322447
0.357890 0.459214 0.147045 0.174163 -0.787687 -0.590945
0.418358 0.124169 0.272854 -0.344196 -0.632317 -0.694049
0.396282 0.030219 0.279348 -0.248560 -0.357967 -0.900043
0.244825 0.605167 0.127202 -0.045152 0.028783 -0.998565
0.347253 0.265301 0.147166 -0.303325 -0.028645 -0.952456
