0.312524 0.333326 0.260163 -0.018411 -0.966231 0.257018
0.480472 0.141620 0.265557 -0.000962 -0.993031 0.117849
0.525129 0.199408 0.130944 0.376554 -0.484796 -0.789418
0.500038 0.199862 0.130929 -0.111066 -0.300362 -0.947337
0.523942 0.199454 0.589379 0.882785 -0.436169 0.174495
0.563229 0.333371 0.261141 0.001642 -0.777570 0.628795
0.875581 0.136485 0.141591 0.006451 -0.897698 -0.440565
0.935742 0.347524 0.180475 0.211514 0.976228 0.047341
0.655355 0.136163 0.173661 0.004191 -0.999305 0.037047
0.283855 0.149052 0.281581 -0.013966 0.892847 0.450143
0.566759 0.345830 0.200973 0.001704 0.995447 0.095303
0.382880 0.240140 0.659004 -0.034108 0.996883 -0.071147
0.434366 0.154355 0.238407 -0.003166 0.992959 0.118418
0.376442 0.083881 0.168897 -0.996534 -0.019870 -0.080785
0.167179 0.345209 0.119643 -0.006933 0.944639 -0.328038
0.472052 0.346689 0.191190 -0.001201 0.996940 0.078155
0.949628 0.334403 0.109124 0.243204 -0.281929 -0.928099
0.530742 0.256468 0.506186 0.890790 0.448490 0.073142
0.540442 0.248774 0.130953 0.680929 0.120567 -0.722357
0.152789 0.223182 0.155034 0.980234 0.025301 0.196219
0.509943 0.277098 0.327559 -0.112074 0.992736 -0.043759
0.113310 0.329238 0.185729 -0.005259 -0.998340 0.057358
0.046687 0.142919 0.267901 -0.364811 -0.912304 0.186051
0.294657 0.329729 0.193453 -0.002333 -0.998278 0.058605
0.947346 0.327925 0.118213 0.266447 -0.914907 -0.303234
0.315782 0.337859 0.265029 -0.013270 0.633742 0.773431
0.576976 0.240129 0.687030 0.023339 0.998860 -0.041631
0.370123 0.139583 0.227178 -0.001531 -0.998264 0.058886
0.701316 0.151632 0.261334 0.005006 0.987396 0.158190
0.542960 0.182500 0.289198 0.942159 -0.318729 0.103674
0.737154 0.157854 0.199014 0.007802 0.999640 0.025660
0.904261 0.140724 0.137916 0.017869 -0.493322 -0.869663
0.495590 0.326869 0.148978 -0.000121 -0.998914 0.046597
0.774920 0.136933 0.140721 0.005082 -0.853445 -0.521158
0.618870 0.060286 0.153797 0.997090 0.075367 -0.011480
0.791225 0.136824 0.184619 0.008428 -0.998365 0.056529
0.490863 0.348254 0.170584 -0.000399 0.999392 0.034864
0.623620 0.065999 0.125809 0.990397 0.053849 -0.127335
0.648298 0.348332 0.169655 0.003987 0.999556 0.029520
0.478674 0.203401 0.628207 -0.742123 -0.643223 0.188462
0.560542 0.195498 0.063261 0.903518 -0.400090 -0.153569
0.519946 0.347287 0.127787 0.001030 0.978944 -0.204127
0.694956 0.339472 0.110714 0.010732 0.612893 -0.790093
0.476798 0.159062 0.085461 -0.349193 -0.937043 0.003728
0.461156 0.168958 0.353440 -0.818630 -0.572965 0.039431
0.735378 0.142949 0.290709 0.007058 -0.754384 0.656395
0.649180 0.235701 0.694929 0.066365 -0.996286 -0.054859
0.479230 0.222235 0.635101 -0.912354 -0.356492 0.201304
0.400548 0.235686 0.664961 -0.038850 -0.996696 -0.071329
0.175621 0.156953 0.157610 -0.008104 0.986266 -0.164963
0.640906 0.336619 0.274553 0.006607 0.712678 0.701460
0.177791 0.325414 0.124075 -0.010438 -0.998244 -0.058316
0.874037 0.328133 0.169044 0.010352 -0.998346 0.056548
0.583150 0.235681 0.708931 0.008415 -0.999875 -0.013369
0.524468 0.178505 0.045434 -0.217481 0.128525 -0.967566
0.111264 0.156570 0.215551 -0.017818 0.997010 0.075195
0.591918 0.240133 0.719625 0.044825 0.998805 0.019453
0.290728 0.148129 0.288536 -0.014637 0.769091 0.638972
0.636413 0.332880 0.251949 0.003679 -0.932289 0.361696
0.544018 0.169966 0.193703 0.719102 -0.660229 -0.216772
0.520884 0.187899 0.130941 0.251528 -0.610622 -0.750916
0.492142 0.141173 0.257165 -0.000420 -0.994429 0.105404
0.536615 0.256534 0.304300 0.457357 0.785123 -0.417621
0.297186 0.158338 0.192372 -0.008401 0.999541 0.029114
0.191936 0.327805 0.163560 -0.005481 -0.998485 0.054757
0.796658 0.157895 0.166855 0.014628 0.990139 -0.139324
0.346718 0.235702 0.735274 -0.276912 -0.956999 0.086439
0.763046 0.138131 0.204874 0.007331 -0.998339 0.057152
0.474543 0.200722 0.576647 -0.816585 -0.550868 0.172434
0.482985 0.208614 0.037524 0.212878 -0.283603 0.935015
0.535683 0.201892 0.136362 0.379355 -0.146496 0.913580
0.525934 0.278216 0.194797 0.685387 0.717716 -0.122995
0.123403 0.341038 0.240783 -0.020474 0.975096 0.220837
0.329875 0.135597 0.145993 -0.005792 -0.958640 -0.284561
0.400064 0.089933 0.173877 0.894839 0.108564 0.432987
0.503638 0.212656 0.032525 0.382398 -0.813965 -0.437302
0.341239 0.142576 0.283460 -0.013856 -0.977014 0.212723
0.509493 0.138154 0.205080 0.000242 -0.998349 0.057431
0.863942 0.142510 0.282539 0.013692 -0.913153 0.407388
0.479443 0.333892 0.270892 -0.003360 -0.555826 0.831292
0.481286 0.139775 0.230854 -0.000893 -0.997995 0.063292
0.705950 0.329541 0.190776 0.005387 -0.998333 0.057462
0.492499 0.270124 0.528584 0.216342 0.964482 0.151563
0.047859 0.342302 0.187875 -0.603631 0.789042 0.114203
0.248737 0.343286 0.222058 -0.012424 0.987877 0.154738
0.497916 0.269509 0.222076 0.018735 0.747203 0.664332
0.954475 0.140139 0.144121 0.360941 -0.771885 -0.523370
0.293004 0.145393 0.137115 -0.005467 0.297117 -0.954826
0.848933 0.196177 0.263509 0.033674 0.116247 0.992649
0.345928 0.136442 0.141504 -0.006102 -0.852365 -0.522912
0.188579 0.329016 0.182338 -0.003972 -0.998331 0.057617
0.455917 0.249539 0.248632 -0.953411 0.300580 0.025694
0.115145 0.325682 0.118872 -0.014113 -0.977958 -0.208322
0.484476 0.177975 0.461288 -0.535672 -0.822234 0.192319
0.461447 0.202440 0.036338 0.110418 -0.240150 0.964436
0.320895 0.152618 0.252861 -0.008608 0.988007 0.154170
0.538578 0.213457 0.391988 0.998712 -0.002013 0.050706
0.480277 0.236514 0.648140 -0.973418 -0.111548 0.200036
0.542922 0.235626 0.290912 0.956207 0.276679 0.095488
0.383269 0.143729 0.305182 -0.016023 -0.646449 0.762789
0.513812 0.246205 0.706087 0.943322 0.247817 0.220751
0.567767 0.325610 0.127645 0.001765 -0.999780 -0.020913
0.671554 0.150188 0.273265 0.004393 0.980990 0.194009
0.510305 0.342301 0.114321 0.000935 0.820523 -0.571612
0.520240 0.252384 0.635255 0.906239 0.392051 0.158198
0.477125 0.158896 0.080658 -0.350508 -0.936062 -0.030531
0.858814 0.141224 0.258343 0.008782 -0.991916 0.126594
0.461442 0.139335 0.223364 -0.000466 -0.998291 0.058434
0.503629 0.308454 0.736596 0.999459 0.012697 -0.030347
0.504072 0.278233 0.145077 0.214440 0.743951 -0.632892
0.960392 0.143169 0.242895 0.892965 -0.390040 0.224684
0.503886 0.345022 0.207692 0.000031 0.993566 0.113254
0.435189 0.348437 0.168140 -0.002700 0.999471 0.032411
0.662623 0.347713 0.131888 0.007934 0.983645 -0.179945
0.274584 0.157833 0.199008 -0.009344 0.998995 0.043835
0.516629 0.226475 0.676019 0.967158 -0.125046 0.221289
0.064267 0.331573 0.227030 -0.088339 -0.992038 0.089758
0.031721 0.142852 0.188207 -0.992288 -0.095369 0.079184
0.518200 0.330688 0.210651 0.000410 -0.996944 0.078120
0.783486 0.158827 0.175636 0.012965 0.998122 -0.059874
0.727754 0.147529 0.293307 0.008778 0.936288 0.351123
0.860288 0.343152 0.223546 0.009276 0.991031 0.133308
0.486103 0.283247 0.110421 -0.199293 0.972013 -0.124395
0.268128 0.344622 0.210896 -0.011014 0.992263 0.123667
0.902059 0.327387 0.157494 0.019452 -0.998276 0.055377
0.808307 0.156549 0.154180 0.017348 0.966790 -0.254983
0.806795 0.349692 0.150617 0.013970 0.999511 -0.027983
0.535576 0.188215 0.446202 0.945562 -0.302229 0.120705
0.868145 0.335850 0.280475 0.014602 0.884831 0.465683
0.490744 0.181085 0.490633 -0.379400 -0.899284 0.217585
0.508723 0.211463 0.130934 0.112680 -0.188083 -0.975668
0.502135 0.225321 0.029489 -0.038221 0.075806 -0.996390
0.739547 0.326286 0.139215 0.006414 -0.999731 0.022298
0.458551 0.252428 0.328778 -0.991885 0.102169 -0.075665
0.653655 0.154164 0.240135 0.003890 0.993536 0.113453
0.057645 0.136509 0.171597 -0.286839 -0.957969 0.004351
0.832560 0.138089 0.204259 0.009096 -0.998346 0.056774
0.448710 0.330726 0.211313 -0.002392 -0.997101 0.076045
0.073125 0.158064 0.168024 -0.145084 0.985355 -0.089583
0.939852 0.329341 0.187817 0.189893 -0.980534 0.049930
0.028991 0.336110 0.192705 -0.983440 -0.014773 0.180629
0.548426 0.326129 0.136448 0.001249 -0.999972 0.007389
0.548521 0.150416 0.236304 0.938416 0.188160 0.289777
0.539284 0.262650 0.312406 0.365236 0.783056 -0.503414
0.470996 0.145950 0.137574 -0.000303 0.302789 -0.953058
0.894522 0.349446 0.148353 0.018411 0.998360 -0.054208
0.476850 0.225467 0.605394 -0.963777 -0.193033 0.184044
0.554723 0.256583 0.064849 0.838106 0.526662 -0.142149
0.551148 0.157108 0.159294 0.002446 0.982838 -0.184454
0.210709 0.347051 0.125381 -0.007029 0.980677 -0.195506
0.566341 0.235676 0.691868 0.012803 -0.999451 -0.030565
0.570744 0.097044 0.151532 -0.748202 -0.445889 -0.491301
0.449462 0.178801 0.085013 -0.769479 -0.638672 0.000403
0.193362 0.326845 0.148389 -0.006448 -0.999094 0.042071
0.938257 0.158799 0.186671 0.267047 0.963624 -0.010765
0.513783 0.269645 0.045428 0.100051 -0.056920 -0.993353
0.367416 0.151560 0.261737 -0.006657 0.984249 0.176660
0.500624 0.163726 0.283378 0.032700 -0.997056 0.069352
0.150036 0.200169 0.184981 -0.952892 0.136204 -0.271007
0.474370 0.347964 0.174398 -0.001086 0.999053 0.043492
0.281039 0.155275 0.230623 -0.010384 0.994738 0.101928
0.926371 0.332945 0.253347 0.289440 -0.842586 0.454174
0.072855 0.151891 0.258793 -0.219002 0.951036 0.218102
0.251640 0.158748 0.186939 -0.010275 0.999747 0.020033
0.615312 0.026720 0.143771 0.097055 -0.971068 -0.218190
0.705937 0.348086 0.172932 0.005924 0.999394 0.034312
0.529191 0.249210 0.525190 0.920117 0.379566 0.096508
0.102360 0.341459 0.112480 -0.005358 0.813948 -0.580913
0.033642 0.337634 0.181244 -0.947240 0.291285 0.133754
0.609802 0.343093 0.223886 0.002697 0.989534 0.144272
0.665746 0.349101 0.159539 0.006205 0.999970 0.004706
0.618002 0.349468 0.154671 0.004795 0.999980 -0.004095
0.526022 0.160440 0.075098 0.388245 -0.918881 -0.070160
0.851205 0.211344 0.257682 0.780495 -0.090251 -0.618613
0.140468 0.156727 0.155460 -0.009037 0.983636 -0.179942
0.439066 0.113785 0.156640 0.698921 -0.421340 0.577912
0.493698 0.277955 0.101602 -0.073629 0.997267 0.006104
0.152793 0.272271 0.149381 0.730654 0.103901 0.674796
0.690594 0.156462 0.153288 0.010763 0.968047 -0.250537
0.899059 0.333374 0.261401 0.031003 -0.632632 0.773832
0.569056 0.143543 0.301789 0.001612 -0.431613 0.902057
0.526154 0.158921 0.184825 0.000704 0.999993 0.003628
0.157665 0.146258 0.302532 -0.061217 -0.337338 0.939391
0.576513 0.329467 0.189564 0.002182 -0.998305 0.058165
0.621892 0.345119 0.206951 0.003098 0.994379 0.105832
0.464747 0.260269 0.454218 -0.739570 0.664493 0.107166
0.220756 0.151965 0.258261 -0.014430 0.983789 0.178747
0.618099 0.349406 0.155496 0.004669 0.999987 -0.002133
0.263552 0.153575 0.244828 -0.011238 0.990727 0.135403
0.853898 0.136012 0.144098 0.006925 -0.943650 -0.330873
0.693211 0.147514 0.293403 0.007902 0.935167 0.354118
0.499682 0.371533 0.725954 -0.993858 0.107038 -0.028096
0.600890 0.334161 0.276041 0.002450 -0.328908 0.944359
0.476407 0.156942 0.157681 -0.000471 0.981269 -0.192644
0.928342 0.343104 0.116095 0.196802 0.789425 -0.581445
0.623568 0.057157 0.183329 0.887210 -0.237073 0.395797
0.469183 0.207834 0.509736 -0.961709 -0.232169 0.145648
0.526313 0.188554 0.049234 -0.431016 0.477888 -0.765407
0.199572 0.325632 0.119188 -0.010314 -0.984154 -0.177013
0.541413 0.245449 0.326314 0.920358 0.388402 -0.045661
0.140491 0.327539 0.159407 -0.006905 -0.998540 0.053583
0.503643 0.282324 0.712543 0.999466 0.008635 -0.031505
0.526402 0.164226 0.290396 0.694539 -0.708806 0.123325
0.447456 0.180818 0.070188 -0.804605 -0.584461 -0.104958
0.788521 0.142078 0.274363 0.007214 -0.979308 0.202247
0.227229 0.330066 0.198778 -0.003323 -0.998211 0.059692
0.577464 0.096229 0.176499 0.613611 0.675659 -0.408615
0.683487 0.330763 0.212154 0.004554 -0.996829 0.079438
0.232073 0.139577 0.226968 -0.003037 -0.998257 0.058938
0.816943 0.333152 0.257176 0.011651 -0.848731 0.528696
0.651754 0.150123 0.273746 0.003963 0.979947 0.199221
0.522848 0.172732 0.404980 0.750285 -0.641450 0.160048
0.450103 0.178177 0.056592 -0.771150 -0.604173 -0.200755
0.686073 0.136400 0.177700 0.005245 -0.998845 0.047766
0.270930 0.157563 0.202561 -0.009628 0.998675 0.050545
0.686158 0.158996 0.177172 0.008508 0.999135 -0.040693
0.370133 0.329526 0.190350 -0.001488 -0.998296 0.058342
0.607129 0.108688 0.159236 -0.399156 0.916834 0.009490
0.310113 0.342803 0.226136 -0.009344 0.986797 0.161690
0.243412 0.347609 0.178941 -0.011196 0.998122 0.060225
0.911077 0.140866 0.251626 0.059637 -0.991677 0.114108
0.891347 0.157239 0.207207 0.013549 0.999255 0.036137
0.627288 0.235694 0.755841 0.080940 -0.994872 0.060645
0.539416 0.260314 0.373158 0.864877 0.501309 -0.026034
0.612542 0.135012 0.154097 0.002927 -0.999632 -0.026986
0.234217 0.327224 0.154582 -0.005354 -0.998537 0.053812
0.399420 0.331075 0.217848 -0.004653 -0.996520 0.083230
0.503638 0.314252 0.721199 0.998743 0.019960 -0.045989
0.526974 0.343087 0.223883 0.000595 0.988741 0.149638
0.194091 0.347740 0.177182 -0.013436 0.998245 0.057673
0.370625 0.174242 0.251311 -0.751079 0.402975 0.522964
0.849524 0.266835 0.254470 0.053513 0.132470 0.989742
0.541792 0.156895 0.150964 0.096784 0.035261 -0.994681
0.856632 0.348518 0.167330 0.013691 0.999834 0.012052
0.566088 0.159040 0.177521 0.003029 0.999539 -0.030200
0.265715 0.143735 0.305231 -0.028197 -0.861102 0.507650
0.877736 0.134951 0.153210 0.009819 -0.999796 -0.017642
0.949988 0.154551 0.174408 0.618643 0.778023 -0.109363
0.386084 0.142104 0.274617 -0.006748 -0.989673 0.143184
0.525453 0.264739 0.314486 0.228448 0.794759 -0.562289
0.838904 0.343912 0.217173 0.008801 0.992570 0.121356
0.145220 0.140162 0.237927 -0.007404 -0.997519 0.070000
0.260197 0.343815 0.217646 -0.011504 0.990002 0.140584
0.426283 0.344374 0.213068 -0.003554 0.991903 0.126945
0.817536 0.347390 0.182168 0.009557 0.998714 0.049783
0.038079 0.333652 0.224201 -0.608701 -0.761712 0.221986
0.463703 0.344647 0.118752 -0.000245 0.916963 -0.398973
0.427639 0.240127 0.739323 -0.025463 0.998839 0.040899
0.530670 0.346730 0.190690 0.000783 0.997167 0.075217
0.695205 0.349009 0.144115 0.008961 0.997037 -0.076404
0.392703 0.027146 0.141488 0.564232 -0.788630 -0.244345
0.455919 0.229633 0.237910 -0.988348 0.140517 -0.058508
0.771299 0.346742 0.190669 0.007283 0.997499 0.070302
0.152039 0.349738 0.150665 -0.014363 0.999855 0.009128
0.536582 0.251960 0.434364 0.914382 0.403426 0.033951
0.528061 0.174280 0.425898 0.832403 -0.535249 0.143579
0.122990 0.156495 0.216553 -0.017314 0.996894 0.076826
0.549195 0.177349 0.122502 0.714271 -0.589983 0.376479
0.500705 0.180496 0.066184 0.050644 0.535428 -0.843061
0.444718 0.240122 0.643368 -0.014692 0.998852 -0.045590
0.110740 0.328405 0.172822 -0.006398 -0.998447 0.055342
0.544091 0.232571 0.141247 0.759368 -0.080590 -0.645651
0.220510 0.142475 0.281489 -0.018363 -0.981704 0.189527
0.434066 0.144063 0.311491 -0.008903 -0.319030 0.947703
0.106610 0.142295 0.278045 -0.021672 -0.987734 0.154634
0.601135 0.144528 0.315814 0.004179 0.270992 0.962573
0.609996 0.135532 0.162918 0.002846 -0.999994 0.002184
0.489800 0.258171 0.307487 -0.118770 0.812921 -0.570135
0.252849 0.330603 0.208892 -0.006150 -0.997549 0.069702
0.436892 0.118259 0.150289 -0.180027 0.062869 -0.981651
0.686602 0.150046 0.274347 0.004934 0.979435 0.201700
0.566368 0.064693 0.146533 0.010286 -0.593147 -0.805028
0.383298 0.149723 0.276593 -0.007048 0.950298 0.311262
0.599985 0.091131 0.138200 -0.917873 0.161586 -0.362491
0.539110 0.249184 0.380120 0.916776 0.399333 -0.007380
0.751234 0.140640 0.247275 0.006229 -0.995798 0.091370
0.826881 0.347472 0.181089 0.010155 0.998859 0.046661
0.229868 0.333204 0.257813 -0.020949 -0.972227 0.233102
0.502297 0.183538 0.513837 0.012092 -0.969381 0.245263
0.114830 0.328581 0.175549 -0.006083 -0.998423 0.055805
0.382343 0.346046 0.199058 -0.005602 0.995498 0.094616
0.900180 0.150975 0.266941 0.010118 0.986983 0.160508
0.495768 0.137700 0.198022 -0.000081 -0.998371 0.057061
0.536296 0.240117 0.698331 0.006258 0.999847 -0.016343
0.488396 0.160462 0.106519 -0.207802 -0.975302 -0.074868
0.373010 0.207783 0.154161 0.498399 -0.128951 -0.857304
0.452463 0.240120 0.694132 -0.005096 0.999799 -0.019389
0.126210 0.334737 0.286593 -0.041338 -0.875508 0.481433
0.458350 0.206786 0.324178 -0.959987 -0.277603 -0.036904
0.727742 0.144179 0.313850 0.010965 0.444599 0.895663
0.857212 0.338456 0.260859 0.011603 0.949110 0.314731
0.525098 0.258367 0.575573 0.877517 0.466216 0.112279
0.739012 0.338661 0.259248 0.008323 0.950812 0.309655
0.502371 0.139608 0.227717 0.000025 -0.998228 0.059512
0.748881 0.327373 0.157189 0.007197 -0.998372 0.056582
0.360329 0.153559 0.245021 -0.006670 0.990857 0.134751
0.752077 0.347285 0.183506 0.006774 0.998410 0.055955
0.932759 0.348882 0.143054 0.245147 0.963920 -0.103737
0.459034 0.346630 0.122518 -0.000765 0.968244 -0.250006
0.534163 0.162358 0.176057 0.444300 -0.840572 -0.309898
0.530623 0.277859 0.117094 0.454914 0.882620 0.118470
0.541644 0.231413 0.320694 0.969104 0.246433 -0.010428
0.502623 0.182776 0.506656 0.037619 -0.968842 0.244806
0.624501 0.149584 0.277786 0.003864 0.972318 0.233629
0.437334 0.156521 0.216399 -0.002632 0.997395 0.072091
0.913374 0.158110 0.168951 0.111329 0.985003 -0.131811
0.473842 0.325927 0.117780 -0.000777 -0.970908 -0.239450
0.337544 0.339548 0.252332 -0.010521 0.899710 0.436361
0.823794 0.136363 0.177156 0.009223 -0.998890 0.046191
0.921710 0.139190 0.221386 0.108009 -0.992736 0.053004
0.927782 0.328949 0.181732 0.135040 -0.989698 0.047564
0.948099 0.331091 0.189845 0.411973 -0.910008 0.046508
0.484050 0.276611 0.355516 -0.281668 0.959511 -0.001023
0.470390 0.254545 0.300356 -0.307963 0.820501 -0.481599
0.741595 0.340064 0.248688 0.006819 0.974467 0.224427
0.864700 0.139078 0.219619 0.009372 -0.998353 0.056600
0.620869 0.348962 0.161347 0.003872 0.999924 0.011669
0.541241 0.213259 0.329830 0.993849 0.017485 0.109352
0.381166 0.064753 0.170314 -0.980089 0.017412 -0.197793
0.595718 0.347320 0.182959 0.002551 0.998314 0.057997
0.218286 0.135362 0.159795 -0.007924 -0.999615 -0.026602
0.632169 0.235696 0.701080 0.021581 -0.999295 -0.030727
0.143089 0.158729 0.187130 -0.014879 0.999583 0.024763
0.485510 0.343979 0.216402 -0.000763 0.990972 0.134070
0.949829 0.335151 0.109630 0.271717 -0.199560 -0.941459
0.162576 0.143568 0.302018 -0.032677 -0.935453 0.351937
0.158320 0.347095 0.125767 -0.008329 0.982270 -0.187285
0.456011 0.168026 0.268206 -0.841631 -0.536435 -0.062415
0.520958 0.193041 0.137661 0.229863 -0.230439 0.945548
0.456099 0.145678 0.155180 0.851241 -0.491544 0.183778
0.408994 0.151552 0.261825 -0.004395 0.984842 0.173398
0.512536 0.200803 0.130936 0.151972 -0.393759 -0.906564
0.623902 0.235693 0.750777 0.083349 -0.995210 0.051098
0.565084 0.240125 0.722154 0.027840 0.999263 0.026440
0.906533 0.329249 0.186368 0.038532 -0.997862 0.052797
0.544621 0.240119 0.647510 0.027560 0.997119 -0.070672
0.499660 0.372388 0.762678 -0.976829 0.188956 0.100500
0.540123 0.205805 0.355810 0.990408 -0.077649 0.114295
0.455949 0.169483 0.164302 -0.800625 -0.343366 -0.491019
0.656253 0.334717 0.286525 0.006881 0.311612 0.950184
0.516536 0.283668 0.065389 0.271078 0.952462 -0.139041
0.538525 0.329505 0.190125 0.001085 -0.998305 0.058182
0.398303 0.329159 0.184681 -0.001173 -0.998315 0.058008
0.517498 0.248031 0.666892 0.941426 0.279459 0.188734
0.554217 0.138867 0.216150 0.001541 -0.998313 0.058038
0.473660 0.328688 0.177421 -0.000329 -0.998344 0.057527
0.623606 0.090408 0.141958 0.997579 0.050465 0.047839
0.477672 0.196186 0.615710 -0.689926 -0.701631 0.178090
0.630427 0.288384 0.143382 0.811689 -0.075231 -0.579224
0.540199 0.326738 0.146772 0.001015 -0.999148 0.041270
0.433008 0.326206 0.137683 -0.001410 -0.999962 0.008568
0.848973 0.144913 0.313064 0.014587 0.855048 0.518344
0.206328 0.140806 0.137440 -0.010920 -0.288068 -0.957548
0.524815 0.160115 0.053719 0.327220 -0.912882 -0.244076
0.746755 0.137734 0.198704 0.007135 -0.998335 0.057240
0.857798 0.333400 0.261864 0.022063 -0.663280 0.748046
0.195124 0.337560 0.267209 -0.045097 0.350200 0.935589
0.551063 0.261421 0.125849 0.642291 0.561701 0.521492
0.369562 0.334774 0.287422 -0.016700 -0.351682 0.935970
0.605091 0.089292 0.116802 -0.401129 0.469264 -0.786693
0.373360 0.265004 0.254026 0.749214 0.103516 0.654188
0.454802 0.261875 0.106984 -0.720995 0.688151 -0.081326
0.464999 0.271046 0.457332 -0.649994 0.754026 0.094624
0.459802 0.269818 0.319528 -0.893969 0.388411 -0.223508
0.611059 0.325264 0.121389 0.002861 -0.999039 -0.043727
0.553583 0.258263 0.036856 -0.270273 0.614700 0.741010
0.296849 0.326467 0.142030 -0.004271 -0.999752 0.021851
0.530772 0.271281 0.505630 0.819245 0.571210 0.050556
0.417902 0.085044 0.165308 -0.092687 0.703015 -0.705109
0.305460 0.142751 0.286739 -0.017399 -0.971258 0.237394
0.255284 0.137890 0.200825 -0.003458 -0.998385 0.056699
0.488176 0.231234 0.066177 -0.226306 0.059888 -0.972213
0.460617 0.349560 0.153372 -0.001629 0.999998 0.000797
0.362690 0.349365 0.155882 -0.005681 0.999929 0.010510
0.670513 0.325916 0.132892 0.004412 -0.999989 0.001509
0.825919 0.158922 0.176561 0.014888 0.998395 -0.054644
0.503608 0.302632 0.772228 0.999273 -0.018132 0.033551
0.618863 0.068977 0.162072 0.995704 0.023308 -0.089616
0.599952 0.050458 0.175357 -0.886901 -0.311511 0.341128
0.610938 0.089267 0.116790 -0.042014 0.536406 -0.842914
0.927655 0.327947 0.166192 0.133665 -0.990206 0.040326
0.651842 0.141793 0.268909 0.003651 -0.990920 0.134403
0.956625 0.334806 0.262301 0.500673 0.756159 0.421367
0.513178 0.272085 0.490324 0.592176 0.802113 0.077093
0.514532 0.191274 0.586808 0.606131 -0.764354 0.219928
0.074799 0.334379 0.279823 -0.194878 -0.858926 0.473570
0.409331 0.135317 0.147532 -0.003048 -0.980027 -0.198842
0.133388 0.155276 0.230531 -0.017347 0.994489 0.103399
0.510284 0.155990 0.098580 0.181258 -0.978631 0.097090
0.646891 0.240149 0.722653 0.083363 0.996117 0.028300
0.188984 0.139051 0.218797 -0.003515 -0.998278 0.058557
0.526455 0.269712 0.045435 0.210697 0.230091 -0.950087
0.274881 0.331934 0.233950 -0.010362 -0.994861 0.100719
0.596336 0.330629 0.109210 0.003166 -0.490084 -0.871669
0.119254 0.142160 0.275513 -0.019609 -0.990691 0.134712
0.707439 0.156392 0.152638 0.011826 0.966060 -0.258048
0.143531 0.345612 0.120396 -0.007840 0.955043 -0.296362
0.400066 0.081859 0.168576 0.966850 -0.051716 0.250054
0.483343 0.193440 0.130919 -0.425617 -0.231928 -0.874677
0.903584 0.158584 0.173421 0.042453 0.995003 -0.090371
0.360020 0.235698 0.670248 -0.050635 -0.995572 -0.079194
0.609246 0.235689 0.669409 0.030839 -0.997548 -0.062821
0.469848 0.265347 0.130911 -0.666106 0.497812 -0.555415
0.788702 0.344119 0.215412 0.007472 0.992873 0.118942
0.623615 0.094455 0.131399 0.863398 0.451433 -0.225282
0.106315 0.331225 0.220497 -0.011395 -0.996607 0.081512
0.327203 0.159161 0.181542 -0.007142 0.999960 0.005412
0.459000 0.161922 0.249601 -0.222358 -0.635696 0.739220
0.928710 0.340173 0.247981 0.091199 0.971993 0.216592
0.050208 0.145428 0.292870 -0.556057 -0.623232 0.549892
0.544676 0.260667 0.132041 0.464225 0.469102 0.751291
0.248785 0.332434 0.243342 -0.011759 -0.993168 0.116096
0.381025 0.066980 0.109863 -0.375450 -0.055867 -0.925157
0.519888 0.282825 0.111041 0.312790 0.940791 -0.130671
0.230198 0.334308 0.278570 -0.031636 -0.870239 0.491613
0.520877 0.148170 0.288363 0.000737 0.822966 0.568090
0.452760 0.334418 0.280784 -0.006605 -0.320142 0.947346
0.327768 0.151897 0.258895 -0.008632 0.985134 0.171568
0.436934 0.331858 0.232600 -0.002950 -0.994059 0.108801
0.453844 0.207564 0.037070 -0.415559 0.684283 0.599222
0.914903 0.143383 0.298980 0.257025 0.286423 0.922984
0.623621 0.076284 0.125329 0.973722 0.143227 -0.177064
0.228178 0.345786 0.120777 -0.005847 0.956671 -0.291114
0.563977 0.140050 0.236077 0.001562 -0.997382 0.072295
0.095033 0.147058 0.296478 -0.191199 -0.148187 0.970301
0.509649 0.162831 0.271406 0.352898 -0.932866 0.072283
0.432418 0.235676 0.683240 -0.022072 -0.998873 -0.042022
0.719048 0.138188 0.205719 0.006198 -0.998333 0.057391
0.602004 0.235687 0.699262 0.017461 -0.999393 -0.030138
0.659302 0.158457 0.191015 0.005512 0.999923 0.011152
0.455958 0.168755 0.148870 -0.772931 -0.316416 -0.549962
0.407601 0.240133 0.771428 -0.052376 0.968974 0.241549
0.513907 0.346086 0.198807 0.000311 0.995745 0.092148
0.521349 0.240112 0.675617 -0.003849 0.999508 -0.031137
0.477214 0.162402 0.153246 -0.561232 -0.593390 -0.576980
0.848245 0.306938 0.140995 -0.202930 -0.113377 -0.972607
0.440573 0.198923 0.131415 -0.638021 -0.266568 0.722406
0.511254 0.238937 0.733254 0.959851 0.125967 0.250638
0.624443 0.155311 0.230523 0.003253 0.995441 0.095327
0.480374 0.162400 0.183935 -0.561362 -0.706615 -0.430776
0.523964 0.243952 0.589392 0.933298 0.328609 0.144813
0.524997 0.143562 0.302122 0.000241 -0.422388 0.906415
0.336379 0.338558 0.259784 -0.011565 0.768324 0.639956
0.455919 0.234722 0.239961 -0.981640 0.186723 -0.038943
0.599982 0.028373 0.142985 -0.868522 -0.490267 -0.072861
0.628914 0.142998 0.291570 0.003723 -0.737675 0.675146
0.394641 0.235688 0.654986 -0.044350 -0.995529 -0.083399
0.172882 0.157506 0.162817 -0.009497 0.992222 -0.124121
0.378320 0.325285 0.122006 -0.003995 -0.998655 -0.051689
0.483235 0.250431 0.680741 -0.968521 0.138388 0.206921
0.967518 0.147119 0.223161 0.913376 0.383817 0.135756
0.372322 0.177212 0.265653 0.645262 0.107752 0.756324
0.147946 0.141069 0.255001 -0.012637 -0.996131 0.086962
0.361289 0.330730 0.108993 -0.006089 -0.416675 -0.909035
0.190112 0.339317 0.253984 -0.021224 0.868953 0.494440
0.071485 0.348728 0.164096 -0.181895 0.982885 0.029179
0.050544 0.328812 0.146746 -0.538592 -0.842026 0.030169
0.533307 0.233276 0.130949 0.598709 -0.030598 -0.800382
0.477416 0.337143 0.270509 -0.002079 0.484096 0.875012
0.918550 0.135784 0.167382 0.083535 -0.996504 0.001402
0.871342 0.159119 0.182422 0.016536 0.999625 -0.021842
0.851274 0.311948 0.141748 0.999148 0.007740 -0.040537
0.455938 0.249081 0.212507 -0.940869 0.315158 -0.124260
0.186917 0.337894 0.264686 -0.043201 0.502328 0.863597
0.151406 0.348466 0.167595 -0.014967 0.999037 0.041248
0.498443 0.189022 0.565468 -0.201418 -0.949345 0.241195
0.546113 0.235670 0.761445 -0.041652 -0.994847 0.092441
0.522395 0.135361 0.159958 0.000586 -0.999929 -0.011909
0.217693 0.134838 0.149967 -0.009577 -0.996847 -0.078773
0.963768 0.338569 0.197346 0.851416 0.504102 0.144818
0.918622 0.142198 0.276703 0.161792 -0.945632 0.282140
0.400079 0.092862 0.121985 0.526643 0.549935 -0.648243
0.839232 0.343267 0.116351 0.018946 0.839760 -0.542627
0.673695 0.157389 0.205097 0.004667 0.999089 0.042411
0.845385 0.143865 0.308008 0.020287 0.572585 0.819594
0.575281 0.235679 0.708139 0.007529 -0.999878 -0.013696
0.369349 0.346417 0.194722 -0.006044 0.996226 0.086588
0.503631 0.329521 0.732638 0.999056 0.019601 -0.038764
0.520241 0.162588 0.268260 0.611385 -0.786739 0.085145
0.541767 0.192797 0.317223 0.970629 -0.214504 0.108940
0.794267 0.332494 0.244784 0.007280 -0.982233 0.187523
0.794379 0.146805 0.138307 0.014301 0.337369 -0.941264
0.465552 0.260432 0.231132 -0.266890 0.812176 0.518787
0.370677 0.143573 0.302242 -0.017393 -0.749797 0.661439
0.469431 0.214653 0.512816 -0.979171 -0.138102 0.148838
0.791746 0.156802 0.212899 0.008097 0.998422 0.055569
0.378534 0.240142 0.697614 -0.020991 0.999183 -0.034541
0.502979 0.202877 0.676896 0.233757 -0.924800 0.300171
0.825464 0.153743 0.243758 0.008476 0.993091 0.117045
0.164164 0.335824 0.280246 -0.049294 -0.643335 0.763997
0.527761 0.235108 0.542652 0.964193 0.231290 0.129754
0.677803 0.343444 0.220993 0.004425 0.991093 0.133098
0.574482 0.137460 0.194358 0.002130 -0.998377 0.056908
0.468209 0.334641 0.284976 -0.004341 -0.157246 0.987550
0.768718 0.138968 0.217854 0.007026 -0.998343 0.057121
0.931101 0.341771 0.235132 0.091117 0.984710 0.148472
0.519249 0.230622 0.647305 0.979616 -0.035043 0.197800
0.400078 0.047316 0.126128 0.876274 -0.287921 -0.386323
0.545329 0.240119 0.749744 -0.014298 0.994176 0.106812
0.499669 0.327793 0.748609 -0.999135 0.041539 0.001818
0.493557 0.256072 0.303369 -0.073889 0.856838 -0.510263
0.503651 0.263460 0.698839 0.999632 0.003501 -0.026917
0.485615 0.334686 0.285841 -0.002228 -0.091070 0.995842
0.460220 0.163786 0.283724 -0.799932 -0.599045 -0.035403
0.963099 0.337988 0.124603 0.919928 -0.150842 -0.361910
0.482534 0.264208 0.643244 -0.885155 0.432732 0.171008
0.386684 0.339727 0.251018 -0.007263 0.918034 0.396435
0.586204 0.327516 0.159316 0.002471 -0.998394 0.056595
0.201659 0.141708 0.267058 -0.013711 -0.994622 0.102660
0.441486 0.347657 0.178420 -0.002451 0.998576 0.053301
0.483282 0.172582 0.402529 -0.578803 -0.797242 0.171441
0.448189 0.335130 0.285640 -0.005398 -0.019373 0.999798
0.728875 0.143361 0.298470 0.009875 -0.435879 0.899951
0.469211 0.183027 0.508762 -0.765982 -0.626681 0.143325
0.491361 0.346439 0.194504 -0.000407 0.996460 0.084067
0.900357 0.333775 0.268941 0.039320 0.161035 0.986165
0.519847 0.144273 0.315503 0.000021 -0.026434 0.999651
0.399703 0.334077 0.274326 -0.013951 -0.660202 0.750958
0.487484 0.163310 0.103430 -0.247320 -0.968283 -0.035511
0.494879 0.162388 0.233854 -0.279396 -0.944710 -0.171642
0.784813 0.346039 0.121586 0.016554 0.944967 -0.326747
0.699095 0.141213 0.258040 0.004882 -0.993629 0.112591
0.233475 0.155283 0.230525 -0.012627 0.994679 0.102242
0.710533 0.347049 0.186590 0.005648 0.997988 0.063145
0.503641 0.348708 0.715670 0.997045 0.034852 -0.068453
0.456089 0.189313 0.269953 -0.975219 -0.160066 -0.152730
0.597349 0.328373 0.172612 0.002794 -0.998353 0.057299
0.628405 0.221700 0.152425 -0.160636 -0.136187 -0.977573
0.265359 0.157445 0.204120 -0.009970 0.998526 0.053355
0.871572 0.342665 0.227619 0.009515 0.989966 0.140984
0.272809 0.152900 0.145111 -0.002725 0.882737 -0.469859
0.485847 0.179808 0.478566 -0.508543 -0.837837 0.198530
0.230906 0.327280 0.155437 -0.005351 -0.998531 0.053910
0.397040 0.344171 0.214748 -0.004936 0.991342 0.131212
0.534285 0.206087 0.462216 0.986945 -0.112785 0.114978
0.751058 0.139966 0.234593 0.006253 -0.997613 0.068767
0.532335 0.190461 0.486070 0.937105 -0.320061 0.139267
0.047082 0.334531 0.277272 -0.224818 -0.960927 0.161484
0.544028 0.242762 0.257804 0.851680 0.456178 0.257959
0.543738 0.142232 0.277117 0.001025 -0.967584 0.252546
0.408083 0.235684 0.718078 -0.044332 -0.998899 0.015336
0.258770 0.349661 0.151921 -0.009970 0.999925 0.007174
0.476211 0.271045 0.511002 -0.482411 0.865345 0.135861
0.805501 0.150314 0.272396 0.007649 0.984013 0.177933
0.861625 0.327946 0.111406 0.007034 -0.823779 -0.566868
0.499665 0.296655 0.754241 -0.999867 0.014818 0.006877
0.467339 0.246037 0.136070 -0.358327 0.228061 0.905312
0.803079 0.149636 0.277497 0.008366 0.975641 0.219214
0.417219 0.328699 0.110570 -0.003459 -0.688820 -0.724924
0.825378 0.153625 0.244739 0.008458 0.992864 0.118955
0.376443 0.104834 0.166513 -0.687509 0.697296 0.202755
0.148770 0.175723 0.162256 -0.668246 0.080598 0.739561
0.528508 0.330717 0.211200 0.000668 -0.996881 0.078920
0.640651 0.235698 0.692909 0.027936 -0.998638 -0.044066
0.487817 0.261477 0.230100 -0.083637 0.805429 0.586762
0.289162 0.155182 0.231403 -0.010003 0.994562 0.103664
0.572171 0.151717 0.260547 0.001732 0.986340 0.164713
0.225229 0.138633 0.212330 -0.003118 -0.998302 0.058160
0.396026 0.165212 0.030023 -0.206359 0.286602 -0.935562
0.425926 0.138894 0.216492 -0.000863 -0.998309 0.058121
0.430334 0.097528 0.154213 0.832635 -0.514299 0.205464
0.514267 0.235111 0.031914 -0.463857 0.864953 -0.191552
0.107848 0.144104 0.312074 -0.040553 -0.903788 0.426054
0.400761 0.157719 0.200593 -0.004127 0.999140 0.041253
0.630340 0.318959 0.247672 0.418166 0.140843 0.897385
0.616314 0.139059 0.219171 0.003157 -0.998315 0.057949
0.457924 0.171695 0.314138 -0.847833 -0.530118 -0.012414
0.455943 0.259380 0.209162 -0.915851 0.385172 -0.113400
0.622418 0.051096 0.137813 0.995226 0.088137 0.041917
0.857087 0.157420 0.204794 0.012366 0.999399 0.032393
0.842691 0.136249 0.175240 0.009695 -0.999109 0.041074
0.502374 0.278234 0.136936 0.066521 0.702068 -0.708997
0.400375 0.141033 0.254477 -0.004615 -0.995429 0.095397
0.376838 0.065717 0.130115 -0.995087 -0.030460 0.094207
0.941600 0.332641 0.245530 0.336381 -0.892555 0.300323
0.503647 0.331334 0.706631 0.997604 0.029478 -0.062583
0.808802 0.157401 0.205025 0.010124 0.999308 0.035788
0.527487 0.198628 0.137523 0.285825 -0.172557 0.942618
0.487079 0.278246 0.185172 0.306366 0.928405 -0.210246
0.400653 0.158846 0.175590 -0.003090 0.999390 -0.034788
0.468937 0.241849 0.506574 -0.938326 0.314912 0.142737
0.370188 0.344099 0.117655 -0.001466 0.903949 -0.427637
0.474365 0.062922 0.154266 0.006498 -0.921163 0.389122
0.945048 0.332779 0.239720 0.429780 -0.859236 0.277494
0.475474 0.261402 0.588115 -0.888179 0.436299 0.144158
0.516527 0.150388 0.271622 0.000304 0.981004 0.193990
0.512261 0.144301 0.316021 -0.000229 -0.020827 0.999783
0.847186 0.165323 0.264096 -0.993188 -0.026293 -0.113516
0.714666 0.332340 0.241834 0.005170 -0.989562 0.144015
0.516545 0.330078 0.199161 0.000379 -0.998197 0.060024
0.914731 0.136653 0.182048 0.076393 -0.995921 0.048009
0.541146 0.219575 0.332125 0.991474 0.092310 0.091966
0.375866 0.139311 0.222928 -0.001424 -0.998285 0.058525
0.319803 0.347592 0.179210 -0.007603 0.998179 0.059848
0.599954 0.034353 0.173777 -0.830232 -0.438164 0.344568
0.357445 0.329184 0.185041 -0.001630 -0.998311 0.058081
0.775001 0.347228 0.127379 0.015112 0.972481 -0.232493
0.478243 0.138678 0.213177 -0.000278 -0.998324 0.057878
0.092456 0.333899 0.270807 -0.079928 -0.932106 0.353257
0.326916 0.337651 0.109342 -0.004544 0.497599 -0.867395
0.502693 0.202158 0.130931 -0.048451 -0.288762 -0.956174
0.519285 0.246533 0.271763 0.717053 0.695954 0.038519
0.539899 0.271693 0.362072 0.567217 0.742036 -0.357279
0.471385 0.204801 0.537227 -0.916144 -0.368201 0.158456
0.581890 0.138159 0.205194 0.002345 -0.998344 0.057481
0.946615 0.347065 0.159386 0.454127 0.890934 0.002310
0.886401 0.337476 0.268245 0.013426 0.928379 0.371392
0.950593 0.338703 0.241503 0.358747 0.908023 0.216319
0.496024 0.229306 0.066182 -0.222045 0.330519 -0.917307
0.593483 0.235684 0.771375 0.060661 -0.966471 0.249507
0.195619 0.158173 0.194488 -0.012775 0.999228 0.037152
0.499647 0.332670 0.784192 -0.991966 0.024960 0.124014
0.144968 0.158046 0.167899 -0.011899 0.996503 -0.082706
0.629007 0.063636 0.148401 0.032357 -0.875147 -0.482774
0.546772 0.195286 0.045448 0.049932 -0.154915 -0.986665
0.467998 0.147758 0.291428 -0.002646 0.713993 0.700148
0.227037 0.158389 0.191660 -0.011300 0.999459 0.030901
0.543581 0.230848 0.275465 0.967753 0.233198 0.095255
0.371130 0.276253 0.144873 -0.005928 -0.125434 -0.992084
0.073618 0.339153 0.255145 -0.412370 0.707930 0.573399
0.278658 0.152800 0.251313 -0.010810 0.988146 0.153137
0.666955 0.349075 0.159882 0.006206 0.999966 0.005455
0.490478 0.256074 0.715501 -0.738330 0.594211 0.319035
0.148720 0.306250 0.246135 -0.895402 -0.040651 -0.443400
0.511192 0.151071 0.265909 0.000177 0.983463 0.181110
0.492333 0.330353 0.204330 -0.000391 -0.997699 0.067792
0.375486 0.348959 0.143451 -0.003367 0.998266 -0.058776
0.529393 0.257384 0.305966 0.295811 0.832151 -0.469064
0.487448 0.227868 0.726191 -0.917977 -0.285533 0.275298
0.479546 0.179972 0.480057 -0.638964 -0.749255 0.174187
0.792109 0.137639 0.197251 0.008323 -0.998340 0.056994
0.839206 0.347499 0.180741 0.010773 0.998924 0.045104
0.497247 0.257732 0.701964 -0.200642 0.908280 0.367112
0.930247 0.333290 0.259847 0.399076 -0.577957 0.711832
0.456409 0.162419 0.142794 -0.734218 -0.363422 -0.573453
0.457052 0.347410 0.128911 -0.000952 0.981901 -0.189392
0.618576 0.041024 0.184880 0.345714 -0.625001 0.699897
0.508081 0.275087 0.432289 0.370107 0.927911 0.044751
0.035553 0.337029 0.208256 -0.950425 0.176900 0.255730
0.661837 0.140449 0.243635 0.004009 -0.996493 0.083580
0.652975 0.143164 0.294702 0.004461 -0.650244 0.759713
0.455918 0.171635 0.217320 -0.865037 -0.428713 -0.260606
0.563788 0.206287 0.091979 0.978531 -0.199810 0.050527
0.364285 0.331549 0.226749 -0.006268 -0.995455 0.095027
0.853793 0.342849 0.115565 0.019485 0.818379 -0.574348
0.570562 0.235678 0.681501 0.015688 -0.999181 -0.037293
0.819985 0.143297 0.297315 0.020985 -0.279728 0.959850
0.687885 0.346671 0.191560 0.005029 0.997259 0.073824
0.147746 0.148801 0.283394 -0.031848 0.862325 0.505353
0.271848 0.137861 0.200394 -0.003148 -0.998380 0.056804
0.743107 0.141008 0.254196 0.005984 -0.994227 0.107134
0.305217 0.349015 0.160451 -0.008065 0.999712 0.022592
0.650448 0.143045 0.292472 0.004404 -0.712953 0.701198
0.503591 0.280600 0.801345 0.992838 -0.024051 0.117026
0.929684 0.328027 0.167436 0.142902 -0.988906 0.040545
0.900199 0.344278 0.214154 0.010505 0.993396 0.114253
0.481608 0.166573 0.321524 -0.568933 -0.819935 0.063423
0.800696 0.141296 0.259661 0.007352 -0.992144 0.124886
0.749084 0.327864 0.164799 0.007203 -0.998349 0.056981
0.903541 0.135096 0.155697 0.023511 -0.999619 -0.014431
0.544067 0.194393 0.138668 0.621581 -0.561235 -0.546490
0.541068 0.151917 0.150885 -0.625665 -0.342728 -0.700772
0.451478 0.326213 0.116246 -0.001514 -0.946807 -0.321799
0.872689 0.139005 0.218478 0.009612 -0.998353 0.056556
0.565914 0.151209 0.264786 0.001567 0.984572 0.174973
0.423542 0.140253 0.239804 -0.003542 -0.997270 0.073754
0.392064 0.331304 0.222155 -0.004993 -0.995970 0.089548
0.211680 0.143484 0.300461 -0.029511 -0.939092 0.342396
0.455927 0.184540 0.206479 -0.912546 -0.283102 -0.295150
0.696998 0.137105 0.188921 0.005690 -0.998375 0.056698
0.152788 0.185690 0.157923 0.751991 -0.105637 -0.650654
0.735725 0.142499 0.282242 0.006602 -0.913106 0.407669
0.486959 0.157618 0.201971 -0.000563 0.999196 0.040094
0.213647 0.149510 0.278094 -0.017462 0.930515 0.365838
0.813039 0.153205 0.146010 0.017759 0.859562 -0.510723
0.557369 0.341433 0.112699 0.003568 0.775407 -0.631452
0.537434 0.250690 0.419280 0.918218 0.395365 0.023730
0.556430 0.253228 0.062153 0.866155 0.472905 -0.161666
0.051667 0.138532 0.143773 -0.485576 -0.548255 -0.680905
0.442122 0.326569 0.114343 -0.001768 -0.907900 -0.419184
0.414505 0.135086 0.155229 -0.002045 -0.999522 -0.030849
0.378374 0.063461 0.155142 -0.014600 -0.908317 0.418027
0.269037 0.343073 0.223851 -0.011435 0.987315 0.158365
0.768184 0.330680 0.109273 0.007346 -0.530002 -0.847965
0.047037 0.334314 0.269572 -0.253771 -0.952670 0.167394
0.539905 0.235669 0.708037 0.001366 -0.999952 -0.009656
0.185209 0.135355 0.159670 -0.009066 -0.999519 -0.029662
0.467545 0.150233 0.272808 -0.001913 0.976622 0.214957
0.479504 0.278252 0.144335 -0.357080 0.773681 -0.523366
0.364529 0.145398 0.309125 -0.014543 0.027496 0.999516
0.248396 0.142836 0.135922 -0.006746 0.004551 -0.999967
0.627719 0.217972 0.260590 -0.258604 0.136416 0.956303
0.709996 0.150705 0.269091 0.005214 0.984436 0.175668
0.340257 0.147903 0.290264 -0.011424 0.732726 0.680428
0.134753 0.333160 0.256929 -0.024901 -0.975109 0.220324
0.400203 0.154815 0.234536 -0.004771 0.993949 0.109738
0.524329 0.235664 0.711078 -0.005216 -0.999986 0.000175
0.670043 0.157555 0.163574 0.007902 0.987768 -0.155729
0.563948 0.157341 0.161499 0.003023 0.986015 -0.166632
0.357502 0.338331 0.109791 -0.003560 0.560766 -0.827967
0.470621 0.137403 0.193413 -0.000363 -0.998383 0.056852
0.293614 0.139129 0.220069 -0.002344 -0.998286 0.058485
0.490910 0.349663 0.152031 -0.000375 0.999994 -0.003370
0.141000 0.140723 0.248488 -0.010708 -0.996697 0.080506
0.471448 0.246432 0.271100 -0.191085 0.979008 -0.070924
0.500738 0.276305 0.371635 -0.291188 0.956661 0.003080
0.597089 0.071728 0.157621 0.000809 0.655697 0.755024
0.059648 0.156298 0.219113 -0.261183 0.961866 0.081221
0.140649 0.337974 0.264062 -0.063111 0.433230 0.899071
0.044098 0.334806 0.275578 -0.313973 -0.926182 0.208825
0.460707 0.342568 0.228186 -0.001949 0.986811 0.161867
0.601758 0.063201 0.110743 -0.743757 -0.098129 -0.661208
0.660162 0.155912 0.224550 0.004275 0.996565 0.082698
0.635614 0.151784 0.260024 0.003342 0.987210 0.159392
0.233798 0.157251 0.160451 -0.006505 0.989261 -0.146016
0.623077 0.236085 0.765858 0.165965 -0.934740 0.314191
0.172479 0.148472 0.285882 -0.030406 0.811335 0.583790
0.659059 0.154783 0.148917 0.009447 0.926914 -0.375155
0.628383 0.186202 0.177806 -0.512109 0.385555 -0.767523
0.479706 0.173363 0.413001 -0.642858 -0.748452 0.162952
0.333085 0.342056 0.232393 -0.008503 0.983928 0.178366
0.130126 0.134829 0.150692 -0.012438 -0.997347 -0.071718
0.540151 0.182327 0.354783 0.935269 -0.335646 0.112315
0.463776 0.218966 0.442207 -0.988780 0.049022 0.141104
0.487341 0.333198 0.257852 -0.001986 -0.868604 0.495504
0.177201 0.339294 0.254148 -0.024137 0.866861 0.497966
0.074832 0.330721 0.211000 -0.073848 -0.994307 0.076806
0.540804 0.221784 0.340158 0.991340 0.131195 0.005737
0.396508 0.063776 0.155699 -0.008315 -0.852490 0.522677
0.577923 0.343504 0.220433 0.001893 0.990392 0.138273
0.320293 0.341321 0.238531 -0.009603 0.980227 0.197641
0.491216 0.234484 0.766785 -0.863234 -0.352659 0.361192
0.732298 0.155269 0.230941 0.006160 0.995556 0.093969
0.456057 0.242272 0.268901 -0.546290 0.836833 -0.035742
0.745998 0.156801 0.156514 0.013420 0.973650 -0.227652
0.461210 0.232547 0.392760 -0.996422 0.072843 0.042868
0.576113 0.235679 0.686120 0.017000 -0.999126 -0.038194
0.516729 0.283632 0.119708 0.232603 0.941364 0.244396
0.340604 0.140194 0.137985 -0.007069 -0.424975 -0.905178
0.895386 0.156436 0.153165 0.022469 0.961746 -0.273019
0.852555 0.347220 0.184430 0.010798 0.998530 0.053119
0.909956 0.326591 0.144506 0.049566 -0.998423 0.026351
0.453527 0.145810 0.306081 -0.003568 0.278378 0.960465
0.862964 0.140454 0.243849 0.008984 -0.995669 0.092535
0.503617 0.324947 0.756814 0.999986 -0.000100 0.005276
0.132756 0.142771 0.287013 -0.025655 -0.972952 0.229577
0.677729 0.349160 0.158763 0.006875 0.999974 0.002148
0.723409 0.140661 0.247658 0.005547 -0.995930 0.089962
0.455944 0.276258 0.213433 -0.128450 0.952116 0.277446
0.378538 0.139652 0.228482 -0.001837 -0.998187 0.060168
0.543338 0.171285 0.280215 0.898611 -0.427266 0.099705
0.270506 0.143491 0.300637 -0.026314 -0.917369 0.397168
0.090351 0.154081 0.240497 -0.077612 0.987514 0.137088
0.125251 0.333084 0.255490 -0.024515 -0.977825 0.207985
0.953556 0.144721 0.308853 0.312940 0.921502 0.230007
0.785779 0.330232 0.202230 0.007125 -0.997979 0.063148
0.544045 0.208281 0.191989 0.905162 -0.249784 -0.343933
0.035023 0.338088 0.185246 -0.938262 0.312130 0.149125
0.364019 0.240146 0.698786 -0.022786 0.999150 -0.034349
0.070113 0.143126 0.293645 -0.171596 -0.924600 0.340104
0.415514 0.142817 0.288045 -0.010436 -0.930326 0.366584
0.561126 0.135530 0.162857 0.001582 -0.999999 -0.000397
0.072258 0.150363 0.271569 -0.248041 0.928752 0.275493
0.326547 0.141271 0.258904 -0.007995 -0.995183 0.097709
0.527997 0.273743 0.458022 0.747103 0.664094 0.028568
0.937587 0.329231 0.186115 0.179642 -0.982500 0.049228
0.400078 0.047610 0.126375 0.878327 -0.286637 -0.382597
0.394002 0.144020 0.310665 -0.014314 -0.456154 0.889786
0.357609 0.240148 0.673865 -0.038739 0.996591 -0.072843
0.441388 0.123371 0.211334 0.076308 -0.736831 0.671757
0.180368 0.141807 0.268895 -0.014686 -0.994447 0.104206
0.883188 0.331543 0.226948 0.009395 -0.992387 0.122798
0.494503 0.249542 0.768684 -0.847926 0.369954 0.379677
0.504055 0.170414 0.373535 0.122366 -0.970194 0.209165
0.927529 0.142010 0.273170 0.200815 -0.951898 0.231436
0.174629 0.325405 0.120379 -0.011099 -0.993308 -0.114958
0.459660 0.247955 0.355442 -0.995173 0.091058 -0.036603
0.722431 0.148062 0.289294 0.008060 0.947516 0.319607
0.862236 0.344310 0.213860 0.009484 0.993384 0.114444
0.443393 0.240123 0.739194 -0.003427 0.999001 0.044563
0.921190 0.135616 0.164527 0.093691 -0.995560 -0.009086
0.132288 0.342044 0.232375 -0.019457 0.980553 0.195286
0.849969 0.198475 0.185409 0.999794 -0.013060 0.015534
0.056922 0.332529 0.240498 -0.141790 -0.982936 0.117189
0.499686 0.330325 0.719745 -0.997429 0.035645 -0.062160
0.532841 0.341528 0.236925 0.000726 0.983738 0.179610
0.890270 0.144147 0.313353 0.018350 0.801623 0.597549
0.459895 0.231188 0.361178 -0.995867 -0.089465 -0.015615
0.784100 0.144858 0.313435 0.012677 0.757962 0.652176
0.503667 0.263785 0.672345 0.999191 0.008420 -0.039337
0.546645 0.142174 0.276014 0.001095 -0.974412 0.224766
0.458757 0.222742 0.333878 -0.988066 -0.148360 -0.041409
0.828881 0.330527 0.207804 0.008195 -0.997313 0.072793
0.478058 0.280243 0.109307 -0.328249 0.938179 -0.109877
0.483014 0.340849 0.242573 -0.001002 0.980631 0.195860
0.791090 0.139576 0.227295 0.007261 -0.998347 0.057008
0.263478 0.136308 0.142170 -0.009514 -0.864487 -0.502565
0.455932 0.247268 0.221906 -0.950274 0.298605 -0.088404
0.482285 0.252550 0.670503 -0.965056 0.176753 0.193457
0.364502 0.156963 0.210524 -0.005638 0.997974 0.063379
0.414642 0.346592 0.192435 -0.003792 0.996620 0.082067
0.425291 0.333222 0.258268 -0.009294 -0.931109 0.364622
0.783861 0.330230 0.202184 0.007077 -0.997983 0.063087
0.371987 0.272676 0.221720 0.778067 0.287889 -0.558329
0.074025 0.333844 0.269763 -0.188971 -0.899156 0.394726
0.427079 0.104486 0.187345 -0.852384 0.510547 -0.113063
0.210909 0.154134 0.240120 -0.013759 0.992007 0.125430
0.776821 0.141910 0.271185 0.006684 -0.988643 0.150138
0.623578 0.037358 0.173236 0.758579 -0.582643 0.291693
0.486945 0.275460 0.217431 0.113686 0.904768 0.410452
0.162142 0.152949 0.250004 -0.017087 0.987110 0.159126
0.171400 0.141964 0.271854 -0.015097 -0.994005 0.108289
0.550685 0.133329 0.213585 -0.812873 0.106469 -0.572627
0.643894 0.335591 0.282286 0.006622 0.514948 0.857196
0.822365 0.137651 0.197460 0.009075 -0.998343 0.056829
0.503601 0.264845 0.783873 0.997790 -0.035671 0.056063
0.538191 0.268849 0.401896 0.828446 0.559905 -0.013573
0.354452 0.330449 0.206047 -0.004116 -0.997766 0.066681
0.204845 0.145045 0.311688 -0.040818 -0.607322 0.793406
0.467376 0.139621 0.227941 -0.000660 -0.998230 0.059462
0.544051 0.256758 0.236603 0.398187 0.719668 0.568792
0.161462 0.159019 0.183320 -0.013997 0.999762 0.016762
0.731921 0.142963 0.290978 0.006955 -0.747850 0.663832
0.663417 0.134919 0.152537 0.004244 -0.999550 -0.029687
0.914141 0.142275 0.278133 0.134393 -0.942803 0.305059
0.461010 0.202697 0.388109 -0.939763 -0.338568 0.047090
0.499653 0.277295 0.775029 -0.998513 -0.027919 0.046819
0.351761 0.144326 0.316387 -0.019042 -0.399173 0.916678
0.459987 0.175889 0.363689 -0.853005 -0.520238 0.041650
0.902776 0.335955 0.279704 0.025206 0.883949 0.466903
0.072885 0.330569 0.208150 -0.084729 -0.993492 0.076128
0.518727 0.235662 0.728073 -0.062551 -0.996984 0.045946
0.376443 0.096618 0.166053 -0.919465 0.382761 0.089877
0.623569 0.071947 0.182902 0.925757 -0.075889 0.370425
0.361968 0.151658 0.260912 -0.006899 0.984603 0.174669
0.478399 0.157947 0.197625 -0.000912 0.999502 0.031535
0.043613 0.332279 0.199633 -0.624744 -0.764209 0.160246
0.749617 0.134799 0.150560 0.006474 -0.999465 -0.032055
0.504927 0.265984 0.608558 0.609287 0.770989 0.185323
0.178700 0.341192 0.239526 -0.017383 0.977006 0.212500
0.465271 0.134946 0.152881 -0.000723 -0.999320 -0.036869
0.268351 0.332640 0.247221 -0.013075 -0.988782 0.148791
0.528812 0.152434 0.254521 0.000640 0.988151 0.153480
0.223956 0.342518 0.114563 -0.003327 0.852658 -0.522459
0.556808 0.133394 0.213359 0.315935 0.735019 -0.599943
0.529653 0.202054 0.519134 0.966236 -0.208935 0.150780
0.461114 0.239111 0.390405 -0.985230 0.167613 0.035034
0.248647 0.348488 0.167361 -0.010413 0.999167 0.039457
0.167166 0.337945 0.264290 -0.050478 0.485369 0.872851
0.531167 0.204331 0.500527 0.981948 -0.125764 0.141282
0.826754 0.346800 0.189942 0.008782 0.997668 0.067685
0.694709 0.333302 0.259928 0.005747 -0.799343 0.600848
