0.076678 0.422002 0.096190 0.019162 -0.999718 0.014011
0.259225 0.622117 0.045153 0.037502 0.962419 -0.268965
0.135376 0.502696 0.202732 -0.013679 0.000000 -0.999906
0.210751 0.618362 0.207014 0.134781 0.000000 -0.990875
0.273572 0.525673 0.041344 0.009952 0.999406 -0.032984
0.110671 0.885993 0.217412 -0.244026 0.000000 0.969769
0.454906 0.483009 0.135242 0.077134 -0.318951 0.944627
0.167010 0.235312 0.064384 0.007877 -0.770036 -0.637951
0.175749 0.165125 0.079104 0.016067 -0.999721 -0.017326
0.249110 0.515387 0.033316 0.059498 0.211559 -0.975553
0.725163 0.489375 0.101929 -0.123544 -0.000691 -0.992339
0.285535 0.452622 0.136018 0.071239 -0.695256 0.715223
0.319029 0.558508 0.111206 0.079349 0.944851 0.317742
0.577180 0.534634 0.103192 0.088084 0.926973 0.364639
0.253405 0.966810 0.071264 0.286315 -0.185220 0.940062
0.143000 0.692946 0.057473 -0.110640 -0.888098 0.446139
0.134904 0.619507 0.202742 -0.010634 0.000000 -0.999943
0.133799 0.338903 0.219540 -0.032256 0.000000 0.999480
0.267277 0.111441 0.062279 -0.491828 0.344933 -0.799454
0.185957 0.390611 0.203580 0.168696 0.000000 -0.985668
0.161800 0.482604 0.154505 -0.999789 -0.017302 -0.011112
0.134005 0.324102 0.051228 0.414791 -0.909302 0.033436
0.178379 0.238806 0.064349 -0.006416 -0.776603 -0.629958
0.084501 0.553388 0.140270 0.051610 0.632922 0.772494
0.231616 0.495985 0.046556 -0.006049 -0.999889 -0.013606
0.112515 0.381942 0.217752 -0.244933 0.000000 0.969540
0.365398 0.447458 0.073558 0.079916 -0.914529 -0.396547
0.736449 0.479098 0.088134 0.090962 -0.973862 -0.208133
0.220882 0.678870 0.043254 0.056979 0.910908 -0.408656
0.194538 0.350746 0.217539 0.004276 0.000000 0.999991
0.166880 0.438859 0.123228 0.072195 -0.853320 0.516365
0.196622 0.763006 0.047691 0.013567 0.774312 -0.632659
0.717410 0.489992 0.078375 0.056853 0.996778 -0.056584
0.140280 0.365547 0.043067 0.135398 0.951445 0.276442
0.129279 0.068170 0.202872 0.055780 0.000000 0.998443
0.201676 0.887979 0.055273 0.064958 0.533431 -0.843345
0.167500 0.830808 0.072118 -0.165819 -0.986022 -0.016246
0.716740 0.572434 0.092206 0.040181 -0.000685 -0.999192
0.105498 0.622073 0.216456 -0.355627 0.000000 0.934628
0.480299 0.458214 0.110843 0.082323 -0.892778 0.442911
0.190905 0.269335 0.045662 -0.007910 0.830050 0.557633
0.480656 0.458555 0.111549 0.082162 -0.886807 0.454777
0.116361 0.107513 0.203845 0.291793 0.000000 0.956482
0.108275 0.574221 0.205338 -0.326037 0.000000 -0.945357
0.170556 0.145537 0.203060 0.143206 0.000000 0.989693
0.557275 0.465593 0.077535 0.085148 -0.885169 -0.457412
0.271466 0.149436 0.061799 -0.404557 0.090683 -0.910006
0.485857 0.519844 0.130446 0.081266 0.395146 0.915017
0.032683 0.523398 0.078470 -0.227488 0.012140 -0.973705
0.419983 0.448886 0.087648 0.082413 -0.988140 -0.129567
0.241645 0.161628 0.065198 -0.233484 -0.519883 -0.821710
0.202139 0.118501 0.071196 -0.054568 -0.529202 -0.846740
0.293108 0.456848 0.139009 0.070638 -0.633834 0.770237
0.214739 0.091581 0.207566 -0.766295 0.000000 -0.642489
0.120751 0.471558 0.203205 -0.075570 0.000000 -0.997141
0.161623 0.087986 0.202922 0.084871 0.000000 0.996392
0.238114 0.435716 0.076647 0.080239 -0.951648 -0.296527
0.108010 0.828080 0.216920 -0.348509 0.000000 0.937305
0.108279 0.207421 0.205337 0.949646 0.000000 0.313325
0.031034 0.392845 0.088809 -0.545988 -0.619529 0.563987
0.169821 0.298284 0.219259 -0.299412 0.000000 0.954124
0.123844 0.655908 0.203062 -0.063725 0.000000 -0.997967
0.342735 0.486611 0.148548 0.069773 -0.189975 0.979307
0.145092 0.909709 0.202668 0.028666 0.000000 -0.999589
0.185687 0.662518 0.058320 0.021372 -0.923614 0.382728
0.170343 0.731448 0.045614 -0.012418 0.828775 -0.559444
0.321844 0.494472 0.035734 0.067858 -0.094955 -0.993166
0.724998 0.494986 0.151927 0.355916 0.924257 -0.138105
0.259268 0.561012 0.116153 0.079324 0.919098 0.385962
0.272659 0.076070 0.066029 -0.405534 -0.058524 -0.912204
0.201697 0.302039 0.060199 -0.039891 -0.879883 -0.473514
0.176513 0.537284 0.219156 0.109059 0.000000 0.994035
0.200303 0.543648 0.205567 0.116058 0.000000 -0.993243
0.098273 0.974246 0.211245 -0.926232 0.000000 -0.376955
0.221352 0.965418 0.075619 0.093554 -0.347642 0.932948
0.627450 0.514960 0.116763 0.089137 0.468765 0.878814
0.239928 0.127344 0.211254 -0.242038 0.000000 -0.970267
0.327817 0.527292 0.042178 0.068992 0.405743 -0.911379
0.472339 0.459048 0.114411 0.081654 -0.836219 0.542283
0.130940 0.496056 0.154167 0.041860 -0.073816 0.996393
0.029467 0.547948 0.083214 -0.685287 0.039462 -0.727203
0.136371 0.965461 0.070349 -0.960530 -0.214158 0.177537
0.174041 0.461323 0.042097 0.062295 -0.502295 -0.862450
0.217102 0.915275 0.057149 0.115045 0.494165 -0.861723
0.181228 0.834875 0.078140 0.012184 0.999542 -0.027684
0.201523 0.847230 0.052824 0.054347 0.615673 -0.786126
0.754102 0.591922 0.095476 0.760242 -0.002352 -0.649636
0.264162 0.561551 0.042197 0.017812 0.991646 -0.127750
0.382331 0.470191 0.049605 0.074459 -0.520239 -0.850769
0.150112 0.101236 0.202746 0.079513 0.000000 0.996834
0.234472 0.433218 0.091274 0.081460 -0.995878 -0.039883
0.128894 0.317144 0.202881 -0.006568 0.000000 -0.999978
0.170602 0.672607 0.058945 0.000918 -0.912095 0.409977
0.192207 0.508292 0.048973 0.001393 -0.999862 0.016540
0.130390 0.431302 0.202847 -0.027020 0.000000 -0.999635
0.113699 0.245880 0.204337 0.927751 0.000000 0.373200
0.250499 0.950400 0.070683 0.273788 -0.230459 0.933771
0.143957 0.266233 0.219657 -0.671257 0.000000 0.741224
0.093329 0.519401 0.152038 0.041534 0.208619 0.977115
0.758717 0.580918 0.096119 0.875681 -0.002639 -0.482882
0.205430 0.961518 0.059746 0.089914 0.394987 -0.914276
0.167357 0.500000 0.203011 0.060391 0.000000 -0.998175
0.739193 0.488405 0.105685 0.094590 -0.416823 0.904053
0.182592 0.165125 0.179215 -0.092764 -0.995359 0.025615
0.111480 0.339729 0.217561 -0.268380 0.000000 0.963313
0.144171 0.238965 0.202654 0.330101 0.000000 0.943946
0.247067 0.483764 0.045149 -0.220714 -0.839523 -0.496475
0.190236 0.330959 0.204173 0.315479 0.000000 -0.948933
0.144060 0.143130 0.067501 0.252079 -0.590134 -0.766941
0.072782 0.577761 0.106243 -0.310093 0.914957 0.258256
0.300539 0.448853 0.128916 0.073744 -0.779901 0.621543
0.273298 0.356458 0.049144 -0.185985 0.889039 -0.418353
0.178736 0.890356 0.072087 0.007266 -0.509779 0.860275
0.734806 0.482377 0.102007 0.093216 -0.719028 0.688701
0.597800 0.492092 0.122339 0.086074 -0.153867 0.984335
0.202070 0.158221 0.068816 -0.056292 -0.613894 -0.787379
0.169012 0.470717 0.219271 0.081486 0.000000 0.996674
0.177460 0.738667 0.063012 0.004282 -0.816673 0.577085
0.115904 0.339758 0.203930 0.112945 0.000000 -0.993601
0.514736 0.507818 0.131026 0.081657 0.159863 0.983756
0.166296 0.781243 0.048696 -0.020027 0.738236 -0.674245
0.201617 0.781576 0.065213 0.056648 -0.737998 0.672421
0.680558 0.375434 0.097160 0.940151 -0.010068 0.340610
0.144158 0.717778 0.219654 0.013543 0.000000 0.999908
0.158035 0.486550 0.153370 0.046533 -0.188731 0.980926
0.113687 0.307518 0.204339 0.219919 0.000000 -0.975518
0.164740 0.333003 0.058473 0.006108 -0.918546 -0.395266
0.130116 0.211190 0.202853 0.115971 0.000000 0.993253
0.195451 0.438217 0.217412 0.125203 0.000000 0.992131
0.177878 0.709645 0.203172 0.095659 0.000000 -0.995414
0.133568 0.397990 0.219535 -0.012102 0.000000 0.999927
0.226434 0.525557 0.213122 0.396302 0.000000 -0.918120
0.196984 0.562845 0.069992 0.074015 0.909232 -0.409657
0.691986 0.489496 0.092934 0.180557 -0.002320 0.983562
0.140883 0.479053 0.219704 0.012908 0.000000 0.999917
0.202198 0.737391 0.062555 0.048161 -0.819061 0.571681
0.177316 0.368200 0.056607 -0.003187 -0.952621 -0.304143
0.245109 0.330147 0.046067 -0.053871 0.920771 0.386367
0.183157 0.184923 0.203253 0.244062 0.000000 0.969759
0.106032 0.250461 0.205752 0.984024 0.000000 -0.178034
0.151834 0.963606 0.219536 0.021081 0.000000 0.999778
0.183456 0.830125 0.204933 -0.133163 -0.990474 0.035048
0.719898 0.513039 0.102012 0.090983 -0.000700 0.995852
0.742470 0.508102 0.130910 -0.012174 -0.999097 -0.040698
0.170828 0.733332 0.045715 -0.010636 0.825661 -0.564067
0.218206 0.761151 0.047912 0.081992 0.792627 -0.604169
0.257292 0.439855 0.041161 -0.017378 0.992051 0.124634
0.137054 0.211248 0.054707 0.671930 0.618957 0.406696
0.172897 0.448515 0.051763 0.070740 -0.690835 -0.719543
0.221061 0.864074 0.054409 0.110740 0.597439 -0.794231
0.754854 0.561522 0.098716 0.611711 -0.001886 0.791079
0.174198 0.638657 0.203116 0.080006 0.000000 -0.996794
0.273705 0.085928 0.064702 -0.423834 0.120043 -0.897750
0.139935 0.907926 0.069529 -0.465528 -0.486699 0.739194
0.733277 0.423862 0.092598 -0.140680 -0.000677 0.990055
0.224340 0.869206 0.213412 0.371228 0.000000 0.928542
0.272212 0.444344 0.061371 0.075714 -0.833451 -0.547381
0.082470 0.558002 0.050544 0.015583 0.728085 -0.685309
0.164090 0.942122 0.202960 0.079844 0.000000 -0.996807
0.084205 0.455239 0.146315 -0.020394 -0.558701 0.829118
0.124027 0.398845 0.203054 -0.019408 0.000000 -0.999812
0.714378 0.510559 0.102095 0.060380 -0.000712 0.998175
0.264535 0.490575 0.154871 0.062993 -0.128517 0.989705
0.198327 0.574395 0.205293 0.116358 0.000000 -0.993207
0.119289 0.708790 0.203305 -0.090645 0.000000 -0.995883
0.135137 0.535625 0.180286 -0.112081 0.992922 0.039283
0.239029 0.934207 0.061111 0.376851 0.628088 -0.680801
0.100980 0.359719 0.213244 -0.999678 0.000000 0.025362
0.240727 0.349413 0.054075 -0.197282 -0.874159 -0.443763
0.378458 0.444424 0.091344 0.081146 -0.995188 -0.054917
0.213687 0.085580 0.072992 -0.074528 -0.460229 -0.884666
0.200422 0.316897 0.059328 -0.036677 -0.899505 -0.435369
0.207828 0.816585 0.051081 0.065580 0.682583 -0.727860
0.206776 0.155539 0.215844 -0.366127 0.000000 -0.930565
0.222126 0.439520 0.120171 0.074134 -0.881879 0.465611
0.114102 0.505530 0.032043 0.038167 0.093080 -0.994927
0.237691 0.435796 0.210744 0.128560 0.000000 -0.991702
0.375943 0.544322 0.125353 0.079202 0.771034 0.631849
0.194541 0.264305 0.062571 -0.041746 -0.821987 -0.567974
0.270705 0.462801 0.144470 0.067180 -0.531875 0.844154
0.172868 0.563798 0.117571 0.082505 0.893595 0.441226
0.032448 0.597933 0.081295 -0.236372 0.075550 -0.968721
0.166773 0.551505 0.219306 0.080006 0.000000 0.996794
0.189460 0.398917 0.204066 0.166222 0.000000 -0.986088
0.152623 0.030741 0.060796 0.113541 0.351038 0.929452
0.236870 0.365098 0.210631 0.054339 0.000000 -0.998523
0.162543 0.153220 0.052718 0.023695 0.602544 0.797734
0.766869 0.491292 0.091065 -0.159716 0.986878 -0.023717
0.155895 0.529441 0.148954 0.056837 0.360998 0.930833
0.328188 0.441183 0.079915 0.079227 -0.967058 -0.241912
0.229956 0.437003 0.072783 0.080526 -0.927520 -0.364995
0.407537 0.472829 0.136355 0.074777 -0.466626 0.881288
0.099482 0.057588 0.210170 0.961372 0.000000 0.275253
0.147305 0.205972 0.064330 0.141536 -0.712838 -0.686899
0.785058 0.494945 0.078664 -0.403547 0.914735 -0.020223
0.177560 0.150828 0.203167 0.161259 0.000000 0.986912
0.193592 0.149610 0.217670 -0.293266 0.000000 -0.956031
0.133066 0.173949 0.202785 0.096463 0.000000 0.995337
0.212106 0.213234 0.065363 -0.057572 -0.727773 -0.683398
0.169447 0.703992 0.219265 0.069512 0.000000 0.997581
0.177047 0.127648 0.071034 -0.003862 -0.547920 -0.836522
0.155237 0.651544 0.057175 -0.039503 -0.934847 0.352845
0.237034 0.915551 0.070460 0.193980 -0.371387 0.907989
0.078163 0.495885 0.162249 -0.115646 -0.061099 0.991409
0.142909 0.122024 0.057110 0.295423 0.539284 0.788605
0.454392 0.548572 0.092598 0.083036 0.994852 -0.058098
0.127631 0.736710 0.202910 -0.034296 0.000000 -0.999412
0.189197 0.155046 0.069204 -0.029240 -0.607001 -0.794163
0.226431 0.783475 0.213123 0.473157 0.000000 0.880978
0.169339 0.886442 0.054942 -0.009650 0.518058 -0.855291
0.069287 0.530116 0.034856 -0.615032 0.287701 -0.734141
0.374543 0.459465 0.056812 0.076372 -0.703507 -0.706573
0.115740 0.188620 0.218347 -0.054674 0.000000 -0.998504
0.107430 0.025942 0.216813 0.375974 0.000000 -0.926630
0.189930 0.403614 0.037584 -0.003052 0.976583 0.215118
0.255961 0.494934 0.031991 0.061553 -0.070395 -0.995618
0.068036 0.497765 0.030376 -0.682627 0.009814 -0.730701
0.155669 0.116327 0.202831 0.095262 0.000000 0.995452
0.174378 0.330495 0.041802 0.000312 0.915722 0.401811
0.227641 0.406934 0.039034 -0.027839 0.979469 0.199663
0.173583 0.555801 0.057206 0.066090 0.782387 -0.619276
0.154417 0.562500 0.065210 0.072078 0.872727 -0.482858
0.140335 0.565117 0.219691 0.010525 0.000000 0.999945
0.222997 0.605359 0.208710 0.148087 0.000000 -0.988974
0.197893 0.547968 0.034799 0.001436 0.994865 -0.101205
0.207095 0.621812 0.039375 0.003954 0.960365 -0.278716
0.267082 0.509104 0.041950 0.011710 0.999584 0.026339
0.181552 0.714908 0.203229 0.105632 0.000000 -0.994405
0.170558 0.071678 0.203060 0.085494 0.000000 0.996339
0.799943 0.502143 0.123150 -0.753399 -0.657252 -0.020213
0.295837 0.438186 0.079265 0.078304 -0.966198 -0.245623
0.177780 0.734956 0.062785 0.004963 -0.822967 0.568068
0.055818 0.536852 0.116612 -0.928278 0.228590 0.293336
0.171865 0.224817 0.065125 -0.001480 -0.750004 -0.661432
0.128126 0.441667 0.202899 -0.040077 0.000000 -0.999197
0.482342 0.527964 0.060042 0.077881 0.563048 -0.822746
0.686611 0.606425 0.100605 -0.406531 -0.004568 0.913626
0.226410 0.878788 0.209182 0.993243 0.000000 0.116058
0.510806 0.541940 0.102429 0.085114 0.972785 0.215510
0.136441 0.284020 0.202707 0.277127 0.000000 -0.960833
0.113582 0.922176 0.217949 -0.199077 0.000000 0.979984
0.154141 0.449661 0.136405 0.060984 -0.681493 0.729279
0.110259 0.140275 0.204972 0.577495 0.000000 0.816395
0.115938 0.532971 0.038512 0.044576 0.434925 -0.899363
0.649527 0.520954 0.110591 0.090061 0.704823 0.703643
0.407180 0.523470 0.137826 0.076700 0.408436 0.909559
0.188355 0.871917 0.218394 0.122297 0.000000 0.992494
0.186913 0.443667 0.035133 -0.001704 0.992761 0.120094
0.655700 0.528597 0.098060 0.089450 0.977925 0.188845
0.199623 0.160845 0.052310 -0.046286 0.630170 0.775077
0.258295 0.445059 0.045913 -0.167416 0.911128 -0.376586
0.169726 0.055471 0.075231 0.013580 -0.398695 -0.916983
0.218462 0.375404 0.214226 0.092213 0.000000 -0.995739
0.076955 0.571033 0.121300 0.017739 0.875515 0.482864
0.268249 0.036133 0.066939 -0.484086 0.038148 -0.874188
0.140728 0.728070 0.059160 -0.275335 -0.839553 0.468339
0.163045 0.428983 0.202944 0.081694 0.000000 -0.996657
0.152739 0.951922 0.202786 0.051152 0.000000 -0.998691
0.220793 0.028856 0.076039 -0.090465 -0.339367 -0.936294
0.138564 0.581962 0.219650 0.006878 0.000000 0.999976
0.242900 0.440749 0.065476 0.078380 -0.871001 -0.484989
0.143235 0.631510 0.219668 0.014056 0.000000 0.999901
0.133302 0.202754 0.057987 0.802857 -0.498289 0.327304
0.249479 0.947588 0.070656 0.268288 -0.241227 0.932648
0.315828 0.560605 0.084360 0.078769 0.980337 -0.180929
0.159180 0.453249 0.051073 0.003914 -0.995137 -0.098419
0.473297 0.496224 0.050635 0.076265 -0.095625 -0.992492
0.076326 0.430390 0.062874 -0.041106 -0.839022 -0.542543
0.432686 0.546480 0.075262 0.080232 0.903209 -0.421635
0.138627 0.797073 0.202656 0.008882 0.000000 -0.999961
0.200689 0.092161 0.216687 -0.275142 0.000000 -0.961404
0.188955 0.551842 0.053242 0.064015 0.726857 -0.683799
0.158676 0.869916 0.054268 -0.054989 0.553242 -0.831204
0.301267 0.561940 0.103581 0.079350 0.983096 0.164999
0.195789 0.835502 0.068536 0.043312 -0.627236 0.777624
0.149479 0.657430 0.219572 0.024539 0.000000 0.999699
0.156715 0.623653 0.219461 0.043134 0.000000 0.999069
0.092990 0.540797 0.143593 0.055683 0.486381 0.871971
0.248405 0.250200 0.051328 -0.101855 0.847917 0.520252
0.259757 0.921132 0.067648 0.341000 -0.235074 0.910197
0.516336 0.458636 0.102847 0.084569 -0.945839 0.313426
0.618334 0.521703 0.113692 0.089291 0.640495 0.762754
0.137316 0.618362 0.219621 0.003695 0.000000 0.999993
0.270105 0.481851 0.040412 -0.004987 0.999348 0.035771
0.692845 0.401537 0.101738 0.139756 -0.001949 -0.990184
0.744591 0.575619 0.100142 0.277829 -0.000974 0.960630
0.113040 0.314143 0.204459 0.135191 0.000000 -0.990820
0.318172 0.556609 0.071569 0.076723 0.906499 -0.415179
0.130444 0.096394 0.202845 0.061502 0.000000 0.998107
0.723776 0.493133 0.131980 0.212415 0.972313 -0.097403
0.142037 0.477038 0.035964 0.018051 0.998903 0.043214
0.512407 0.530831 0.120403 0.083706 0.709957 0.699252
0.218420 0.367881 0.208076 0.284322 0.000000 -0.958729
0.147712 0.187706 0.052281 0.138287 0.675143 0.724609
0.175612 0.403339 0.203137 0.139950 0.000000 -0.990159
0.214052 0.824789 0.214837 0.306813 0.000000 0.951770
0.140840 0.065706 0.202605 0.050100 0.000000 0.998744
0.029924 0.415960 0.085702 -0.628312 -0.231189 -0.742816
0.196000 0.165897 0.156378 0.305373 -0.952111 -0.015219
0.169796 0.227107 0.219259 -0.588651 0.000000 -0.808388
0.523252 0.498867 0.131010 0.081463 -0.000358 0.996676
0.185426 0.848331 0.052642 0.011355 0.599285 -0.800455
0.667017 0.490259 0.114405 0.090511 -0.270867 0.958352
0.489858 0.466292 0.066053 0.081488 -0.732051 -0.676359
0.196000 0.169439 0.107429 0.248681 0.968071 -0.031579
0.102860 0.585891 0.207675 -0.712462 0.000000 -0.701710
0.486014 0.540695 0.074507 0.081239 0.881297 -0.465527
0.233495 0.764543 0.061903 0.165527 -0.725361 0.668171
0.144256 0.519758 0.035362 -0.015467 0.999195 -0.037027
0.172183 0.700759 0.219222 0.077596 0.000000 0.996985
0.213657 0.434201 0.052091 -0.011907 -0.989889 -0.141343
0.186501 0.896648 0.072345 0.022679 -0.496875 0.867526
0.212005 0.884413 0.215120 0.286011 0.000000 0.958226
0.130871 0.965954 0.219472 -0.027453 0.000000 0.999623
0.032923 0.585166 0.080792 -0.258552 0.059945 -0.964136
0.248400 0.922770 0.069319 0.267776 -0.295734 0.916972
0.690220 0.486851 0.101053 0.180899 -0.002311 -0.983499
0.802942 0.501582 0.139127 -0.635471 -0.771946 -0.016610
0.595028 0.501020 0.062411 0.082851 -0.016497 -0.996425
0.167520 0.834875 0.072132 -0.156931 0.987423 -0.019218
0.421169 0.550341 0.082491 0.081181 0.970213 -0.228247
0.142581 0.530875 0.194074 -0.119508 -0.990885 0.062166
0.109791 0.493159 0.153657 0.038855 -0.108994 0.993283
0.172187 0.549147 0.137195 0.068908 0.651933 0.755139
0.180312 0.574931 0.053151 0.008638 -0.986597 0.162948
0.269895 0.619029 0.046445 0.091082 0.995029 0.040271
0.272226 0.049803 0.066668 -0.439367 0.033737 -0.897674
0.163516 0.554187 0.035129 -0.003421 0.993339 -0.115182
0.155268 0.786650 0.202825 0.045114 0.000000 -0.998982
0.208140 0.184851 0.067126 -0.062321 -0.669978 -0.739761
0.215187 0.826080 0.051764 0.090901 0.669990 -0.736784
0.392019 0.547690 0.118374 0.080377 0.865440 0.494523
0.204326 0.397787 0.206124 0.197704 0.000000 -0.980262
0.150451 0.907737 0.219557 0.020012 0.000000 0.999800
0.139645 0.083377 0.219675 -0.022000 0.000000 -0.999758
0.119218 0.658039 0.218989 -0.113665 0.000000 0.993519
0.142693 0.570507 0.098390 0.087089 0.989887 0.111975
0.092168 0.456643 0.142456 0.040906 -0.565643 0.823635
0.219496 0.188953 0.066628 -0.066142 -0.676420 -0.733540
0.111809 0.941166 0.217622 -0.217469 0.000000 0.976067
0.233387 0.107223 0.212160 -0.343690 0.000000 -0.939083
0.564991 0.504842 0.059825 0.080990 0.104867 -0.991183
0.108780 0.669215 0.205245 -0.284310 0.000000 -0.958733
0.203241 0.338961 0.216334 -0.080117 0.000000 0.996785
0.659901 0.524825 0.105008 0.090403 0.862926 0.497178
0.170610 0.522629 0.033071 -0.001372 0.998932 -0.046182
0.089758 0.426224 0.098042 0.094373 -0.993786 0.059026
0.708224 0.453365 0.092093 -0.009657 -0.000775 0.999953
0.135018 0.464375 0.191213 -0.223747 -0.972752 0.060755
0.125693 0.478024 0.202977 -0.046508 0.000000 -0.998918
0.188378 0.803581 0.203916 0.124242 0.000000 -0.992252
0.140595 0.448480 0.048546 0.050539 -0.994218 -0.094748
0.161675 0.299966 0.043931 0.015946 0.876838 0.480521
0.188507 0.049194 0.203934 0.080826 0.000000 0.996728
0.230399 0.680392 0.044664 0.057503 0.909180 -0.412413
0.709957 0.513876 0.077248 0.089113 0.469772 -0.878278
0.205407 0.633844 0.040071 0.004390 0.950905 -0.309453
0.202374 0.462687 0.050556 -0.006517 -0.996982 -0.077364
0.051800 0.510410 0.116999 -0.963042 0.049548 0.264755
0.474268 0.531210 0.061472 0.078035 0.605970 -0.791651
0.151269 0.855377 0.054210 -0.124995 0.584337 -0.801827
0.081661 0.447615 0.044864 0.045094 -0.612729 -0.789006
0.240474 0.401324 0.211130 0.059303 0.000000 -0.998240
0.706338 0.524175 0.102205 0.012627 -0.000755 0.999920
0.469396 0.544303 0.107167 0.084459 0.926290 0.367225
0.170114 0.532414 0.033670 -0.001990 0.997750 -0.067014
0.191466 0.050137 0.204343 0.063946 0.000000 0.997953
0.643269 0.489709 0.068943 0.086315 -0.334957 -0.938272
0.236004 0.243271 0.211797 -0.137670 0.000000 -0.990478
0.727855 0.464832 0.092403 -0.070700 -0.000634 0.997497
0.166369 0.568118 0.107142 0.084842 0.961123 0.262762
0.198621 0.868815 0.205334 0.163772 0.000000 -0.986498
0.264142 0.089943 0.063137 -0.545785 0.334453 -0.768284
0.058423 0.542350 0.060758 -0.879592 0.317786 -0.354018
0.189564 0.200159 0.218227 -0.354789 0.000000 -0.934946
0.213115 0.748771 0.214966 0.308929 0.000000 0.951085
0.204259 0.405499 0.206115 0.187627 0.000000 -0.982240
0.130574 0.310360 0.219466 -0.031117 0.000000 0.999516
0.132508 0.269697 0.202798 0.589792 0.000000 -0.807555
0.165546 0.164048 0.068623 0.018893 -0.625682 -0.779849
0.262644 0.830211 0.058131 0.456050 0.773852 0.439514
0.175872 0.611592 0.055408 0.000566 -0.967480 0.252949
0.143550 0.869931 0.056509 -0.275655 0.556520 -0.783773
0.225634 0.504979 0.155109 0.058090 0.059131 0.996559
0.211323 0.228789 0.048410 -0.063344 0.770691 0.634052
0.171519 0.431907 0.105371 0.081335 -0.974666 0.208350
0.383474 0.449074 0.113209 0.079337 -0.906194 0.415354
0.163651 0.422140 0.202954 0.087739 0.000000 -0.996144
0.418783 0.543279 0.066793 0.077941 0.793228 -0.603915
0.152062 0.101149 0.071496 0.130556 -0.491727 -0.860906
0.437931 0.523922 0.052407 0.074738 0.411500 -0.908340
0.189357 0.588659 0.204051 0.106982 0.000000 -0.994261
0.260023 0.044541 0.065295 -0.629641 0.222479 -0.744349
0.165759 0.509791 0.153947 0.050178 0.106357 0.993061
0.347108 0.512510 0.148173 0.071114 0.198232 0.977572
0.328846 0.557966 0.110046 0.079683 0.948893 0.305373
0.154816 0.570148 0.089628 0.084964 0.995169 -0.049189
0.212005 0.794884 0.215120 0.296152 0.000000 0.955141
0.366570 0.487036 0.041150 0.070840 -0.207854 -0.975591
0.115664 0.902533 0.203974 -0.133859 0.000000 -0.991000
0.550702 0.461815 0.084257 0.085509 -0.972074 -0.218541
0.161447 0.128373 0.219388 -0.179874 0.000000 -0.983690
0.711183 0.491035 0.083726 0.207116 0.973590 -0.096045
0.244002 0.574786 0.040201 0.021957 0.987279 -0.157476
0.141162 0.878962 0.202608 0.019940 0.000000 -0.999801
0.242114 0.476461 0.035806 0.063588 -0.322900 -0.944295
0.687227 0.436181 0.093688 0.333919 -0.003828 0.942594
0.225969 0.333539 0.057070 -0.084473 -0.910921 -0.403841
0.389890 0.487882 0.143735 0.072816 -0.179697 0.981023
0.147459 0.308243 0.202705 0.182690 0.000000 -0.983171
0.190115 0.589094 0.037149 0.002799 0.980339 -0.197303
0.158148 0.409456 0.037521 0.018850 0.979618 0.199983
0.214929 0.910665 0.072748 0.074187 -0.467976 0.880622
0.175812 0.857232 0.203141 0.102975 0.000000 -0.994684
0.658401 0.517344 0.073358 0.086120 0.531119 -0.842909
0.143076 0.245010 0.219671 -0.178818 0.000000 -0.983882
0.194235 0.730593 0.045708 0.007908 0.830169 -0.557456
0.553617 0.535044 0.077475 0.083545 0.883766 -0.460410
0.385460 0.492208 0.144750 0.072682 -0.117702 0.990386
0.103129 0.316462 0.207477 0.156245 0.000000 -0.987718
0.260458 0.391350 0.048831 -0.297040 0.682152 -0.668159
0.173501 0.331959 0.203105 0.264000 0.000000 -0.964523
0.211248 0.350543 0.215225 -0.213113 0.000000 0.977028
0.241779 0.448324 0.054783 0.074834 -0.746564 -0.661091
0.255810 0.891342 0.066410 0.325997 -0.319238 0.889839
0.222096 0.964708 0.213723 0.345885 0.000000 0.938277
0.134048 0.507375 0.153879 0.044516 0.071067 0.996478
0.221789 0.561682 0.036338 0.017853 0.991608 -0.128039
0.085768 0.504352 0.158071 -0.028863 0.027773 0.999197
0.202184 0.123038 0.070924 -0.054895 -0.538842 -0.840616
0.756903 0.484905 0.095892 -0.397765 -0.001257 0.917487
0.181028 0.973376 0.060083 0.026277 0.348463 -0.936954
0.708535 0.538549 0.092103 0.009203 -0.000779 -0.999957
0.168168 0.703296 0.203023 0.069896 0.000000 -0.997554
0.245678 0.780315 0.052784 0.121923 0.810477 -0.572941
0.213054 0.781576 0.214975 0.304835 0.000000 0.952405
0.695884 0.619328 0.102012 -0.079556 -0.001434 0.996829
0.170713 0.211930 0.219245 -0.475393 0.000000 -0.879774
0.580996 0.536525 0.092451 0.086534 0.993070 -0.079518
0.151074 0.352051 0.041797 0.064862 0.938234 0.339868
0.180389 0.830125 0.064775 0.139601 -0.989401 -0.039970
0.156628 0.547489 0.047911 0.058413 0.644972 -0.761970
0.245567 0.722866 0.057735 0.260971 -0.765253 0.588457
0.750641 0.555098 0.095010 0.348479 -0.001118 -0.937316
0.183345 0.247591 0.046851 -0.008649 0.792559 0.609734
0.209745 0.880832 0.071039 0.069950 -0.530575 0.844747
0.227939 0.458149 0.035998 -0.011839 0.996318 0.084910
0.216155 0.923306 0.073487 0.075300 -0.442037 0.893831
0.110554 0.422140 0.204918 -0.097801 0.000000 -0.995206
0.329146 0.518335 0.148633 0.070612 0.293457 0.953361
0.132238 0.464375 0.182625 -0.223462 -0.973744 0.043448
0.150616 0.465591 0.039261 0.056288 -0.427831 -0.902104
0.499403 0.485462 0.055358 0.078734 -0.324439 -0.942624
0.766018 0.377867 0.097115 -0.559680 -0.001635 -0.828707
0.332647 0.533968 0.046579 0.070419 0.526153 -0.847470
0.274017 0.682740 0.051392 0.239868 0.807059 0.539554
0.194552 0.223411 0.065023 -0.041743 -0.747807 -0.662602
0.148453 0.671883 0.043717 -0.076523 0.912888 -0.400973
0.237355 0.307997 0.057023 -0.182704 -0.851027 -0.492313
0.316928 0.501719 0.034756 0.066885 0.019640 -0.997567
0.126084 0.484687 0.033090 0.044247 -0.165621 -0.985196
0.154693 0.537270 0.202816 0.036405 0.000000 -0.999337
0.224690 0.714125 0.208944 0.292507 0.000000 -0.956263
0.158578 0.671955 0.202876 0.048199 0.000000 -0.998838
0.183995 0.304778 0.060307 -0.018228 -0.883705 -0.467688
0.237470 0.276105 0.210714 -0.060093 0.000000 -0.998193
0.140713 0.341787 0.219700 0.007199 0.000000 0.999974
0.124342 0.294834 0.203039 0.197147 0.000000 -0.980374
0.180776 0.830125 0.183970 -0.131698 -0.990896 0.027952
0.187512 0.411616 0.053847 -0.016412 -0.980703 -0.194813
0.292265 0.539540 0.045863 0.069372 0.578757 -0.812544
0.134214 0.150509 0.061798 0.889005 -0.420372 0.181541
0.154962 0.431378 0.106678 0.081613 -0.969712 0.230212
0.226509 0.142275 0.213112 -0.430505 0.000000 -0.902588
0.261782 0.044889 0.065518 -0.592367 0.180328 -0.785228
0.179576 0.192548 0.203198 0.261051 0.000000 0.965325
0.279344 0.538226 0.043973 0.067877 0.550623 -0.831990
0.137206 0.884993 0.060369 -0.687402 0.404683 -0.603084
0.240639 0.872903 0.067406 0.223170 -0.445536 0.867002
0.073660 0.432784 0.128186 -0.298483 -0.787356 0.539425
0.086898 0.559562 0.054438 0.035739 0.771448 -0.635287
0.268687 0.169572 0.058981 -0.431613 0.562444 -0.705242
0.231926 0.875121 0.209946 0.863238 0.000000 0.504798
0.142558 0.887834 0.057767 -0.306533 0.518342 -0.798348
0.102032 0.134867 0.208287 0.961450 0.000000 0.274981
0.223388 0.714864 0.208764 0.268415 0.000000 -0.963303
0.462337 0.535773 0.064007 0.078135 0.721260 -0.688243
0.243574 0.277525 0.057988 -0.243408 -0.774159 -0.584321
0.714899 0.374843 0.102167 -0.026529 -0.000746 -0.999648
0.192162 0.601358 0.054553 0.019081 -0.973826 0.226491
0.161800 0.516567 0.167090 -0.997053 0.009432 0.076137
0.103694 0.067344 0.215248 0.515627 0.000000 -0.856813
0.178931 0.165125 0.150092 -0.089916 -0.995823 0.015838
0.219161 0.128373 0.214129 -0.376819 0.000000 -0.926287
0.154082 0.226324 0.048788 0.070998 0.753045 0.654128
0.229882 0.840895 0.209663 0.999973 0.000000 0.007348
0.134031 0.035452 0.067486 0.900824 0.073353 0.427944
0.194469 0.280483 0.061602 -0.041431 -0.848180 -0.528085
0.152517 0.559681 0.036233 -0.023958 0.991800 -0.125537
0.164482 0.593023 0.054032 -0.000036 -0.978362 0.206902
0.132857 0.413849 0.202790 -0.009263 0.000000 -0.999957
0.108762 0.930917 0.205248 -0.268482 0.000000 -0.963285
0.489172 0.497864 0.052011 0.076949 -0.074917 -0.994216
0.147554 0.406919 0.219602 -0.036157 0.000000 0.999346
0.215724 0.811163 0.214605 0.319735 0.000000 0.947507
0.155882 0.625900 0.055667 -0.021715 -0.957353 0.288103
0.591513 0.464825 0.090685 0.087191 -0.990414 -0.107137
0.201124 0.704412 0.044242 0.008962 0.870968 -0.491259
0.161542 0.544330 0.219386 0.066121 0.000000 0.997812
0.134741 0.327552 0.051565 0.330695 -0.934542 -0.131421
0.183736 0.912159 0.056449 0.018380 0.466372 -0.884398
0.171254 0.169875 0.077481 -0.108699 0.993787 -0.023914
0.099129 0.548415 0.047239 0.053401 0.637751 -0.768389
0.209936 0.965737 0.060069 0.102731 0.391694 -0.914342
0.249735 0.077129 0.061912 -0.664521 0.744053 0.069267
0.255144 0.337033 0.052821 -0.392253 -0.260064 -0.882329
0.564834 0.509915 0.060462 0.080867 0.179257 -0.980473
0.191532 0.738073 0.062760 0.035163 -0.818006 0.574134
0.229917 0.104817 0.070225 -0.146883 -0.450350 -0.880687
0.163759 0.540053 0.043309 0.053154 0.548969 -0.834151
0.304925 0.447402 0.126402 0.074318 -0.807645 0.584967
0.161230 0.759571 0.047526 -0.024779 0.779569 -0.625826
0.167364 0.752554 0.219297 0.057903 0.000000 0.998322
0.079068 0.424620 0.078752 0.136464 -0.953386 -0.269133
0.249388 0.176878 0.055870 -0.263006 0.872713 0.411340
0.265840 0.178661 0.058041 -0.433567 0.700354 -0.567031
0.181262 0.160975 0.068971 -0.012661 -0.619339 -0.785022
0.359468 0.521195 0.144088 0.073276 0.351502 0.933315
0.772927 0.506381 0.160382 -0.088628 -0.995653 -0.028644
0.116816 0.444943 0.203761 -0.080314 0.000000 -0.996770
0.761065 0.399225 0.096437 -0.934110 -0.002785 -0.356974
0.538242 0.536612 0.108081 0.086298 0.895819 0.435959
0.143520 0.104237 0.202644 0.065507 0.000000 0.997852
0.176042 0.868206 0.070800 0.001859 -0.556712 0.830704
0.124776 0.559425 0.058938 0.067314 0.809277 -0.583558
0.154964 0.489925 0.032837 0.001898 0.999795 0.020136
0.198421 0.579962 0.205306 0.116946 0.000000 -0.993138
0.121638 0.551807 0.050397 0.057918 0.691919 -0.719649
0.447819 0.515221 0.049983 0.074386 0.288840 -0.954483
0.169072 0.094713 0.072862 0.012879 -0.478401 -0.878047
0.263931 0.379333 0.045717 -0.052292 0.981180 0.185877
0.111860 0.823282 0.204677 -0.186982 0.000000 -0.982363
0.254341 0.512829 0.037909 0.003502 0.999678 -0.025117
0.198685 0.516076 0.216964 0.272230 0.000000 0.962232
0.512921 0.531369 0.119644 0.084005 0.720272 0.688587
0.266353 0.440645 0.119106 0.075215 -0.891595 0.446544
0.407594 0.516583 0.046298 0.072289 0.288514 -0.954743
0.524638 0.459430 0.102754 0.084802 -0.941365 0.326559
0.146997 0.764224 0.049528 -0.137564 0.771719 -0.620908
0.154638 0.026464 0.219493 -0.079063 0.000000 -0.996870
0.189112 0.834875 0.094148 0.105623 0.994096 -0.024848
0.212911 0.129402 0.054402 -0.094458 0.579125 0.809748
0.029544 0.418526 0.087189 -0.759488 -0.609352 -0.227748
0.144601 0.464375 0.183513 -0.033843 -0.998743 0.036963
0.267321 0.452356 0.051039 0.073148 -0.697763 -0.712584
0.682132 0.377114 0.095998 0.792801 -0.008568 0.609421
0.161926 0.823282 0.219380 0.042581 0.000000 0.999093
0.626136 0.532113 0.091541 0.087755 0.990903 -0.102033
0.558919 0.538316 0.095099 0.086856 0.991266 0.099237
0.185288 0.417922 0.036653 -0.002559 0.983597 0.180362
0.458922 0.454291 0.080173 0.083095 -0.934182 -0.346985
0.138776 0.078854 0.069467 0.585102 -0.457225 -0.669776
0.273301 0.882717 0.062762 0.422224 0.228441 0.877235
0.308741 0.437744 0.091565 0.079128 -0.996267 -0.034517
0.513464 0.459619 0.106023 0.084091 -0.919001 0.385183
0.197732 0.814149 0.067226 0.048007 -0.672151 0.738856
0.245336 0.491389 0.044932 -0.074815 -0.982894 -0.168291
0.560876 0.529095 0.070617 0.082139 0.731565 -0.676806
0.204707 0.903200 0.056233 0.077202 0.506050 -0.859042
0.141025 0.687800 0.046044 -0.172762 0.893925 -0.413583
0.150251 0.567843 0.051307 -0.019492 -0.989180 0.145407
0.239140 0.397410 0.210945 0.068250 0.000000 -0.997668
0.450348 0.494871 0.048516 0.075117 -0.111031 -0.990974
0.188980 0.592559 0.203999 0.106870 0.000000 -0.994273
0.204530 0.468891 0.216155 0.379432 0.000000 0.925220
0.203618 0.556101 0.051664 0.010034 -0.992831 0.119107
0.184417 0.721532 0.061878 0.019431 -0.845041 0.534348
0.152389 0.138984 0.202781 0.109089 0.000000 0.994032
0.139525 0.718648 0.057870 -0.277940 -0.853216 0.441330
0.193729 0.563861 0.071797 0.075368 0.923066 -0.377185
0.445075 0.515871 0.136609 0.077878 0.316259 0.945471
0.198915 0.246837 0.047136 -0.017807 0.793380 0.608466
0.246434 0.129678 0.058297 -0.347344 0.812987 0.467336
0.078632 0.559091 0.137795 0.063307 0.702319 0.709042
0.263163 0.468253 0.040268 -0.008872 0.997934 0.063632
0.190656 0.461351 0.042333 0.064175 -0.511135 -0.857101
0.226019 0.609375 0.213180 0.977521 0.000000 -0.210840
0.748188 0.459526 0.099631 -0.497740 -0.001609 -0.867325
0.263797 0.657879 0.051318 0.337734 0.555700 0.759693
0.683375 0.550518 0.095650 -0.855408 -0.009217 -0.517872
0.135748 0.576366 0.042928 -0.676953 -0.682330 -0.275974
0.157135 0.951632 0.219454 0.030833 0.000000 0.999525
0.183818 0.878049 0.071271 0.017603 -0.536121 0.843958
0.230712 0.618609 0.040994 0.036318 0.964797 -0.260475
0.142931 0.528094 0.202635 0.012795 0.000000 -0.999918
0.174973 0.457475 0.141384 0.057243 -0.586617 0.807839
0.143889 0.308345 0.045747 0.176585 0.888883 0.422735
0.212612 0.922277 0.215036 0.285895 0.000000 0.958261
0.146945 0.146189 0.219611 -0.075106 0.000000 -0.997176
0.709524 0.501844 0.119815 0.843921 -0.454352 -0.285239
0.736948 0.536756 0.101186 0.206409 -0.000788 0.978465
0.211922 0.562137 0.118039 0.081357 0.897110 0.434253
0.079038 0.501558 0.025481 -0.092877 0.032927 -0.995133
0.231392 0.269422 0.212436 -0.132574 0.000000 -0.991173
0.199904 0.267146 0.062318 -0.047236 -0.826670 -0.560701
0.128479 0.125430 0.219417 0.050372 0.000000 -0.998730
0.122843 0.676826 0.203108 -0.069315 0.000000 -0.997595
0.232085 0.251258 0.049004 -0.080266 0.813734 0.575668
0.161800 0.519851 0.160856 -0.998972 0.011442 0.043862
0.192679 0.435657 0.114032 0.076461 -0.929222 0.361524
0.175789 0.706645 0.203140 0.089983 0.000000 -0.995943
0.223338 0.063618 0.208757 -0.433431 0.000000 -0.901187
0.202912 0.605403 0.216379 0.273600 0.000000 0.961844
0.161923 0.506683 0.032314 -0.000396 0.999911 -0.013347
0.226786 0.518207 0.209234 0.145110 0.000000 -0.989416
0.267816 0.377318 0.048653 -0.205464 0.862661 -0.462170
0.218566 0.862132 0.214212 0.333358 0.000000 0.942800
0.140582 0.226919 0.202611 0.191689 0.000000 0.981456
0.250092 0.589239 0.041913 0.026594 0.981282 -0.190731
0.133476 0.781648 0.056922 -0.800773 -0.502187 -0.326453
0.213473 0.430490 0.036332 -0.004371 0.988685 0.149940
0.069287 0.505603 0.156288 -0.664329 0.010417 0.747368
0.252824 0.225759 0.059808 -0.328903 -0.586918 -0.739831
0.364683 0.452543 0.123404 0.076765 -0.796288 0.600027
0.064952 0.435785 0.057637 -0.794548 -0.426973 -0.431726
0.297452 0.438006 0.105893 0.077905 -0.971504 0.223856
0.212719 0.064010 0.074301 -0.071453 -0.416467 -0.906339
0.194185 0.766253 0.064409 0.041004 -0.767514 0.639720
0.755580 0.521874 0.098601 0.962206 -0.002950 -0.272308
0.111779 0.537564 0.145420 0.055128 0.450992 0.890824
0.209764 0.932772 0.206877 0.654789 0.000000 -0.755812
0.259551 0.284165 0.050830 -0.156715 0.973208 0.168244
0.158000 0.464736 0.185111 0.237038 -0.971138 -0.026536
0.290007 0.457205 0.048014 0.072255 -0.641880 -0.763394
0.215323 0.552887 0.055649 0.066753 0.757739 -0.649135
0.201884 0.217960 0.205786 0.483296 0.000000 0.875457
0.201506 0.509936 0.032651 0.051998 0.146355 -0.987865
0.266159 0.326943 0.051900 -0.325684 0.597697 -0.732590
0.121207 0.332510 0.219124 -0.139020 0.000000 0.990290
0.118232 0.408007 0.218807 -0.147489 0.000000 0.989064
0.306754 0.504665 0.153441 0.067930 0.080028 0.994475
0.153534 0.530875 0.188390 0.090328 -0.995658 0.022478
0.053666 0.463498 0.072852 -0.936974 -0.258953 -0.234571
0.164815 0.452612 0.202972 0.073676 0.000000 -0.997282
0.137574 0.928916 0.069045 -0.775976 -0.406896 0.481972
0.619805 0.522700 0.112982 0.088868 0.690569 0.717787
0.306469 0.514238 0.035293 0.066441 0.196050 -0.978340
0.734961 0.463006 0.092846 -0.132256 -0.000700 0.991215
0.644326 0.470443 0.086467 0.088185 -0.975378 -0.202139
0.148064 0.431143 0.050964 0.025237 -0.988841 -0.146819
0.138412 0.461976 0.202661 0.007128 0.000000 -0.999975
0.260341 0.352268 0.051188 -0.377627 0.368599 -0.849431
0.265967 0.226252 0.055198 -0.339900 0.860807 -0.378787
0.156140 0.754816 0.219469 0.033978 0.000000 0.999423
0.216715 0.309258 0.214468 -0.347411 0.000000 -0.937713
0.180723 0.542329 0.034197 0.001258 0.996060 -0.088671
0.058270 0.558290 0.092915 -0.893645 0.446775 0.042311
0.312184 0.547017 0.132200 0.075738 0.737866 0.670685
0.683656 0.529733 0.095606 -0.908245 -0.009789 -0.418325
0.149543 0.497260 0.154504 0.044704 -0.054600 0.997507
0.103482 0.220729 0.207216 0.987714 0.000000 -0.156276
0.106909 0.493622 0.205590 -0.392316 0.000000 -0.919831
0.137704 0.076984 0.219630 -0.012238 0.000000 -0.999925
0.342063 0.453658 0.128380 0.075017 -0.750920 0.656118
0.178203 0.860131 0.219130 0.075707 0.000000 0.997130
0.235321 0.484619 0.035429 -0.004212 0.999535 0.030208
0.107217 0.432492 0.114615 0.078551 -0.925551 0.370385
0.234936 0.493187 0.210363 0.157368 0.000000 -0.987540
0.134834 0.734260 0.053076 -0.917847 -0.132460 -0.374181
0.180143 0.608157 0.055146 0.008785 -0.969751 0.243938
0.133493 0.530875 0.161194 -0.094833 -0.995482 -0.004755
0.266547 0.519725 0.034622 0.062752 0.271900 -0.960277
0.143463 0.668099 0.056068 -0.080367 -0.917287 0.390032
0.174828 0.837807 0.219182 0.068846 0.000000 0.997627
0.227887 0.665156 0.056726 0.098768 -0.909680 0.403394
0.264734 0.434547 0.091735 0.079645 -0.996420 -0.028370
0.062056 0.549126 0.054139 -0.829138 0.360016 -0.427691
0.210539 0.676855 0.042733 0.029983 0.910305 -0.412851
0.179253 0.133447 0.203193 0.141366 0.000000 0.989957
0.225210 0.262812 0.047358 -0.076576 0.832173 0.549204
0.111816 0.892632 0.204685 -0.188100 0.000000 -0.982150
0.189958 0.562667 0.068920 0.073668 0.901387 -0.426701
0.198397 0.532874 0.039179 0.055506 0.447938 -0.892340
0.590627 0.514349 0.064642 0.082384 0.348725 -0.933597
0.102573 0.162700 0.207887 0.978101 0.000000 0.208131
0.212526 0.479619 0.034467 0.058180 -0.266579 -0.962055
0.191141 0.278279 0.045128 -0.007597 0.844477 0.535538
0.210037 0.269393 0.206915 0.978859 0.000000 -0.204535
0.157270 0.124314 0.070710 0.075897 -0.541038 -0.837566
0.234189 0.503030 0.210259 0.152520 0.000000 -0.988300
0.132349 0.191707 0.219507 0.003751 0.000000 -0.999993
0.413925 0.467935 0.055112 0.077123 -0.583569 -0.808393
0.193905 0.221686 0.204681 0.483294 0.000000 0.875458
0.188065 0.165020 0.203872 0.207487 0.000000 0.978238
0.261602 0.764470 0.054037 0.284509 0.954600 0.088277
0.161295 0.906606 0.202917 0.069516 0.000000 -0.997581
0.238444 0.433332 0.210849 0.116299 0.000000 -0.993214
0.139938 0.745147 0.219682 0.005300 0.000000 0.999986
0.134678 0.906853 0.065583 -0.955205 -0.265423 -0.130899
0.108280 0.928452 0.205337 -0.281070 0.000000 -0.959687
0.733883 0.427810 0.092684 -0.145471 -0.000691 0.989362
0.158033 0.498652 0.219440 0.060853 0.000000 0.998147
0.366312 0.542598 0.057964 0.074356 0.716726 -0.693379
0.170474 0.830125 0.065285 -0.044811 -0.998881 -0.015125
0.115700 0.176182 0.203968 0.458317 0.000000 0.888789
0.229995 0.115805 0.212629 -0.392646 0.000000 -0.919690
0.149172 0.169673 0.202731 0.126467 0.000000 0.991971
0.161052 0.435318 0.052235 0.005536 -0.990248 -0.139209
0.166811 0.169253 0.203002 0.173301 0.000000 0.984869
0.189060 0.165136 0.204010 0.210336 0.000000 0.977629
0.206790 0.510078 0.032674 0.052823 0.148068 -0.987565
0.726909 0.452006 0.092379 -0.074957 -0.000642 0.997187
0.053600 0.458138 0.081862 -0.938827 -0.317952 -0.132326
0.227137 0.970912 0.209283 0.670249 0.000000 0.742136
0.403536 0.525275 0.137514 0.076643 0.432323 0.898456
0.104613 0.428967 0.080386 0.088112 -0.963049 -0.254504
0.108044 0.356951 0.205381 -0.042443 0.000000 -0.999099
0.198318 0.377564 0.039277 -0.003976 0.959905 0.280299
0.170951 0.201608 0.066496 -0.001590 -0.703952 -0.710246
0.176823 0.888109 0.071982 0.003434 -0.514423 0.857530
0.244055 0.453279 0.049322 0.070762 -0.666165 -0.742439
0.225033 0.572409 0.037431 0.021205 0.988140 -0.152083
0.231091 0.548316 0.212477 0.372152 0.000000 -0.928172
0.205424 0.778590 0.216031 0.252545 0.000000 0.967585
0.227600 0.125372 0.055948 -0.112854 0.576324 0.809392
0.253441 0.812975 0.062043 0.328725 -0.515063 0.791612
0.623035 0.522386 0.072744 0.084730 0.597517 -0.797367
0.239685 0.651283 0.211288 0.583199 0.000000 -0.812329
0.107802 0.839344 0.205426 -0.293548 0.000000 -0.955944
0.500118 0.505184 0.132908 0.080530 0.120027 0.989499
0.169505 0.025116 0.219264 -0.144149 0.000000 -0.989556
0.154063 0.401193 0.219501 -0.034534 0.000000 0.999404
0.064674 0.467110 0.039224 -0.796613 -0.183841 -0.575855
0.255847 0.094626 0.067245 -0.321608 -0.289386 -0.901568
0.259344 0.948559 0.069348 0.327736 -0.185796 0.926320
0.753936 0.383411 0.095444 -0.999175 -0.003096 -0.040486
0.181285 0.270567 0.203225 0.929569 0.000000 -0.368648
0.728969 0.491643 0.118878 0.041728 0.997729 -0.052874
0.253298 0.434893 0.101613 0.079212 -0.986162 0.145633
0.107252 0.830979 0.216780 -0.389243 0.000000 0.921135
0.156963 0.749670 0.202851 0.047353 0.000000 -0.998878
0.158172 0.670476 0.202869 0.047349 0.000000 -0.998878
0.137219 0.469125 0.173080 -0.075552 0.997141 -0.001351
0.703431 0.487845 0.092181 0.018651 -0.000946 0.999826
0.216434 0.915159 0.057132 0.113130 0.493769 -0.862203
0.221464 0.762107 0.048337 0.084419 0.791388 -0.605457
0.732907 0.509296 0.102743 -0.007469 -0.999112 -0.041460
0.237096 0.659546 0.211646 0.742869 0.000000 -0.669437
0.177595 0.514906 0.153437 0.052565 0.179191 0.982409
0.190408 0.801291 0.218110 0.144965 0.000000 0.989437
0.317028 0.463320 0.046766 0.072512 -0.572093 -0.816977
0.159738 0.611940 0.202894 0.048679 0.000000 -0.998815
0.154797 0.875802 0.202818 0.049960 0.000000 -0.998751
0.122511 0.674434 0.219184 -0.068077 0.000000 0.997680
0.181184 0.753830 0.219084 0.096633 0.000000 0.995320
0.203170 0.448234 0.205964 0.145386 0.000000 -0.989375
0.721775 0.490559 0.092567 0.049888 0.997245 -0.054895
0.037047 0.446929 0.086281 -0.860507 -0.135698 -0.491033
0.764996 0.480168 0.097011 -0.536468 -0.001570 0.843919
0.161800 0.498792 0.163617 -0.999469 0.001964 0.032520
0.150587 0.052499 0.219555 -0.066723 0.000000 -0.997772
0.243704 0.407354 0.041233 -0.027702 0.979673 0.198679
0.158767 0.427229 0.202879 0.070561 0.000000 -0.997507
0.168314 0.141420 0.219282 -0.254597 0.000000 -0.967047
0.123543 0.690423 0.203076 -0.065400 0.000000 -0.997859
0.598171 0.506537 0.122389 0.086984 0.184241 0.979025
0.168989 0.401846 0.203036 0.120941 0.000000 -0.992660
0.129126 0.302792 0.219432 0.010820 0.000000 0.999941
0.161132 0.504336 0.031955 0.045442 0.075283 -0.996126
0.199181 0.895488 0.055685 0.059340 0.515863 -0.854614
0.321330 0.440363 0.081135 0.079257 -0.972367 -0.219593
0.513778 0.457539 0.097166 0.084786 -0.988299 0.126791
0.189482 0.340990 0.041337 -0.005313 0.927192 0.374548
0.139578 0.391640 0.042019 0.179902 0.969628 0.165699
0.602830 0.469051 0.080456 0.086802 -0.894205 -0.439162
0.183794 0.562015 0.203281 0.098118 0.000000 -0.995175
0.172470 0.133447 0.070618 -0.000775 -0.560253 -0.828321
0.267795 0.033930 0.069227 -0.368203 -0.110111 -0.923202
0.152741 0.128982 0.202786 0.100942 0.000000 0.994892
0.188139 0.769689 0.064708 0.027781 -0.760994 0.648164
0.177816 0.952052 0.075801 0.005332 -0.383953 0.923337
0.214825 0.613984 0.054962 0.021726 -0.965929 0.257895
0.214564 0.513018 0.214766 0.981459 0.000000 -0.191669
0.205251 0.061386 0.058368 -0.085584 0.437646 0.895065
0.161646 0.126126 0.219385 -0.178701 0.000000 -0.983904
0.033851 0.525307 0.079946 -0.390014 0.014691 -0.920692
0.177021 0.090465 0.219148 -0.236777 0.000000 -0.971564
0.195181 0.165125 0.093791 0.334758 -0.940837 -0.052557
0.704761 0.503136 0.102187 0.762129 -0.592392 -0.261210
0.243153 0.047165 0.062801 -0.600356 0.648659 0.467776
0.226883 0.681697 0.213060 0.793662 0.000000 0.608359
0.126022 0.747220 0.202962 -0.042970 0.000000 -0.999076
0.064347 0.439224 0.128718 -0.826805 -0.419684 0.374512
0.148604 0.943427 0.219585 0.015826 0.000000 0.999875
0.421912 0.545498 0.116101 0.081660 0.873445 0.480027
0.131402 0.754917 0.219485 -0.013674 0.000000 0.999907
0.228523 0.727403 0.047229 0.073387 0.847104 -0.526336
0.747421 0.554042 0.099742 0.366367 -0.001193 0.930470
0.219794 0.412935 0.208266 0.207294 0.000000 -0.978279
0.169550 0.654458 0.219263 0.075657 0.000000 0.997134
0.254403 0.290268 0.055725 -0.363185 -0.447995 -0.816944
0.211212 0.517874 0.215230 0.832311 0.000000 0.554308
0.743780 0.501891 0.107586 0.096143 0.159838 0.982450
0.043233 0.506952 0.093478 -0.997759 0.041348 0.052605
0.095305 0.546267 0.139914 0.061506 0.564972 0.822815
0.139521 0.928452 0.061267 -0.442120 0.407732 -0.798927
0.271598 0.735840 0.053700 0.288196 0.815993 0.501098
0.104549 0.829153 0.215879 -0.566513 0.000000 0.824053
0.189651 0.589341 0.053872 0.016607 -0.980237 0.197128
0.279918 0.564960 0.094420 0.078660 0.996901 0.000384
0.185885 0.687568 0.042997 0.006365 0.893668 -0.448683
0.719268 0.620304 0.092211 0.085775 -0.000694 -0.996314
0.132197 0.448988 0.202805 -0.020062 0.000000 -0.999799
0.165444 0.068880 0.074328 0.025281 -0.425429 -0.904638
0.131709 0.308707 0.202816 0.057859 0.000000 -0.998325
0.288250 0.562220 0.077480 0.076553 0.952393 -0.295104
0.576580 0.475341 0.117074 0.085103 -0.592938 0.800738
0.160323 0.556301 0.057150 0.065844 0.783002 -0.618525
0.580338 0.466214 0.081649 0.086492 -0.910518 -0.404321
0.110339 0.409398 0.204957 -0.072942 0.000000 -0.997336
0.184861 0.926336 0.203429 0.130595 0.000000 -0.991436
0.231683 0.340526 0.055860 -0.126900 -0.910431 -0.393716
0.261095 0.836488 0.058294 0.469116 0.799565 0.375001
0.232346 0.803871 0.052353 0.096440 0.715744 -0.691672
0.256224 0.284498 0.055818 -0.380380 -0.351027 -0.855623
0.062386 0.446752 0.127910 -0.852674 -0.367408 0.371428
0.123357 0.503884 0.031876 0.039467 0.073091 -0.996544
0.196000 0.167990 0.105035 0.762053 0.638362 -0.108488
0.212420 0.459247 0.044103 0.068076 -0.554154 -0.829626
0.656986 0.471392 0.097581 0.089550 -0.961404 0.260159
0.755488 0.385869 0.098648 -0.389285 -0.001237 -0.921117
0.062288 0.570268 0.084782 -0.840127 0.538305 -0.066437
0.100718 0.350790 0.209257 -0.769639 0.000000 -0.638480
0.685187 0.607488 0.100344 -0.521760 -0.005723 0.853073
0.235693 0.640295 0.042987 0.043692 0.948628 -0.313363
0.253098 0.236428 0.052805 -0.176917 0.919191 0.351836
0.146035 0.311766 0.202683 0.155565 0.000000 -0.987826
0.695019 0.520121 0.092449 -0.115488 -0.001736 -0.993307
0.196119 0.168426 0.204988 0.236386 0.000000 0.971659
0.202827 0.287006 0.044784 -0.017308 0.859830 0.510287
0.102285 0.932903 0.214207 -0.885909 0.000000 0.463859
0.397420 0.447015 0.085585 0.081716 -0.983682 -0.160289
0.205784 0.174906 0.215981 -0.401116 0.000000 -0.916027
0.193863 0.638961 0.056782 0.027070 -0.946579 0.321333
0.181526 0.424982 0.203228 0.129007 0.000000 -0.991644
0.563820 0.516414 0.123086 0.085778 0.389749 0.916918
0.451377 0.516781 0.050978 0.074849 0.313966 -0.946479
0.148282 0.343353 0.219590 -0.085431 0.000000 0.996344
0.263702 0.533276 0.040048 0.064289 0.465878 -0.882510
0.176065 0.950762 0.058649 0.013082 0.386500 -0.922197
0.178782 0.969332 0.076822 0.007042 -0.350900 0.936386
0.135601 0.583586 0.219582 0.001441 0.000000 0.999999
0.140895 0.132780 0.202604 0.066430 0.000000 0.997791
