0.269386 0.645746 0.270316 0.376374 0.200155 0.904589
0.652775 0.615161 0.205893 -0.002295 -0.731375 0.681972
0.175988 0.467719 0.215986 0.095096 -0.529467 0.842984
0.709799 0.579397 0.198333 0.303998 -0.263598 0.915479
0.163502 0.344092 0.276669 0.014778 -0.929972 -0.367333
0.385997 0.539659 0.198713 0.102643 0.908239 0.405668
0.144964 0.071577 0.278627 0.370610 0.424180 0.826269
0.255105 0.637616 0.119505 0.215627 -0.087678 0.972531
0.278909 0.549527 0.107250 0.809635 0.024938 0.586403
0.681287 0.490009 0.258457 -0.316677 -0.890504 0.326677
0.266025 0.482786 0.206359 -0.073560 0.517503 -0.852513
0.326916 0.548968 0.180497 0.068990 0.979914 0.187109
0.275436 0.948602 0.284363 0.409924 0.047964 0.910858
0.273803 0.784156 0.274074 0.340687 0.847589 0.406848
0.265379 0.104295 0.283817 -0.346095 -0.260570 -0.901289
0.198836 0.163773 0.270047 -0.023522 0.628552 0.777412
0.221847 0.966027 0.293477 0.075647 -0.352206 0.932860
0.230643 0.854644 0.132443 0.166554 0.134902 -0.976761
0.603197 0.474981 0.172487 0.124966 -0.989163 -0.077068
0.664140 0.646680 0.198589 0.012722 0.590931 -0.806622
0.715790 0.502092 0.169065 0.252420 0.671632 -0.696559
0.661811 0.516068 0.203662 0.083334 0.996522 0.000385
0.107804 0.469576 0.220171 -0.121515 -0.445207 0.887144
0.169515 0.443158 0.143901 0.060472 -0.983074 -0.172941
0.173446 0.854675 0.143154 -0.432398 -0.096534 0.896501
0.196283 0.551526 0.188206 0.087362 0.926332 0.366439
0.229360 0.805006 0.139386 0.066223 -0.104563 0.992311
0.184307 0.503618 0.140448 -0.013248 -0.718324 -0.695582
0.233256 0.632007 0.120443 0.090642 -0.101930 0.990654
0.617202 0.437230 0.192597 0.275220 0.948366 0.157658
0.302015 0.407742 0.107429 -0.638584 0.160101 0.752714
0.559908 0.528885 0.169625 0.097000 0.989240 -0.109520
0.192018 0.473878 0.251744 -0.000778 0.998562 0.053602
0.442990 0.482162 0.216950 0.073722 -0.418533 0.905204
0.718491 0.428027 0.196280 -0.260589 0.562357 -0.784759
0.221302 0.644845 0.106103 0.039966 0.125909 -0.991236
0.234966 0.527113 0.091613 0.053686 0.126860 -0.990467
0.713810 0.472960 0.191785 -0.130706 0.909933 -0.393621
0.695091 0.399977 0.194126 -0.077899 0.823211 0.562366
0.214401 0.843883 0.130850 0.084099 0.129310 -0.988032
0.255213 0.300198 0.275078 -0.261379 -0.732828 -0.628207
0.055034 0.513868 0.120265 -0.533644 0.430362 -0.728019
0.619919 0.429128 0.193104 0.312997 0.932676 0.179298
0.237426 0.745366 0.132752 0.095229 -0.101800 0.990236
0.620559 0.500000 0.194015 -0.000000 -1.000000 0.000001
0.649885 0.484373 0.207585 -0.034811 -0.961469 0.272700
0.223095 0.423481 0.220310 -0.438361 0.568654 0.696040
0.708702 0.662822 0.203483 0.427827 0.814667 -0.391512
0.682976 0.397255 0.204354 -0.042515 -0.791297 -0.609953
0.207547 0.733535 0.264155 0.012921 0.826035 -0.563470
0.708165 0.334639 0.208397 -0.209126 -0.337813 -0.917687
0.235912 0.396556 0.117285 -0.100839 -0.100922 -0.989771
0.042059 0.513474 0.189305 0.361870 0.911715 0.194488
0.377609 0.529982 0.117386 0.153916 0.736147 -0.659088
0.241994 0.952342 0.279961 0.422543 0.608220 -0.671957
0.238122 0.800862 0.138460 0.109617 -0.100062 0.988925
0.649649 0.511589 0.161428 0.244348 0.815233 -0.525062
0.436696 0.517265 0.218262 0.075720 0.390995 0.917273
0.292037 0.440875 0.106408 -0.954148 0.139607 0.264785
0.709935 0.511526 0.190546 0.075885 0.970577 0.228522
0.243345 0.692177 0.126683 0.125469 -0.098561 0.987190
0.707556 0.436928 0.191455 -0.048177 0.936331 0.347798
0.352764 0.454991 0.142355 0.111846 -0.954101 -0.277817
0.175891 0.245005 0.121353 0.205225 0.119962 0.971335
0.179423 0.722921 0.116750 -0.158508 0.120855 -0.979933
0.097143 0.558164 0.162951 -0.227328 0.973817 0.001460
0.253740 0.681581 0.274338 0.239154 -0.782574 0.574790
0.114262 0.455402 0.209932 -0.114761 -0.746508 0.655405
0.692697 0.424238 0.190908 -0.058649 0.904046 0.423392
0.219526 0.428412 0.114060 -0.052875 -0.105138 -0.993051
0.713382 0.386323 0.201760 -0.305021 -0.251407 -0.918562
0.719423 0.524318 0.188487 0.017199 0.992114 -0.124156
0.157579 0.645514 0.259898 -0.063590 0.940361 -0.334182
0.651582 0.590768 0.191169 -0.004608 0.847140 -0.531349
0.242645 0.143464 0.274189 -0.138291 0.652846 0.744760
0.508217 0.499496 0.124236 0.194084 -0.023777 -0.980697
0.148317 0.459747 0.212904 0.077138 -0.664820 0.743010
0.651716 0.686741 0.205672 -0.306896 0.457285 -0.834688
0.195376 0.691263 0.111777 -0.017079 0.123288 -0.992224
0.259846 0.393918 0.115641 -0.257073 -0.082135 -0.962895
0.151579 0.757266 0.267424 -0.157084 0.784594 -0.599781
0.172397 0.190403 0.268434 0.021517 0.680172 0.732737
0.690991 0.401780 0.193344 -0.076530 0.830005 0.552481
0.280452 0.842112 0.278954 0.369613 0.272468 0.888340
0.187785 0.483083 0.126674 -0.074164 0.726034 -0.683648
0.041847 0.486056 0.212482 -0.070348 -0.996070 0.053806
0.296655 0.473468 0.208281 -0.015721 -0.671844 -0.740526
0.277721 0.562479 0.108732 0.744034 0.007820 0.668095
0.265786 0.702875 0.124663 0.335844 -0.071029 0.939236
0.166797 0.656343 0.259661 -0.025101 0.929843 -0.367100
0.201662 0.788752 0.284162 0.043934 -0.721229 0.691303
0.164070 0.543896 0.109206 0.019370 0.802761 -0.595987
0.241082 0.151692 0.142876 -0.150058 -0.095142 -0.984089
0.042438 0.506405 0.115811 0.568412 0.669305 -0.478476
0.166829 0.533631 0.252526 -0.006447 0.997566 -0.069432
0.190197 0.194901 0.126010 0.022858 0.123124 0.992128
0.238818 0.813450 0.127943 0.196262 0.137344 -0.970885
0.143070 0.533604 0.097754 -0.176346 0.522625 -0.834126
0.244638 0.530123 0.254492 0.008362 0.998149 -0.060238
0.461267 0.464085 0.164082 0.105893 -0.993339 -0.045444
0.064334 0.477707 0.156128 -0.992362 0.021016 0.121553
0.153508 0.724794 0.265203 -0.101746 0.838891 -0.534705
0.053686 0.499835 0.187738 0.400304 0.583611 0.706509
0.694531 0.460185 0.195917 -0.123234 -0.920373 -0.371116
0.041017 0.491894 0.263733 0.127926 -0.859996 0.494005
0.369951 0.469006 0.212566 0.079077 -0.702581 0.707197
0.199756 0.147305 0.271028 -0.032202 0.596462 0.801995
0.168312 0.291210 0.279781 0.018698 -0.863283 -0.504374
0.166733 0.432956 0.072407 -0.052685 -0.706368 0.705882
0.178710 0.832281 0.130351 -0.149525 0.121070 -0.981318
0.686369 0.574261 0.200989 0.062501 -0.889530 0.452581
0.283760 0.681566 0.269175 0.189859 0.921014 0.340127
0.482600 0.516102 0.124679 0.161127 0.531675 -0.831480
0.278941 0.918044 0.282979 0.385925 0.102195 0.916852
0.274209 0.769950 0.273261 0.311520 0.886203 0.342928
0.228599 0.660144 0.123586 0.074335 -0.103473 0.991851
0.245399 0.348253 0.262039 -0.047389 0.938723 0.341399
0.360503 0.542414 0.134719 0.134181 0.927056 -0.350088
0.186024 0.527991 0.093465 -0.043652 0.528910 -0.847555
0.284349 0.460454 0.260566 -0.011102 0.996734 0.079985
0.248310 0.551400 0.131808 0.041519 0.970946 -0.235668
0.280152 0.456777 0.106436 -0.865555 0.041517 -0.499091
0.371325 0.455310 0.149922 0.120971 -0.975444 -0.184049
0.073165 0.495651 0.219257 -0.304643 -0.150280 0.940536
0.181831 0.442407 0.149073 0.052683 -0.994968 -0.085222
0.253225 0.212524 0.279894 -0.266755 -0.603965 -0.751045
0.683267 0.332094 0.211045 -0.046701 -0.468060 -0.882462
0.192060 0.969260 0.294111 0.023239 -0.346499 0.937762
0.217122 0.396598 0.256665 -0.003376 0.972565 0.232606
0.180484 0.846780 0.287608 0.001339 -0.599374 0.800468
0.230712 0.608492 0.255143 -0.201797 0.733159 -0.649428
0.069296 0.497845 0.113975 -0.494942 0.067563 -0.866295
0.474535 0.509861 0.118512 0.169384 0.306739 -0.936600
0.440803 0.479354 0.214380 0.079191 -0.533848 0.841864
0.632052 0.522035 0.185067 0.072673 0.997297 -0.010870
0.687331 0.674136 0.211623 0.054462 -0.438127 0.897262
0.241297 0.957865 0.290371 0.188478 -0.269818 0.944285
0.202235 0.509499 0.151713 -0.226981 -0.659683 0.716448
0.194284 0.218497 0.266766 -0.009804 0.737255 0.675544
0.242265 0.232456 0.268691 -0.085635 0.782344 0.616931
0.155949 0.435086 0.255570 0.026178 0.990145 0.137575
0.266709 0.899953 0.280178 0.540757 0.466678 0.699852
0.238225 0.182807 0.283510 -0.155299 -0.607121 -0.779285
0.271543 0.219808 0.131730 -0.411994 -0.059378 -0.909250
0.206433 0.629753 0.120610 0.015884 -0.108014 0.994022
0.223724 0.818914 0.127876 0.114391 0.131394 -0.984708
0.295136 0.473321 0.211701 -0.081495 -0.428883 0.899677
0.208200 0.877976 0.288906 0.056369 -0.532258 0.844704
0.171895 0.486415 0.228932 0.065316 0.928486 -0.365578
0.152395 0.263290 0.279494 0.116103 -0.818882 -0.562097
0.280872 0.336127 0.118608 -0.719523 0.000851 -0.694468
0.272891 0.143493 0.278375 -0.445555 0.511422 -0.734798
0.289137 0.637356 0.114766 0.971695 0.084491 0.220614
0.041021 0.490523 0.095819 0.740297 -0.617898 -0.264882
0.558532 0.475207 0.149913 0.132355 -0.904233 -0.406010
0.213550 0.411268 0.273118 -0.015923 -0.980403 -0.196360
0.224590 0.169586 0.286071 -0.062489 -0.634245 -0.770602
0.178817 0.596386 0.273876 0.000361 -0.976453 0.215732
0.453397 0.524941 0.128443 0.142162 0.763408 -0.630078
0.040650 0.493853 0.064573 0.843203 -0.418545 -0.337385
0.193024 0.427229 0.254497 -0.002298 0.987386 0.158316
0.188161 0.669505 0.277894 0.011560 -0.915195 0.402844
0.195975 0.902765 0.273908 0.037062 0.492213 -0.869686
0.261576 0.550471 0.177029 0.002600 0.954458 0.298335
0.491578 0.466825 0.163701 0.106187 -0.990276 -0.089881
0.267972 0.043845 0.286589 -0.342329 -0.123347 -0.931449
0.224744 0.352892 0.259347 -0.034335 0.941966 0.333948
0.198318 0.311313 0.111390 0.007567 0.123528 0.992312
0.204078 0.384528 0.102180 -0.005169 0.123869 0.992285
0.227082 0.192293 0.139716 -0.059622 -0.105118 -0.992671
0.157336 0.691598 0.262590 -0.085990 0.887912 -0.451905
0.160824 0.217148 0.267292 0.062771 0.734227 0.675996
0.217789 0.567914 0.211203 -0.137293 -0.686671 0.713886
0.469345 0.470322 0.138520 0.132410 -0.902512 -0.409803
0.293029 0.689518 0.119053 0.988354 0.122155 -0.090744
0.170396 0.554480 0.135645 0.053454 0.966903 -0.249482
0.231552 0.834473 0.285329 0.110955 -0.596726 0.794737
0.722076 0.477040 0.190174 -0.057578 0.983167 -0.173398
0.761013 0.502543 0.271334 0.460661 0.875053 0.148573
0.659469 0.417944 0.190072 -0.007573 0.877144 0.480167
0.191596 0.760121 0.265470 0.009116 0.778085 -0.628093
0.265322 0.454484 0.196017 0.023257 -0.859186 0.511135
0.150087 0.432650 0.256792 0.055160 0.989366 0.134585
0.274989 0.843374 0.279776 0.383887 0.036803 0.922646
0.345358 0.541559 0.123643 0.136315 0.872249 -0.469680
0.669681 0.641590 0.208550 0.021639 -0.600101 0.799631
0.217892 0.485375 0.217958 0.131110 -0.187881 0.973402
0.607096 0.508882 0.211706 -0.081180 0.361712 0.928749
0.342929 0.471422 0.219895 -0.020613 -0.581177 0.813516
0.238122 0.832704 0.272104 0.103244 0.660394 -0.743788
0.151588 0.556333 0.269324 -0.024339 -0.992735 0.117836
0.283600 0.445857 0.154706 0.055844 -0.998303 0.016518
0.148522 0.839155 0.284470 -0.257704 -0.626596 0.735504
0.250540 0.827109 0.273481 0.171662 0.772378 -0.611526
0.241523 0.349515 0.122333 -0.114599 -0.099762 -0.988390
0.706901 0.549042 0.195260 0.304994 -0.251748 0.918478
0.289552 0.496048 0.215594 -0.096017 -0.050346 0.994106
0.176705 0.191598 0.127780 0.181134 0.120362 0.976065
0.183108 0.684584 0.126052 -0.111598 -0.109182 0.987737
0.635765 0.472047 0.197138 0.000128 -0.988477 -0.151368
0.161326 0.608461 0.257131 -0.022687 0.969429 -0.244320
0.233087 0.153146 0.131569 -0.175347 0.135513 0.975136
0.260278 0.102874 0.284597 -0.312966 -0.289302 -0.904630
0.175507 0.449340 0.120144 0.028362 -0.896505 -0.442124
0.274199 0.605562 0.263201 0.031796 0.972892 -0.229064
0.225346 0.797246 0.284259 0.057421 -0.703768 0.708106
0.254226 0.841868 0.133837 0.814983 0.159454 -0.557115
0.142033 0.470946 0.236821 -0.009056 -0.886620 0.462410
0.254691 0.796855 0.280177 0.279640 -0.571661 0.771365
0.692502 0.488697 0.193051 0.129627 -0.983364 -0.127252
0.286648 0.447111 0.160790 0.054335 -0.994727 0.086982
0.191959 0.524403 0.226140 0.069122 0.966457 -0.247350
0.146571 0.202928 0.281772 0.319097 -0.715841 -0.621087
0.234784 0.234152 0.267551 -0.085125 0.785282 0.613258
0.505079 0.470239 0.193350 0.081947 -0.939516 0.332557
0.287129 0.636297 0.114937 0.937076 0.066452 0.342742
0.238889 0.461530 0.201353 0.052663 -0.729853 0.681572
0.258059 0.761559 0.131702 0.278120 -0.079037 0.957289
0.271693 0.562102 0.260194 0.017895 0.991493 -0.128920
0.233938 0.324276 0.276776 -0.077139 -0.899215 -0.430652
0.294826 0.453061 0.123429 0.090257 -0.920985 -0.378998
0.179576 0.464318 0.093660 0.170793 0.120698 0.977886
0.210309 0.822913 0.128169 0.053075 0.126944 -0.990489
0.664435 0.505370 0.245152 -0.673521 0.321850 0.665419
0.601587 0.502785 0.211956 -0.051572 0.131326 0.989997
0.202041 0.144464 0.287782 -0.044384 -0.580641 -0.812949
0.227598 0.549940 0.253689 0.006149 0.994513 -0.104433
0.135990 0.521654 0.225854 -0.018094 0.284973 0.958365
0.628800 0.464544 0.184158 0.016528 0.981620 0.190131
0.687762 0.426846 0.189914 -0.056506 0.911266 0.407924
0.122355 0.529567 0.229924 -0.033509 0.960213 -0.277250
0.147039 0.444929 0.256650 0.044439 0.993110 0.108429
0.237104 0.481641 0.204320 -0.115086 0.451689 -0.884721
0.220520 0.522962 0.269439 0.003799 -0.998895 0.046850
0.313331 0.455725 0.202571 -0.003770 -0.866588 0.499011
0.653062 0.427085 0.201749 -0.008332 -0.902134 -0.431376
0.224067 0.812294 0.285095 0.059812 -0.672594 0.737591
0.221852 0.492650 0.251101 -0.000213 0.999892 0.014703
0.249608 0.571438 0.257708 0.020797 0.988494 -0.149824
0.152932 0.067721 0.277226 0.169584 0.420695 0.891211
0.171402 0.472008 0.219714 0.096675 -0.422957 0.900978
0.201827 0.497801 0.145334 -0.382324 -0.720347 -0.578730
0.652455 0.607412 0.205143 -0.000541 -0.767987 0.640465
0.584795 0.494433 0.138858 0.214060 -0.274411 -0.937484
0.234595 0.212765 0.124087 -0.148104 0.133568 0.979911
0.610185 0.522985 0.166378 0.142772 0.946354 -0.289879
0.578898 0.472654 0.179852 0.101458 -0.990830 0.089235
0.192300 0.534736 0.107115 -0.908332 0.112355 0.402877
0.173659 0.414109 0.273183 -0.000318 -0.981772 -0.190063
0.278581 0.515243 0.210336 0.000507 -0.915644 -0.401989
0.232351 0.710717 0.114498 0.095321 0.129794 -0.986949
0.171875 0.464671 0.107465 0.294432 -0.104124 -0.949983
0.241549 0.152408 0.284624 -0.184834 -0.517029 -0.835774
0.238349 0.916160 0.277243 0.211454 0.578916 -0.787492
0.271209 0.805370 0.131359 0.933803 0.065160 0.351803
0.240246 0.648123 0.261104 0.046148 0.941988 -0.332460
0.281332 0.825253 0.277959 0.360721 0.343869 0.866968
0.036377 0.502173 0.130858 -0.971259 0.175131 -0.161200
0.216821 0.824086 0.128415 0.084591 0.129298 -0.987991
0.056358 0.544450 0.167958 -0.484203 0.866919 0.118319
0.220648 0.581761 0.225211 -0.097424 -0.696645 0.710770
0.701516 0.510320 0.198559 0.135729 0.979635 -0.147960
0.152434 0.590280 0.051457 0.014009 -0.714029 -0.699976
0.110521 0.478596 0.223693 -0.183330 0.138539 -0.973241
0.164573 0.465837 0.106815 0.464981 -0.701430 0.540175
0.102764 0.505891 0.225029 -0.133941 0.057971 0.989292
0.310675 0.454651 0.200031 -0.000781 -0.880690 0.473692
0.253342 0.574860 0.113366 0.181606 -0.092162 0.979043
0.177636 0.569771 0.112346 -0.166043 -0.108483 0.980133
0.165450 0.177700 0.134535 0.905933 0.062679 0.418755
0.191093 0.178033 0.128081 0.017436 0.123287 0.992218
0.152242 0.184648 0.270638 0.152303 0.668357 0.728081
0.228961 0.856101 0.286808 0.098048 -0.558293 0.823830
0.271628 0.725569 0.126163 0.432926 -0.055652 0.899710
0.250337 0.516150 0.086301 0.076908 0.329286 -0.941093
0.631594 0.380857 0.201860 0.577014 0.728122 -0.369992
0.274518 0.801610 0.277678 0.382599 0.089708 0.919549
0.645323 0.663986 0.208553 -0.568424 0.116860 0.814395
0.206250 0.045454 0.293094 -0.049460 -0.374642 -0.925849
0.064668 0.521683 0.152755 -0.988519 -0.134907 -0.068048
0.291576 0.466847 0.103053 0.113996 -0.683482 -0.721011
0.260117 0.259723 0.121211 -0.312654 0.146102 0.938564
0.288939 0.505567 0.260348 0.005321 0.999904 0.012788
0.669997 0.654600 0.199714 0.013154 0.551626 -0.833988
0.729938 0.491410 0.255463 0.059076 -0.997109 0.047782
0.175440 0.330785 0.277781 -0.000673 -0.915438 -0.402459
0.636301 0.563386 0.187786 -0.031163 0.933015 -0.358487
0.608928 0.520480 0.202068 -0.005653 0.896692 0.442618
0.174330 0.346970 0.109082 0.258712 0.118843 0.958616
0.282048 0.507621 0.089011 0.117462 0.155596 -0.980812
0.142038 0.540560 0.103767 -0.165988 0.647423 -0.743836
0.207366 0.484055 0.159313 -0.443600 -0.709141 -0.548031
0.682969 0.491350 0.193951 -0.018504 -0.998275 -0.055724
0.210931 0.064401 0.276065 -0.089441 0.445298 0.890904
0.209655 0.449361 0.111925 -0.024095 -0.107541 -0.993909
0.183720 0.700034 0.279621 0.002875 -0.875944 0.482404
0.234245 0.483721 0.252205 -0.004442 0.999478 0.031999
0.254310 0.206887 0.135431 -0.253746 -0.082209 -0.963771
0.738585 0.492584 0.268712 0.087548 -0.993063 0.078495
0.244625 0.371140 0.104466 -0.108050 0.130493 0.985544
0.253941 0.790941 0.271739 0.134503 0.809794 -0.571089
0.197504 0.538420 0.208454 0.124181 0.676398 0.725992
0.166803 0.518661 0.240124 0.094080 -0.324320 0.941257
0.287884 0.612543 0.112416 0.972720 0.085486 0.215656
0.250026 0.486371 0.086275 0.080863 -0.234846 -0.968663
0.278665 0.402788 0.263308 -0.029053 0.977419 0.209301
0.043435 0.496717 0.192438 0.920732 -0.102385 0.376523
0.260098 0.530947 0.098115 0.077726 0.632315 -0.770803
0.181015 0.335192 0.109299 0.143670 0.121169 0.982180
0.186863 0.460005 0.252479 -0.001213 0.996501 0.083573
0.644727 0.513877 0.162600 0.230413 0.854771 -0.465055
0.658658 0.601050 0.192541 0.009343 0.805601 -0.592384
0.064418 0.520391 0.119986 -0.490232 0.509605 -0.707089
0.053029 0.539494 0.163579 -0.972847 0.189651 0.132668
0.195034 0.518570 0.251347 0.000547 0.999288 -0.037722
0.171203 0.254893 0.121001 0.377057 0.115229 0.918994
0.279333 0.545297 0.196373 -0.022198 0.860553 0.508876
0.249224 0.249446 0.268615 -0.080428 0.811053 0.579418
0.260942 0.503233 0.255104 0.000868 0.999980 -0.006250
0.701052 0.380634 0.204118 -0.192249 -0.615558 -0.764283
0.202213 0.441160 0.271669 -0.010197 -0.992010 -0.125747
0.705094 0.409351 0.200272 -0.253312 -0.594898 -0.762842
0.229699 0.327142 0.124957 -0.076789 -0.103286 -0.991683
0.198202 0.678633 0.125892 -0.005494 -0.108802 0.994048
0.205441 0.601128 0.100401 0.006800 0.123959 -0.992264
0.261337 0.594844 0.102139 0.213454 0.139481 -0.966945
0.130371 0.555037 0.193431 -0.083278 0.932408 0.351682
0.161351 0.771211 0.282894 -0.068873 -0.756181 0.650728
0.412502 0.532189 0.206925 0.096028 0.798040 0.594904
0.394094 0.541331 0.148349 0.124790 0.970426 -0.206643
0.650736 0.412535 0.190734 0.006501 0.859310 0.511413
0.134390 0.522757 0.241753 -0.018316 0.089877 0.995784
0.240673 0.408334 0.115926 -0.116247 -0.099457 -0.988228
0.745583 0.507298 0.236637 0.155427 0.987628 -0.020838
0.170521 0.072562 0.275346 0.018274 0.431624 0.901868
0.203031 0.246771 0.119356 -0.016932 0.124382 0.992090
0.116102 0.555986 0.183001 -0.144995 0.960675 0.236810
0.337437 0.450937 0.152666 0.093716 -0.985547 -0.141115
0.242368 0.487344 0.085620 0.072760 -0.210214 -0.974944
0.255808 0.487682 0.214619 -0.004955 -0.192307 0.981322
0.253782 0.558594 0.257500 0.016818 0.992490 -0.121161
0.684599 0.489923 0.176501 0.179592 -0.938304 -0.295520
0.174082 0.097467 0.290510 0.011774 -0.480332 -0.877007
0.510235 0.526811 0.140977 0.130262 0.860641 -0.492268
0.275166 0.356675 0.269390 -0.295096 0.640226 -0.709245
0.164691 0.450231 0.093019 0.032068 0.710903 -0.702559
0.258531 0.287673 0.126629 -0.268030 -0.080560 -0.960037
0.157732 0.027914 0.278625 0.104398 0.343898 0.933186
0.446691 0.502266 0.114127 0.174539 0.095333 -0.980024
0.148337 0.439263 0.151526 0.027283 -0.995630 -0.089314
0.287289 0.401625 0.106199 -0.422666 0.152876 0.893298
0.395370 0.520454 0.219157 0.082819 0.402710 0.911573
0.651269 0.341720 0.200836 0.114802 0.553242 0.825072
0.266626 0.249596 0.123452 -0.517820 0.157866 0.840798
0.207156 0.590544 0.273315 0.016280 -0.979504 0.200768
0.203887 0.815413 0.127134 0.024437 0.124756 -0.991886
0.139474 0.142768 0.280545 0.891739 -0.436178 0.120627
0.735509 0.492013 0.257473 0.074937 -0.995888 0.050902
0.256937 0.269190 0.276445 -0.287246 -0.663981 -0.690376
0.237399 0.282553 0.115416 -0.122872 0.131727 0.983641
0.748914 0.506507 0.260846 0.208343 0.977674 0.027328
0.340943 0.547302 0.146637 0.119354 0.971065 -0.206851
0.657314 0.572242 0.201615 0.023016 -0.904621 0.425595
0.254074 0.845389 0.275089 0.280434 0.845543 -0.454328
0.178933 0.444726 0.253457 0.003457 0.993039 0.117737
0.708395 0.558827 0.191066 0.044670 0.945524 -0.322474
0.446529 0.464216 0.181728 0.099226 -0.978108 0.182918
0.213895 0.801568 0.125559 0.058239 0.127286 -0.990155
0.229818 0.644325 0.259428 0.044850 0.945300 -0.323106
0.108545 0.534093 0.217639 -0.135707 0.529628 0.837304
0.268878 0.155307 0.138659 -0.395796 -0.061859 -0.916253
0.041802 0.514639 0.150275 -0.021785 0.999581 -0.019035
0.239064 0.416633 0.115045 -0.111928 -0.099841 -0.988688
0.111174 0.457827 0.114888 -0.270228 -0.720943 -0.638136
0.249797 0.559633 0.112289 0.146333 -0.096496 0.984518
0.052961 0.464754 0.175977 -0.961461 0.266069 -0.069281
0.165785 0.531269 0.252437 -0.005976 0.997909 -0.064354
0.180347 0.541384 0.109700 -0.133283 -0.108930 0.985074
0.255972 0.536545 0.256454 0.010223 0.997232 -0.073651
0.652408 0.434115 0.187850 -0.005989 0.925084 0.379715
0.710319 0.613386 0.202150 0.286893 -0.413824 0.863969
0.172698 0.486599 0.233961 0.095176 0.981595 0.165567
0.205539 0.647949 0.276457 0.028051 -0.937843 0.345924
0.156093 0.398429 0.039856 -0.025714 0.720125 -0.693368
0.222454 0.451692 0.115940 0.038547 -0.891752 -0.450879
0.275110 0.680855 0.115426 0.388208 0.150827 -0.909145
0.061290 0.487690 0.201167 -0.990097 0.113658 -0.082403
0.166240 0.752409 0.282088 -0.024593 -0.791017 0.611300
0.270487 0.794038 0.133285 0.395207 -0.062112 0.916490
0.147118 0.900460 0.276471 -0.313709 0.489643 -0.813533
0.202364 0.824470 0.128241 0.022519 0.124627 -0.991948
0.717337 0.469354 0.188951 -0.022016 0.987043 0.158936
0.335794 0.486381 0.228332 -0.054445 -0.225006 0.972835
0.202552 0.493945 0.149357 -0.316122 -0.728357 -0.607917
0.402380 0.487282 0.107329 0.165203 -0.319782 -0.932978
0.636992 0.481860 0.166032 0.186463 -0.941229 -0.281637
0.096252 0.452908 0.124239 -0.315674 -0.777221 -0.544314
0.138497 0.530091 0.234310 0.009752 0.978630 0.205399
0.185391 0.150280 0.144367 0.082446 -0.109334 -0.990580
0.282191 0.427633 0.109118 -0.888702 0.048705 -0.455891
0.168374 0.355674 0.118378 0.549278 -0.087650 -0.831030
0.273936 0.451366 0.107847 -0.619307 -0.019744 -0.784900
0.715141 0.490734 0.281445 -0.025878 -0.991834 0.124882
0.188075 0.457702 0.105877 0.008032 -0.778750 -0.627283
0.173189 0.178255 0.269123 0.018346 0.654837 0.755548
0.209575 0.581121 0.255242 0.002586 0.983995 -0.178179
0.142461 0.328045 0.272284 0.217102 -0.914655 -0.340987
0.268867 0.401749 0.113596 -0.427766 -0.055658 -0.902174
0.207433 0.302604 0.262032 -0.006885 0.880296 0.474375
0.678605 0.684515 0.203755 0.051064 0.422043 -0.905137
0.142610 0.448727 0.259059 0.367460 0.916083 0.160514
0.186036 0.473019 0.116156 -0.111939 0.729453 -0.674810
0.284805 0.626408 0.265945 0.106215 0.986046 0.128184
0.150386 0.529289 0.236026 0.045401 0.919260 0.391025
0.197691 0.272062 0.131306 0.006361 -0.108848 -0.994038
0.404484 0.542688 0.169465 0.110279 0.992654 0.049766
0.246742 0.499435 0.252974 -0.000151 0.999999 0.001089
0.176752 0.236520 0.122239 0.183964 0.120320 0.975541
0.198575 0.237820 0.265698 -0.009184 0.774265 0.632794
0.540411 0.501854 0.214735 0.052727 0.082519 0.995194
0.256483 0.643090 0.107850 0.210567 0.139082 -0.967635
0.266994 0.788356 0.128525 0.879049 0.153431 -0.451366
0.042319 0.495642 0.225962 0.797721 -0.353251 0.488729
0.270737 0.532463 0.100477 0.086926 0.660583 -0.745704
0.215969 0.285129 0.114765 -0.036910 0.125636 0.991390
0.191525 0.802422 0.267951 0.010431 0.695208 -0.718733
0.297828 0.560319 0.105728 0.842961 0.155776 -0.514928
0.703846 0.643719 0.206518 0.194458 -0.473896 0.858841
0.177294 0.571017 0.254413 -0.004527 0.988034 -0.154169
0.280556 0.521989 0.205901 -0.043360 -0.047889 -0.997911
0.284022 0.466738 0.097132 -0.350691 0.149213 0.924528
0.097359 0.467883 0.218078 -0.173656 -0.524264 0.833661
0.199987 0.593795 0.099586 -0.011627 0.123436 -0.992284
0.194193 0.441883 0.201241 0.297669 0.727888 0.617715
0.225972 0.436941 0.271533 -0.010984 -0.990722 -0.135459
0.209924 0.468438 0.174388 -0.399266 0.588675 0.702886
0.243393 0.424300 0.257108 -0.022138 0.986952 0.159485
0.185616 0.773676 0.283590 0.008923 -0.751063 0.660170
0.195405 0.751163 0.265003 0.008814 0.794408 -0.607321
0.217559 0.964548 0.293463 0.069477 -0.355125 0.932234
0.279286 0.467766 0.105439 -0.852064 0.037496 -0.522092
0.163365 0.436066 0.106140 0.857163 -0.046676 -0.512925
0.211037 0.587823 0.115963 0.026003 -0.107457 0.993870
0.704758 0.466090 0.193825 -0.293112 -0.367318 -0.882702
0.173452 0.069083 0.292048 0.015085 -0.421757 -0.906583
0.693677 0.506007 0.283993 -0.461683 0.687401 0.560651
0.242939 0.480850 0.267421 -0.023764 -0.998085 -0.057114
0.251952 0.543880 0.256346 0.012383 0.995936 -0.089209
0.209833 0.611379 0.118552 0.023300 -0.107593 0.993922
0.668920 0.485393 0.214644 0.014830 -0.991728 0.127497
0.278027 0.526043 0.104983 0.813938 0.026503 0.580347
0.248436 0.270640 0.277547 -0.212766 -0.765524 -0.607210
0.195485 0.424091 0.114527 0.014612 -0.109000 -0.993934
0.303517 0.537136 0.102582 0.700335 0.160541 -0.695526
0.148064 0.584029 0.056570 0.714967 -0.377192 -0.588684
0.216008 0.444551 0.161530 0.059588 -0.993138 0.100631
0.235481 0.784274 0.137029 0.086468 -0.102697 0.990947
0.208121 0.331681 0.108832 -0.018118 0.124569 0.992045
0.267077 0.801508 0.274205 0.340014 0.935048 0.100375
0.729928 0.509064 0.241570 0.115405 0.993247 -0.011888
0.257872 0.691751 0.124628 0.256172 -0.082213 0.963129
0.209191 0.261863 0.117566 -0.026745 0.124999 0.991796
0.223253 0.467851 0.209378 0.115341 -0.547941 0.828527
0.378481 0.480446 0.107661 0.161538 -0.461986 -0.872052
0.268269 0.678560 0.121847 0.384545 -0.063289 0.920934
0.230288 0.205957 0.283410 -0.091226 -0.693456 -0.714700
0.044946 0.503296 0.152571 0.893468 0.131766 -0.429363
0.219437 0.405623 0.099773 -0.031734 0.125491 0.991587
0.217386 0.308675 0.111847 -0.037249 0.125687 0.991370
0.273598 0.277193 0.125609 -0.474881 -0.048489 -0.878713
0.338567 0.496119 0.227909 -0.036482 -0.076735 0.996384
0.217502 0.607156 0.250907 -0.000876 -0.715666 0.698443
0.710229 0.478329 0.186899 -0.015221 0.993828 0.109882
0.088434 0.487694 0.105536 -0.407976 -0.150322 -0.900532
0.268783 0.475981 0.092920 0.100339 -0.465679 -0.879247
0.648344 0.324494 0.204578 0.354991 0.524070 0.774166
0.200512 0.784991 0.123283 0.015364 0.124243 -0.992133
0.218883 0.509277 0.085292 0.003780 0.170883 -0.985284
0.229624 0.510075 0.268600 0.001638 -0.999795 0.020199
0.200330 0.148088 0.270991 -0.033728 0.598660 0.800293
0.478765 0.465357 0.166125 0.102690 -0.994090 -0.035213
0.745868 0.503712 0.184167 0.208678 0.919050 -0.334366
0.238487 0.361906 0.121027 -0.106217 -0.100513 -0.989250
0.240316 0.464661 0.092723 -0.064240 0.127441 0.989764
0.168129 0.176718 0.286038 0.027011 -0.649833 -0.759597
0.260038 0.349120 0.120171 -0.263646 -0.081345 -0.961183
0.276496 0.374709 0.264726 -0.049999 0.975938 0.212238
0.313370 0.482517 0.222173 -0.089335 -0.257424 0.962160
0.458430 0.534784 0.180478 0.099249 0.984533 0.144377
0.744709 0.495089 0.190835 0.193292 -0.965317 -0.175503
0.664931 0.505833 0.245907 -0.664941 0.360464 0.654155
0.268332 0.683410 0.122331 0.384254 -0.063363 0.921050
0.282472 0.179110 0.277575 -0.352570 0.397045 -0.847378
0.206086 0.439009 0.206756 -0.015410 -0.718648 -0.695203
0.146302 0.870598 0.285807 -0.398066 -0.563487 0.723896
0.169835 0.471119 0.219064 0.097460 -0.446077 0.889672
0.170282 0.591925 0.048831 -0.962279 -0.043425 0.268575
0.458899 0.468996 0.138625 0.132997 -0.906189 -0.401414
0.142221 0.535707 0.218135 -0.010572 0.570317 0.821357
0.270662 0.589660 0.267234 0.289057 0.658636 0.694727
0.185762 0.481104 0.224755 0.064967 0.865461 -0.496746
0.511553 0.530248 0.156424 0.104791 0.965596 -0.237997
0.180648 0.582078 0.273135 0.000303 -0.983510 0.180852
0.573434 0.519890 0.205190 -0.009511 0.761607 0.647969
0.189912 0.438663 0.112775 0.037436 -0.109345 -0.993299
0.174983 0.780099 0.135171 -0.248923 -0.106043 0.962701
0.471415 0.473943 0.133123 0.145885 -0.829029 -0.539841
0.504260 0.516342 0.213512 0.064196 0.485753 0.871736
0.218039 0.746260 0.133148 0.040404 -0.106398 0.993502
0.208440 0.719097 0.263321 0.010184 0.848836 -0.528558
0.295259 0.526825 0.215107 0.034594 0.695921 0.717285
0.234686 0.697640 0.127585 0.090286 -0.102130 0.990665
0.175575 0.344270 0.121494 0.212876 -0.107279 -0.971172
0.287532 0.569781 0.102450 0.404468 0.152070 -0.901821
0.220428 0.409993 0.255930 -0.002898 0.979863 0.199648
0.690803 0.498228 0.282400 -0.660153 -0.363454 0.657343
0.192918 0.069417 0.275494 -0.036569 0.434959 0.899707
0.710054 0.512245 0.185754 0.008383 0.998132 -0.060515
0.196249 0.561368 0.095652 -0.024717 0.123181 -0.992076
0.251253 0.679900 0.124339 0.193211 -0.090383 0.976985
0.195849 0.486330 0.251072 -0.000400 0.999619 0.027584
0.250578 0.677833 0.111629 0.188993 0.137227 -0.972343
0.267768 0.531425 0.207495 -0.056343 0.543898 0.837258
0.346394 0.451175 0.171497 0.077458 -0.994184 0.074817
0.163465 0.753163 0.282001 -0.031790 -0.789795 0.612547
0.214509 0.389254 0.101741 -0.024291 0.125023 0.991856
0.039989 0.510948 0.070538 -0.252831 0.931555 -0.261307
0.159841 0.607620 0.257304 -0.038710 0.969995 -0.240022
0.199127 0.551627 0.186798 0.085726 0.931611 0.353202
0.252997 0.146928 0.275410 -0.286354 0.829858 0.478892
0.120300 0.446187 0.194777 -0.105777 -0.904061 0.414107
0.193407 0.211270 0.137896 0.021856 -0.109125 -0.993788
0.077649 0.550119 0.172468 -0.354695 0.922997 0.149223
0.180716 0.424112 0.113593 0.131711 -0.108955 -0.985282
0.228945 0.771240 0.267073 0.086738 0.775889 -0.624879
0.243889 0.792044 0.136765 0.159180 -0.094221 0.982743
0.259922 0.208600 0.134479 -0.303303 -0.075479 -0.949900
0.145548 0.471906 0.266436 0.030838 -0.998350 -0.048436
0.118298 0.467189 0.105090 -0.264090 -0.571456 -0.776977
0.204962 0.691656 0.278839 0.037258 -0.887417 0.459459
0.234624 0.680928 0.262333 0.057397 0.908693 -0.413501
0.267971 0.213350 0.277810 -0.374576 -0.221837 -0.900268
0.225353 0.473730 0.215747 -0.125867 -0.901143 -0.414848
0.638014 0.483071 0.181326 0.002453 0.996185 0.087233
0.318086 0.548352 0.184664 0.047514 0.965196 0.257175
0.068312 0.490873 0.193115 -0.981765 0.172661 0.079536
0.693184 0.590757 0.192759 0.070739 0.856860 -0.510674
0.229728 0.764427 0.281954 0.078039 -0.757812 0.647789
0.215170 0.186387 0.285304 -0.060014 -0.669828 -0.740087
0.164451 0.323174 0.277860 0.016973 -0.906494 -0.421877
0.150785 0.865292 0.273775 -0.205952 0.563595 -0.799965
0.182409 0.489298 0.152137 0.051191 0.722802 0.689157
0.147955 0.533792 0.218016 0.043873 0.496594 0.866874
0.139477 0.293355 0.272040 0.457989 -0.886703 -0.063274
0.230515 0.207885 0.268567 -0.092748 0.738205 0.668170
0.281644 0.339483 0.267594 -0.140316 0.980372 -0.138500
0.187885 0.139914 0.132881 0.024922 0.123066 0.992086
0.220499 0.384465 0.257429 -0.008794 0.965184 0.261424
0.198159 0.906650 0.274170 0.044725 0.487065 -0.872220
0.244728 0.571162 0.257015 0.020711 0.988590 -0.149202
0.156144 0.237516 0.266881 0.118565 0.773108 0.623094
0.284487 0.323985 0.116084 -0.622481 0.160341 0.766034
0.182532 0.277027 0.130232 0.122231 -0.109090 -0.986488
0.146741 0.569510 0.269162 -0.036626 -0.988738 0.145103
0.041021 0.497157 0.264969 0.645691 -0.485891 0.589061
0.282947 0.782837 0.275260 0.327357 0.568811 0.754514
0.390359 0.532311 0.122281 0.146028 0.801671 -0.579655
0.236376 0.504313 0.214179 0.037026 0.028150 0.998918
0.469604 0.481722 0.214044 0.072343 -0.485074 0.871476
0.306078 0.458304 0.102691 -0.668279 0.160393 0.726414
0.216077 0.711942 0.129432 0.036324 -0.106688 0.993629
0.061236 0.487979 0.185084 -0.896559 0.060718 0.438744
0.059240 0.512592 0.118410 -0.522114 0.391444 -0.757739
0.169459 0.675391 0.260678 -0.012259 0.908615 -0.417454
0.180210 0.422242 0.098726 0.160902 0.120873 0.979541
0.193166 0.477833 0.163826 -0.021210 0.712278 0.701577
0.543603 0.526637 0.151252 0.123790 0.910214 -0.395204
0.515386 0.469833 0.157877 0.114125 -0.969877 -0.215207
0.690916 0.372846 0.206413 -0.077629 -0.658089 -0.748928
0.200984 0.503291 0.085585 -0.029028 0.062113 -0.997647
0.254404 0.893154 0.278058 0.496404 0.840039 -0.218901
0.200111 0.444639 0.271513 -0.009553 -0.992991 -0.117804
0.706047 0.653042 0.201951 0.233963 0.736139 -0.635107
0.333747 0.535276 0.114734 0.150435 0.757584 -0.635166
0.199426 0.552374 0.194760 0.000987 -0.715957 0.698144
0.226790 0.474712 0.214109 0.092710 -0.376415 0.921801
0.656290 0.481348 0.196124 -0.006813 -0.995188 -0.097745
0.168444 0.828490 0.137993 -0.882460 -0.040935 0.468603
0.601847 0.477333 0.198062 0.076174 -0.903071 0.422683
0.714517 0.489456 0.245403 0.066554 -0.997536 0.022181
0.140924 0.469748 0.095682 -0.175902 -0.539873 -0.823162
0.525255 0.510149 0.127132 0.183649 0.341179 -0.921884
0.211531 0.452747 0.111527 -0.030093 -0.107028 -0.993800
0.684947 0.485034 0.194400 -0.033757 -0.994246 -0.101659
0.207078 0.844635 0.270667 0.052383 0.620360 -0.782566
0.196243 0.342203 0.107608 0.017232 0.123298 0.992220
0.261847 0.585485 0.268239 0.324407 -0.535581 0.779688
0.667122 0.575077 0.189278 0.006894 0.899382 -0.437109
0.207347 0.174917 0.128394 -0.040240 0.125956 0.991219
0.173432 0.484248 0.087369 -0.046505 -0.258827 -0.964804
0.298005 0.448337 0.165917 0.039223 -0.988796 0.144025
0.053422 0.496158 0.120975 -0.907500 0.319963 -0.272154
0.344334 0.539406 0.209984 0.058533 0.821847 0.566693
0.694370 0.609923 0.203962 0.126658 -0.712113 0.690546
0.688252 0.497489 0.181577 -0.001671 0.999926 0.012061
0.225200 0.445465 0.271082 -0.009401 -0.993213 -0.115926
0.385863 0.499766 0.104795 0.172773 0.022825 -0.984697
0.229343 0.085522 0.289779 -0.111732 -0.424349 -0.898579
0.162220 0.839170 0.270501 -0.070474 0.617597 -0.783331
0.102151 0.554939 0.147005 -0.237680 0.948457 -0.209611
0.680603 0.481256 0.195433 -0.030298 -0.994259 -0.102624
0.187807 0.310981 0.126757 0.050933 -0.109388 -0.992693
0.300659 0.598666 0.108089 0.637048 0.160114 -0.754011
0.149406 0.416146 0.055619 0.219981 -0.731546 0.645328
0.535409 0.530791 0.176940 0.081303 0.995623 0.046101
0.280136 0.641615 0.110930 0.398339 0.151496 -0.904641
0.228327 0.123024 0.287977 -0.098333 -0.513416 -0.852487
0.202022 0.639506 0.105207 0.000316 0.123739 -0.992315
0.457646 0.483182 0.216565 0.070470 -0.400780 0.913460
0.287792 0.547828 0.187285 -0.020386 0.924351 0.380999
0.219897 0.581165 0.115099 0.053327 -0.105124 0.993028
0.161656 0.182299 0.269279 0.069213 0.663043 0.745375
0.206512 0.922494 0.275228 0.073580 0.465540 -0.881963
0.167745 0.107368 0.289822 0.031189 -0.501331 -0.864693
0.505471 0.469036 0.158166 0.114662 -0.973135 -0.199653
0.227136 0.524829 0.214376 0.073729 0.343571 0.936228
0.731467 0.506114 0.191785 0.134283 0.965588 -0.222730
0.669923 0.632763 0.207640 0.028027 -0.645944 0.762870
0.202870 0.484003 0.220126 0.125007 -0.206563 0.970415
0.177093 0.721721 0.280691 0.000899 -0.843275 0.537481
0.724566 0.399589 0.198253 -0.255632 0.701949 -0.664770
0.233893 0.333125 0.124239 -0.090075 -0.102071 -0.990691
0.225847 0.446161 0.253891 -0.002437 0.993446 0.114277
0.212644 0.381681 0.274738 -0.021882 -0.962653 -0.269851
0.565487 0.526812 0.162601 0.114017 0.963559 -0.241978
0.718075 0.346673 0.203651 -0.460772 0.480257 -0.746353
0.687544 0.327518 0.202320 -0.094285 0.492354 0.865273
0.168486 0.710665 0.118027 -0.601606 0.102882 -0.792140
0.141838 0.093394 0.285080 0.800016 -0.452943 -0.393468
0.224378 0.451713 0.253543 -0.001480 0.994786 0.101972
0.245581 0.057080 0.289003 -0.214681 -0.276813 -0.936636
0.165976 0.812682 0.134491 -0.994208 0.027304 -0.103950
0.174412 0.071548 0.291935 0.012078 -0.426727 -0.904300
0.142261 0.461358 0.102088 -0.152902 -0.684193 -0.713093
0.607904 0.500531 0.192051 -0.000551 -0.999996 0.002629
0.269425 0.516024 0.215320 0.081230 -0.719358 0.689873
0.170628 0.400455 0.040661 -0.308400 0.729017 -0.611084
0.638893 0.627457 0.205466 -0.230351 -0.608757 0.759180
0.700193 0.651222 0.200924 0.109935 0.598383 -0.793632
0.636213 0.369981 0.204435 0.563729 0.172889 -0.807663
0.264672 0.921567 0.285254 0.334362 -0.209654 0.918829
0.155605 0.356356 0.260155 0.062683 0.942101 0.329420
0.718863 0.330782 0.205651 -0.441566 0.196732 -0.875395
0.201888 0.553707 0.135494 0.024207 0.972700 -0.230799
0.069113 0.521923 0.118717 -0.469964 0.518011 -0.714702
0.226734 0.547931 0.195806 0.054022 0.863317 0.501762
0.181557 0.858305 0.271077 0.011851 0.577163 -0.816543
0.342596 0.510067 0.227296 -0.008647 0.141974 0.989833
0.152914 0.486019 0.223615 0.102298 -0.220499 0.970008
0.701592 0.443695 0.189824 -0.042590 0.950607 0.307462
0.164413 0.622436 0.274875 -0.011300 -0.959677 0.280879
0.225901 0.804234 0.284545 0.063277 -0.687007 0.723890
0.236247 0.799252 0.138556 0.092319 -0.102048 0.990486
0.447631 0.469341 0.132784 0.136769 -0.871537 -0.470869
0.266548 0.174657 0.137014 -0.370654 -0.065695 -0.926445
0.239447 0.104657 0.276121 -0.178560 0.602239 0.778090
0.255129 0.597140 0.260045 0.029029 0.977457 -0.209132
0.220799 0.902171 0.274255 0.110186 0.519830 -0.847134
0.194645 0.745418 0.118508 -0.014207 0.123351 -0.992261
0.105218 0.519043 0.229189 -0.577170 -0.797574 -0.175359
0.240693 0.033045 0.280675 -0.452185 0.568849 0.686979
0.175951 0.160656 0.287097 0.001870 -0.615398 -0.788214
0.351427 0.505810 0.099873 0.173614 0.164804 -0.970926
0.288209 0.342947 0.268295 -0.172788 0.893131 -0.415286
0.635471 0.538891 0.198180 -0.000183 -0.976222 0.216775
0.236140 0.447071 0.135428 0.056618 -0.973427 -0.221888
0.257036 0.409414 0.100980 -0.175265 0.136402 0.975027
0.191267 0.842564 0.130631 -0.013695 0.123414 -0.992261
0.094223 0.446647 0.149132 -0.291792 -0.926571 -0.237327
0.175921 0.296849 0.262147 0.014363 0.872106 0.489106
0.219593 0.594078 0.240681 -0.056403 0.724080 -0.687406
0.452107 0.523800 0.210542 0.087053 0.673380 0.734153
0.213224 0.699150 0.279119 0.038821 -0.877100 0.478737
0.142623 0.250330 0.276793 0.320697 -0.802148 -0.503697
0.143834 0.216916 0.271251 0.458067 0.705919 0.540233
0.182155 0.550726 0.089918 -0.209200 0.665540 0.716444
0.118357 0.554467 0.136516 -0.193508 0.921344 -0.337164
0.229676 0.799605 0.138791 0.067578 -0.104429 0.992234
0.259700 0.153853 0.135161 -0.981073 0.092746 -0.169985
0.218465 0.592305 0.235759 -0.029630 -0.710773 0.702797
0.244923 0.054616 0.279941 -0.485770 0.663698 0.568800
0.350583 0.548544 0.170369 0.104354 0.991859 0.072976
0.249148 0.744973 0.268263 0.078672 0.820113 -0.566768
0.548375 0.528277 0.161226 0.108479 0.965897 -0.235107
0.165211 0.234312 0.266091 0.042241 0.767591 0.639546
0.139819 0.555216 0.261342 -0.222899 -0.969967 -0.097368
0.184943 0.300937 0.279549 -0.005504 -0.877346 -0.479826
0.245016 0.052398 0.289324 -0.211032 -0.270310 -0.939360
0.708891 0.377062 0.198763 -0.146365 0.819104 0.554658
0.212977 0.597540 0.244258 0.010421 0.714625 -0.699430
0.038382 0.496695 0.260983 -0.565990 -0.654384 0.501434
0.058804 0.486286 0.118602 -0.534442 -0.095825 -0.839756
0.160389 0.548930 0.091447 0.339101 0.723811 0.600923
0.278422 0.160134 0.279119 -0.376897 0.193362 -0.905847
0.164853 0.769211 0.266313 -0.045925 0.760896 -0.647246
0.662716 0.471357 0.197051 -0.010768 -0.987937 -0.154480
0.276491 0.446016 0.264580 -0.106958 0.960456 -0.257069
0.163596 0.309577 0.278566 0.018393 -0.889181 -0.457186
0.598026 0.484069 0.148877 0.184457 -0.715631 -0.673683
0.637262 0.435884 0.187846 0.018773 0.930669 0.365381
0.201819 0.385334 0.274707 -0.021134 -0.965211 -0.260618
0.407472 0.537001 0.137043 0.129655 0.922786 -0.362844
0.289114 0.648096 0.115862 0.962927 0.079058 0.257916
0.473435 0.526167 0.133577 0.136431 0.810405 -0.569763
0.504311 0.467812 0.178359 0.090571 -0.989260 0.114721
0.158267 0.659010 0.276262 -0.050454 -0.926738 0.372306
0.188739 0.608360 0.274565 0.010688 -0.969428 0.245143
0.598849 0.523159 0.196299 0.019185 0.950967 0.308696
0.167909 0.026203 0.278109 0.022198 0.341086 0.939770
0.241327 0.470675 0.109111 -0.122739 -0.098685 -0.987520
0.250923 0.437406 0.096430 -0.104897 0.130314 0.985908
0.194726 0.472414 0.251872 -0.000823 0.998390 0.056716
0.253013 0.714404 0.127605 0.219114 -0.086986 0.971814
0.234514 0.845067 0.143456 0.089809 -0.102187 0.990703
0.209000 0.602842 0.100669 0.013467 0.124371 -0.992144
0.256131 0.242386 0.270003 -0.095405 0.822814 0.560246
0.154453 0.938614 0.291090 -0.163512 -0.407052 0.898651
0.275458 0.356632 0.269352 -0.290646 0.653875 -0.698550
0.036828 0.494113 0.120565 -0.942533 -0.218960 -0.252366
0.284711 0.491810 0.261070 -0.009366 0.999703 -0.022512
0.222295 0.386163 0.257791 -0.033729 0.710010 0.703383
0.182248 0.523363 0.166269 0.904077 -0.410072 0.120356
0.205637 0.349390 0.106582 -0.011887 0.124209 0.992185
0.260388 0.139724 0.276875 -0.464195 0.885467 -0.021718
0.160856 0.252780 0.281555 0.070968 -0.800533 -0.595072
0.213776 0.496910 0.085349 -0.007970 -0.075294 -0.997129
0.277279 0.857826 0.280207 0.381751 0.111520 0.917513
0.254108 0.478902 0.089023 0.084077 -0.385504 -0.918868
0.261485 0.596531 0.268861 0.317883 -0.561461 0.764010
0.250713 0.195825 0.137054 -0.224548 -0.085997 -0.970661
0.055017 0.505357 0.188208 0.177574 0.800014 0.573101
0.721056 0.431593 0.193959 -0.114380 0.993329 -0.014646
0.244144 0.181661 0.282750 -0.199934 -0.575198 -0.793204
0.217839 0.795608 0.267956 0.069782 0.725837 -0.684318
0.260924 0.270321 0.268957 -0.090574 0.874992 0.475589
0.623742 0.488241 0.150705 0.205588 -0.622211 -0.755372
0.154817 0.523322 0.093331 -0.012190 0.451005 -0.892438
0.055485 0.496351 0.120066 -0.560490 0.104921 -0.821488
0.242321 0.784908 0.124652 0.203016 0.137985 -0.969404
0.182436 0.690151 0.112158 -0.115400 0.121715 -0.985834
0.189031 0.073389 0.291842 -0.017843 -0.430420 -0.902452
0.236333 0.585184 0.098885 0.061723 0.127234 -0.989950
0.294258 0.544734 0.114494 0.094591 0.855175 -0.509636
0.223945 0.216151 0.123501 -0.096035 0.130023 0.986849
0.035856 0.513399 0.160904 -0.714322 0.696231 -0.070755
0.707376 0.479921 0.191880 -0.226850 0.694141 -0.683159
0.234626 0.256825 0.132556 -0.086817 -0.102561 -0.990931
0.708240 0.424706 0.198079 -0.294101 -0.359273 -0.885679
0.174520 0.521721 0.241154 0.115555 0.073275 0.990595
0.432478 0.460718 0.170221 0.104726 -0.993588 0.042616
0.222868 0.552865 0.134030 0.024564 0.973262 -0.228380
0.594877 0.515083 0.208094 -0.059101 0.602926 0.795605
0.716258 0.464339 0.189399 -0.025920 0.981995 0.187122
0.218551 0.035089 0.277902 -0.116618 0.399063 0.909477
0.290551 0.440730 0.101477 -0.420201 0.152896 0.894457
0.229687 0.673907 0.125071 0.076677 -0.103299 0.991690
0.279151 0.218779 0.129264 -0.867444 0.040276 -0.495901
0.216703 0.810786 0.268829 0.071406 0.696074 -0.714410
0.211233 0.488132 0.085396 -0.009574 -0.237686 -0.971295
0.187608 0.525604 0.091380 -0.047525 0.480998 -0.875433
0.187569 0.538821 0.103341 -0.490662 -0.697852 -0.521779
0.432311 0.476921 0.121411 0.162078 -0.643781 -0.747848
0.672825 0.486246 0.228050 -0.042986 -0.987377 0.152442
0.093323 0.445648 0.175579 -0.252548 -0.961724 0.106332
0.288333 0.504186 0.215559 -0.097525 0.067785 0.992922
0.700366 0.441270 0.189943 -0.044589 0.945725 0.321895
0.670417 0.354707 0.198504 -0.012642 0.597825 0.801527
0.255860 0.238327 0.132018 -0.258489 -0.081679 -0.962555
0.225656 0.426376 0.097277 -0.041118 0.126073 0.991168
0.678565 0.425910 0.201477 -0.030432 -0.899142 -0.436598
0.054689 0.533759 0.161107 -0.964277 -0.259711 0.052152
0.688132 0.353936 0.198877 -0.097424 0.619779 0.778706
0.165225 0.454222 0.099364 0.886871 0.067497 0.457061
0.224079 0.657212 0.276674 0.030003 -0.928552 0.369989
0.485642 0.532557 0.158356 0.106542 0.977044 -0.184481
0.248159 0.359357 0.261742 -0.043593 0.948404 0.314052
0.199095 0.620738 0.102947 -0.012053 0.123417 -0.992282
0.223527 0.448582 0.253713 -0.001582 0.994039 0.109012
0.591960 0.475459 0.165035 0.132905 -0.965247 -0.225020
0.745970 0.495697 0.187476 0.221739 -0.952022 -0.210915
0.249372 0.425373 0.269403 -0.114316 -0.954695 -0.274752
0.534297 0.511862 0.215017 0.049088 0.347496 0.936396
0.230032 0.138574 0.133281 -0.167412 0.134972 0.976604
0.234764 0.857448 0.144680 0.095586 -0.101491 0.990234
0.250520 0.201623 0.280833 -0.246525 -0.591215 -0.767913
0.154250 0.132954 0.273236 0.155210 0.557305 0.815672
0.194992 0.356962 0.105807 0.021915 0.123208 0.992139
0.233448 0.791192 0.137815 0.079743 -0.103322 0.991446
0.249864 0.750747 0.121177 0.238144 0.140829 -0.960965
0.717641 0.490824 0.276316 -0.009644 -0.993898 0.109881
0.257915 0.583855 0.100211 0.177287 0.136594 -0.974634
0.210458 0.573627 0.254815 0.002327 0.987060 -0.160337
0.141946 0.766297 0.277233 -0.359576 -0.778454 0.514504
0.263887 0.936469 0.286135 0.325452 -0.184305 0.927423
0.656398 0.679996 0.203642 -0.109414 0.449728 -0.886439
0.237293 0.587573 0.115531 0.106209 -0.100384 0.989264
0.383568 0.455198 0.156980 0.118342 -0.987679 -0.102397
0.362193 0.526466 0.111296 0.160936 0.639254 -0.751967
0.269245 0.926640 0.282162 0.496199 0.234622 0.835906
0.176112 0.486293 0.232561 0.115573 0.991136 0.065512
0.426011 0.538232 0.182168 0.104047 0.974701 0.197820
0.182234 0.548592 0.271340 0.000172 -0.994698 0.102844
0.167079 0.469376 0.105343 0.513669 -0.090486 -0.853204
0.262056 0.050658 0.287055 -0.311355 -0.170003 -0.934964
0.383952 0.465659 0.122649 0.145143 -0.805067 -0.575153
0.424469 0.477673 0.214272 0.083521 -0.575238 0.813711
0.214670 0.401195 0.242349 -0.008445 0.714447 0.699638
0.251103 0.373563 0.261280 -0.038771 0.959416 0.279317
0.241874 0.850925 0.143032 0.158012 -0.094173 0.982936
0.071824 0.519893 0.218961 -0.303404 0.155475 0.940092
0.633401 0.519805 0.196302 -0.000088 -0.994500 0.104739
0.176493 0.386769 0.274743 -0.000431 -0.966200 -0.257793
0.193911 0.576605 0.114567 -0.019151 -0.109118 0.993844
0.331313 0.450667 0.178033 0.055122 -0.987131 0.150112
0.273709 0.690481 0.272034 0.358940 0.356277 0.862687
0.202764 0.066430 0.292008 -0.043791 -0.416272 -0.908185
0.183930 0.709450 0.128832 -0.099257 -0.109261 0.989045
0.270082 0.914985 0.284164 0.368782 -0.190071 0.909875
0.215865 0.472160 0.091410 -0.018844 0.124803 0.992003
0.652570 0.635103 0.197245 -0.021313 0.651976 -0.757940
0.242696 0.632757 0.260503 0.040911 0.954705 -0.294728
0.438011 0.465652 0.196676 0.091174 -0.921416 0.377729
0.261717 0.812989 0.280040 0.335469 -0.486658 0.806613
0.229157 0.103106 0.288893 -0.107599 -0.464370 -0.879081
0.264850 0.255810 0.276043 -0.360036 -0.348700 -0.865322
0.260219 0.315419 0.273597 -0.313516 -0.577860 -0.753515
0.176606 0.601408 0.115663 -0.182535 -0.108161 0.977232
0.538896 0.473404 0.149314 0.123840 -0.916287 -0.380896
0.616698 0.522865 0.190314 0.044414 0.983359 0.176160
0.414252 0.525968 0.121359 0.148931 0.725729 -0.671668
0.201369 0.576781 0.220171 0.148737 -0.730573 0.666438
0.202343 0.676246 0.260713 0.006091 0.907649 -0.419685
0.271623 0.506074 0.262772 0.017055 0.999014 0.040988
0.271720 0.729476 0.274329 0.382409 0.095025 0.919094
0.258358 0.689626 0.274116 0.292236 -0.649059 0.702368
0.732324 0.491677 0.255963 0.060639 -0.996970 0.048721
0.053063 0.534956 0.176655 -0.960945 -0.276032 0.019796
0.671443 0.435433 0.187971 -0.005859 0.928430 0.371462
0.250730 0.845316 0.283235 0.251653 -0.471529 0.845181
0.265256 0.392713 0.104328 -0.254754 0.142569 0.956438
0.736202 0.492630 0.278950 0.072637 -0.991627 0.106772
