0.231833 0.598011 0.615287 0.733734 0.082957 -0.674354
0.257678 0.400938 0.383316 -0.175596 -0.984307 0.017482
0.697649 0.440567 0.482294 0.828806 -0.191303 0.525817
0.068030 0.586044 0.362412 -0.802030 -0.261501 -0.536997
0.212321 0.567911 0.590034 0.694514 0.070866 -0.715981
0.473085 0.403869 0.615596 0.204650 -0.959739 0.192405
0.140615 0.492198 0.330184 -0.709862 -0.307153 -0.633840
0.364169 0.131452 0.308311 -0.511575 0.811639 -0.282018
0.317604 0.846042 0.146151 0.764490 0.208524 0.609978
0.463139 0.400938 0.428374 0.056489 -0.998401 -0.002062
0.633106 0.434307 0.258273 0.631570 -0.542559 -0.553849
0.597823 0.487131 0.223090 0.716824 -0.210664 -0.664668
0.304036 0.059301 0.646758 0.249748 0.681462 0.687921
0.192261 0.406748 0.319142 -0.515891 -0.825864 -0.227608
0.404629 0.403403 0.677750 0.129309 -0.963472 0.234524
0.610121 0.611344 0.224665 -0.698721 0.078120 0.711116
0.133066 0.953175 0.309291 0.246534 0.780279 0.574792
0.655418 0.477688 0.436413 0.176601 0.975613 0.130355
0.705316 0.410980 0.330483 0.423223 -0.884615 -0.195804
0.153708 0.045202 0.371976 0.008383 -0.942724 0.333468
0.573156 0.497486 0.209416 -0.658929 -0.000576 0.752205
0.256706 0.966784 0.136233 -0.498684 0.638310 -0.586408
0.433696 0.477703 0.657930 0.011284 0.987515 0.157119
0.136052 0.524120 0.411817 -0.698576 -0.167960 0.695544
0.276434 0.924008 0.097372 -0.650912 0.269157 -0.709836
0.645979 0.400938 0.340880 0.229545 -0.968263 -0.098875
0.054512 0.713732 0.333476 -0.844206 -0.113338 -0.523899
0.352260 0.139055 0.459140 -0.364813 0.858644 0.360058
0.178072 0.588341 0.559681 0.592122 0.047693 -0.804436
0.599238 0.087466 0.313772 0.507158 0.861245 0.032370
0.393088 0.076464 0.231810 -0.033210 -0.998541 0.042578
0.397746 0.436261 0.104442 -0.446919 -0.342686 -0.826335
0.408783 0.400938 0.345054 -0.022327 -0.998840 -0.042655
0.420536 0.402430 0.163936 -0.111936 -0.971072 -0.210925
0.448869 0.479922 0.612766 -0.006417 0.993932 0.109806
0.128860 0.916423 0.327927 0.606734 0.381974 0.697115
0.301504 0.900366 0.157331 0.768147 0.222284 0.600450
0.052610 0.674300 0.374279 -0.987034 -0.133863 -0.088565
0.625026 0.048979 0.602773 0.492828 0.838495 0.232477
0.400427 0.138284 0.475144 0.216444 0.732022 0.645984
0.340861 0.400938 0.512439 -0.054675 -0.995298 0.079953
0.396319 0.480852 0.380837 -0.001054 0.999844 -0.017627
0.473920 0.092349 0.503059 -0.025020 -0.984185 0.175371
0.454882 0.415330 0.725061 0.431338 -0.754897 0.494043
0.491335 0.648873 0.155543 -0.601807 0.754673 0.261338
0.143241 0.621468 0.486226 0.071996 -0.963438 -0.258078
0.338830 0.480852 0.340740 -0.021981 0.998606 -0.047992
0.194428 0.698357 0.197519 -0.713684 -0.151865 -0.683807
0.319862 0.532106 0.133776 -0.426908 -0.312987 -0.848404
0.505224 0.404185 0.587719 0.243269 -0.953999 0.175231
0.291788 0.533897 0.280772 0.667211 0.260139 0.697966
0.196137 0.827639 0.170641 -0.729541 0.081702 -0.679040
0.635362 0.026513 0.604410 0.529195 -0.675840 -0.513024
0.312541 0.070467 0.628169 0.109350 0.784676 0.610186
0.386716 0.480852 0.502357 -0.030570 0.998955 0.033963
0.436377 0.480852 0.199215 0.055816 0.994498 -0.088647
0.076319 0.787835 0.383711 -0.128748 0.442682 0.887388
0.360767 0.123169 0.281101 -0.342584 0.880550 -0.327518
0.461554 0.400938 0.210105 0.001633 -0.990208 -0.139590
0.259157 0.785843 0.110266 -0.659529 -0.004504 -0.751665
0.588098 0.642408 0.154345 0.593544 0.577621 -0.560410
0.456322 0.400938 0.159894 -0.015925 -0.985397 -0.169524
0.063331 0.832150 0.303775 -0.847990 0.104509 -0.519607
0.666379 0.419085 0.291545 0.476461 -0.807897 -0.346825
0.261012 0.714954 0.126662 -0.643070 -0.125657 -0.755428
0.486841 0.432214 0.116698 0.310747 -0.640775 -0.702028
0.276796 0.537501 0.174521 -0.521665 -0.304596 -0.796924
0.151266 0.426083 0.327591 -0.759217 -0.479609 -0.439960
0.202124 0.815662 0.264815 0.680553 0.225517 0.697129
0.122372 0.620220 0.560000 -0.498088 -0.766389 0.405655
0.285808 0.403828 0.275012 -0.289502 -0.944425 -0.155727
0.585504 0.494198 0.222391 -0.552526 -0.086800 0.828964
0.220148 0.834420 0.147124 -0.706570 0.093604 -0.701425
0.369203 0.067210 0.208038 -0.201017 -0.976855 0.073126
0.471319 0.403493 0.612282 0.190098 -0.964971 0.180812
0.600213 0.649507 0.166460 0.459011 0.816808 -0.349477
0.265099 0.653495 0.138398 -0.614059 -0.228006 -0.755609
0.155665 0.653431 0.519931 0.157285 0.964263 -0.213209
0.398800 0.065782 0.179960 0.590261 -0.762280 -0.265560
0.155586 0.643276 0.367313 0.601341 0.253547 0.757695
0.326290 0.759530 0.158269 0.751305 0.212747 0.624723
0.526442 0.480852 0.337853 0.074140 0.997222 -0.007212
0.357268 0.686530 0.150205 0.758914 0.234277 0.607589
0.462251 0.480852 0.536475 0.001297 0.997802 0.066252
0.200450 0.561280 0.240642 -0.663529 -0.280811 -0.693451
0.494677 0.474183 0.644513 0.099656 0.971981 0.212888
0.043918 0.711977 0.344522 -0.851781 -0.115195 -0.511077
0.094750 0.919195 0.278704 -0.848172 0.342159 -0.404389
0.235894 0.855590 0.132922 -0.692924 0.135737 -0.708118
0.215254 0.467200 0.271842 -0.474748 0.612711 -0.631822
0.229238 0.480852 0.467361 -0.102762 0.994576 -0.016104
0.420305 0.405687 0.109055 -0.252183 -0.900981 -0.353040
0.406350 0.348843 0.379717 0.125146 0.000000 -0.992138
0.390829 0.092832 0.199205 0.289340 0.806443 -0.515686
0.058094 0.640963 0.348732 -0.822596 -0.236675 -0.517031
0.591837 0.460468 0.586125 0.607135 0.307966 0.732491
0.674060 0.653431 0.290212 0.123339 0.987426 0.098882
0.098757 0.617096 0.408674 -0.600202 -0.031392 0.799232
0.539765 0.084526 0.564229 0.093232 0.805784 0.584825
0.269868 0.480384 0.331941 -0.063576 0.995188 -0.074564
0.584047 0.627354 0.248254 -0.482369 -0.698356 0.528791
0.241105 0.480852 0.420136 -0.087313 0.995589 -0.034337
0.204150 0.404267 0.349230 -0.382275 -0.917750 -0.107706
0.334781 0.566827 0.222828 0.711676 0.255483 0.654405
0.161986 0.809324 0.203456 -0.759121 0.046785 -0.649266
0.494362 0.480852 0.443705 0.036468 0.998808 0.032459
0.286201 0.069611 0.616061 -0.360645 0.848710 0.386817
0.400213 0.106588 0.320047 -0.010553 -0.999304 -0.035784
0.218792 0.622378 0.659739 -0.232840 -0.909700 0.343847
0.365405 0.717422 0.045929 -0.150887 -0.054586 -0.987043
0.137559 0.404908 0.404981 -0.484111 -0.869642 -0.096743
0.269033 0.842447 0.195047 0.733022 0.217630 0.644450
0.605864 0.402472 0.463938 0.267350 -0.963230 0.026686
0.551099 0.416336 0.628844 0.550209 -0.717024 0.427957
0.562350 0.472686 0.597069 0.181963 0.944337 0.274074
0.086695 0.915563 0.300197 -0.876203 0.448769 -0.175710
0.338673 0.480852 0.471749 -0.048656 0.998767 0.009871
0.337104 0.794377 0.136517 0.764242 0.201118 0.612769
0.174050 0.531255 0.554755 -0.851122 -0.478485 0.215970
0.369565 0.832615 0.074969 0.854934 0.314490 -0.412533
0.306993 0.049702 0.614050 0.347714 -0.919923 0.181210
0.637642 0.620220 0.245878 0.212088 -0.970102 -0.117982
0.070229 0.812717 0.295460 -0.837847 0.060622 -0.542529
0.219705 0.564662 0.596798 0.714403 0.075650 -0.695633
0.235745 0.815155 0.231353 0.703573 0.219319 0.675933
0.566423 0.098562 0.308839 0.411054 0.891625 -0.189841
0.512354 0.477787 0.578134 0.066425 0.988111 0.138652
0.634854 0.042340 0.592450 0.862159 0.448895 -0.234894
0.321103 0.112663 0.410918 -0.339217 -0.905206 0.255997
0.270007 0.961717 0.106548 -0.652216 0.341848 -0.676575
0.309070 0.452710 0.683903 -0.562431 -0.143897 0.814227
0.317835 0.400938 0.394330 -0.108513 -0.994042 0.010284
0.218839 0.753004 0.267769 0.676584 0.227693 0.700278
0.115830 0.716848 0.382127 0.591705 0.247800 0.767124
0.405750 0.480852 0.355704 0.008823 0.999606 -0.026657
0.165308 0.777374 0.206295 -0.754958 -0.011649 -0.655670
0.696627 0.458571 0.321794 0.885435 0.045198 -0.462561
0.237896 0.095068 0.394684 -0.492536 0.148781 0.857480
0.406810 0.474962 0.116794 -0.005809 0.962352 -0.271744
0.329462 0.474664 0.175534 -0.111054 0.965289 -0.236399
0.390660 0.080666 0.244654 -0.120214 -0.991198 0.055461
0.487968 0.480852 0.407220 0.040526 0.999069 0.014799
0.396608 0.717526 0.090997 0.981994 0.113719 0.150850
0.115466 0.899484 0.256551 -0.825043 0.271679 -0.495474
0.198464 0.527847 0.376844 0.584430 0.260395 0.768529
0.402429 0.400938 0.576090 0.026782 -0.994029 0.105781
0.058751 0.674085 0.339445 -0.832640 -0.182154 -0.523002
0.436585 0.127436 0.347747 0.205809 -0.881302 -0.425381
0.652320 0.633852 0.316527 -0.378373 -0.545805 0.747617
0.263939 0.626536 0.149091 -0.606167 -0.253877 -0.753729
0.242314 0.812706 0.225553 0.707425 0.218284 0.672237
0.323544 0.458781 0.698377 -0.558611 -0.021825 0.829143
0.468848 0.138456 0.446693 0.317710 0.914655 0.249935
0.211461 0.494524 0.258338 -0.592076 -0.324431 -0.737693
0.548798 0.061900 0.538945 -0.033903 -0.999270 -0.017585
0.204568 0.451821 0.274289 -0.741188 0.015674 -0.671115
0.529061 0.480852 0.509608 0.040979 0.996737 0.069543
0.587199 0.401450 0.468788 0.215927 -0.976375 0.008206
0.282894 0.614022 0.253286 0.686155 0.251925 0.682441
0.384869 0.480852 0.370216 -0.004689 0.999680 -0.024845
0.505005 0.400938 0.478019 0.113858 -0.993293 0.020148
0.216616 0.594958 0.209993 -0.653848 -0.267020 -0.707943
0.398270 0.155392 0.370221 -0.137156 0.964284 -0.226593
0.327808 0.082006 0.604434 0.130714 0.783488 0.607503
0.454850 0.148860 0.423880 0.355894 0.916721 0.181557
0.415279 0.483767 0.172286 0.918788 0.181217 0.350698
0.253250 0.400938 0.444528 -0.165330 -0.984560 0.057504
0.149120 0.781180 0.221504 -0.770187 -0.003558 -0.637809
0.322649 0.480852 0.461813 -0.054734 0.998499 0.001954
0.423959 0.480852 0.383754 0.012352 0.999871 -0.010232
0.226563 0.906791 0.231691 0.722463 0.238669 0.648911
0.380124 0.476432 0.708360 -0.093283 0.957575 0.272671
0.165540 0.400938 0.508961 -0.240655 -0.963449 0.117690
0.334650 0.765993 0.039884 -0.568249 -0.041754 -0.821797
0.514780 0.081180 0.541018 0.114519 -0.236252 0.964920
0.145848 0.917706 0.227497 -0.796516 0.305274 -0.521891
0.125735 0.877660 0.335156 0.626207 0.302958 0.718388
0.033703 0.758278 0.342816 -0.863840 -0.033714 -0.502636
0.488112 0.480852 0.310979 0.059875 0.997817 -0.027864
0.375004 0.404289 0.178012 -0.232813 -0.938479 -0.255058
0.337518 0.663421 0.177207 0.741931 0.243033 0.624878
0.324322 0.419702 0.699155 -0.225685 -0.851760 0.472833
0.105957 0.495633 0.363364 -0.745661 -0.303159 -0.593366
0.614895 0.045322 0.571650 0.757351 -0.316930 -0.570942
0.083633 0.868316 0.286111 -0.847467 0.199533 -0.491921
0.577814 0.069773 0.330655 0.004269 -0.996881 0.078808
0.417733 0.323221 0.419577 0.292109 0.000000 0.956385
0.564423 0.081871 0.547832 0.338553 0.885610 0.317925
0.170731 0.653431 0.610284 -0.402514 0.882562 0.243036
0.355830 0.056837 0.113682 0.082374 0.858102 -0.506829
0.232733 0.584124 0.613538 0.752844 0.063614 -0.655118
0.148374 0.723191 0.237179 -0.766388 -0.106187 -0.633541
0.570298 0.401566 0.487258 0.206170 -0.978146 0.026931
0.623028 0.401720 0.436617 0.254482 -0.966978 -0.013837
0.248650 0.400938 0.485639 -0.160020 -0.983479 0.084629
0.703773 0.631873 0.270019 0.838716 -0.186479 -0.511645
0.494628 0.480852 0.365873 0.052244 0.998632 -0.002041
0.232033 0.465459 0.606866 -0.736093 0.132922 0.663700
0.640640 0.404891 0.461836 0.387871 -0.917576 0.087237
0.262439 0.935699 0.193197 0.752711 0.237819 0.613896
0.536452 0.400938 0.422344 0.134153 -0.990699 -0.022773
0.669586 0.400938 0.360232 0.258438 -0.961669 -0.091663
0.471193 0.401944 0.121507 -0.047893 -0.971781 -0.230974
0.291871 0.091241 0.351351 0.027877 -0.980783 -0.193102
0.265948 0.816694 0.200668 0.724106 0.213386 0.655848
0.258476 0.696621 0.245830 0.693110 0.236735 0.680849
0.465109 0.113813 0.394913 0.084923 -0.995794 0.034373
0.045542 0.772810 0.327236 -0.855738 -0.009512 -0.517322
0.720380 0.445965 0.398380 0.988362 -0.151577 -0.012812
0.493285 0.115454 0.505407 0.163151 0.862683 0.478706
0.210875 0.498415 0.588305 -0.702519 -0.239847 0.670030
0.337108 0.480852 0.628889 -0.080906 0.993623 0.078537
0.646310 0.400938 0.278523 0.214226 -0.966991 -0.137970
0.526196 0.468588 0.151362 0.615230 0.155815 -0.772796
0.190746 0.480371 0.410833 -0.119371 0.991203 -0.057160
0.548247 0.480852 0.460254 0.060749 0.996796 0.052039
0.652471 0.632698 0.316678 -0.323717 -0.663892 0.674133
0.583603 0.620220 0.243296 -0.249932 -0.919208 0.304288
0.261539 0.777067 0.217515 0.711830 0.217685 0.667766
0.521573 0.405765 0.592713 0.311068 -0.925724 0.215109
0.250264 0.620220 0.658636 0.085334 -0.995477 0.041768
0.212657 0.400938 0.414848 -0.215301 -0.975367 0.048015
0.204905 0.562049 0.581500 0.677011 0.066111 -0.732997
0.469754 0.144602 0.375341 0.387030 0.918408 -0.082062
0.395222 0.149559 0.341798 -0.134012 0.910905 -0.390248
0.279761 0.405481 0.253074 -0.365375 -0.903823 -0.222722
0.097871 0.509900 0.365315 -0.756936 -0.296572 -0.582317
0.142731 0.851454 0.320533 0.648801 0.242843 0.721169
0.248576 0.451954 0.230281 -0.678641 0.028391 -0.733922
0.492076 0.480852 0.160866 0.091447 0.991468 -0.092889
0.109388 0.028925 0.350937 0.075622 -0.992647 0.094519
0.247766 0.945265 0.207004 0.736802 0.272212 0.618889
0.599180 0.478148 0.486426 0.123512 0.985949 0.112471
0.538364 0.078383 0.298126 -0.146848 -0.899184 -0.412194
0.087099 0.818007 0.378264 0.569808 0.260357 0.779444
0.428937 0.224737 0.373665 0.478051 0.000000 -0.878332
0.062076 0.798531 0.377803 -0.604358 0.404570 0.686349
0.410111 0.104872 0.243650 0.554960 0.566964 -0.608746
0.568396 0.499880 0.204199 -0.698479 0.036145 0.714718
0.426886 0.400938 0.446298 0.021699 -0.999608 0.017704
0.108520 0.683066 0.287364 -0.794358 -0.172482 -0.582448
0.427569 0.427009 0.108545 -0.321439 -0.624327 -0.711964
0.241931 0.530945 0.212206 -0.580364 -0.303353 -0.755747
0.605385 0.440391 0.230551 0.639180 -0.408647 -0.651503
0.116196 0.504035 0.386052 -0.936264 -0.331044 -0.117555
0.213514 0.792430 0.260718 0.682714 0.225377 0.695059
0.062181 0.848559 0.339890 -0.902097 0.416117 0.114314
0.345609 0.430564 0.133248 -0.551064 -0.456163 -0.698744
0.285504 0.628485 0.126688 -0.580384 -0.252725 -0.774135
0.586418 0.431293 0.593525 0.697704 -0.450464 0.557039
0.246249 0.480852 0.368305 -0.074229 0.995664 -0.056068
0.216866 0.423668 0.261991 -0.681741 -0.557942 -0.473212
0.152300 0.620220 0.562629 -0.270909 -0.942449 0.195956
0.382323 0.067777 0.137208 0.473096 0.702645 -0.531479
0.527094 0.402045 0.152261 0.067090 -0.976831 -0.203227
0.359188 0.784944 0.043060 -0.014582 0.132593 -0.991063
0.177688 0.400938 0.507634 -0.228580 -0.966796 0.114262
0.112278 0.949461 0.299844 -0.549318 0.821838 0.151098
0.504756 0.475010 0.623257 0.096395 0.976110 0.194724
0.126820 0.753117 0.251029 -0.789307 -0.051291 -0.611853
0.110965 0.585552 0.409335 -0.643848 -0.080687 0.760887
0.491258 0.400938 0.467269 0.096398 -0.995207 0.016415
0.605615 0.407491 0.531992 0.452711 -0.865171 0.215711
0.270982 0.764718 0.211949 0.715211 0.216940 0.664387
0.484162 0.453005 0.695781 0.511712 0.107334 0.852426
0.134616 0.678617 0.375342 0.595468 0.247730 0.764230
0.526599 0.653431 0.126363 0.034926 0.985997 -0.163062
0.353338 0.074063 0.221699 -0.285864 -0.958073 0.019449
0.189167 0.463341 0.564000 -0.805211 0.111920 0.582331
0.398970 0.704303 0.089645 0.997275 0.071611 -0.017711
0.310267 0.401992 0.281630 -0.186763 -0.977769 -0.095330
0.333921 0.632163 0.076690 -0.520964 -0.249491 -0.816303
0.203942 0.573649 0.231831 -0.662790 -0.275725 -0.696193
0.164626 0.642585 0.358587 0.608188 0.253447 0.752244
0.317873 0.671275 0.194387 0.730137 0.241725 0.639116
0.334062 0.802820 0.030990 -0.577156 0.018694 -0.816420
0.476452 0.622375 0.140660 -0.647119 -0.597518 0.473507
0.497486 0.480852 0.332726 0.060340 0.998048 -0.016092
0.414300 0.400938 0.200990 -0.051026 -0.989541 -0.134929
0.359429 0.460599 0.715022 -0.372157 0.068978 0.925603
0.432839 0.480852 0.504947 -0.007468 0.998932 0.045592
0.443837 0.480852 0.251998 0.049007 0.996750 -0.063928
0.500062 0.400938 0.367880 0.081541 -0.995451 -0.049268
0.503323 0.620220 0.113756 -0.284720 -0.954383 0.089931
0.305684 0.480852 0.488687 -0.068710 0.997586 0.010086
0.459980 0.137608 0.336342 0.134224 0.772348 -0.620856
0.591531 0.573740 0.213247 -0.716188 0.071219 0.694264
0.495008 0.105616 0.319264 -0.028985 -0.622725 -0.781904
0.517734 0.400938 0.394589 0.107189 -0.993577 -0.036258
0.314487 0.099231 0.356198 0.012503 -0.991183 -0.131906
0.304411 0.414938 0.679244 -0.199060 -0.900608 0.386369
0.269907 0.974341 0.155774 0.279519 0.929536 -0.240484
0.500851 0.475890 0.615273 0.082467 0.980486 0.178456
0.296336 0.400938 0.382577 -0.134505 -0.990882 0.007872
0.332550 0.113844 0.478955 -0.840861 0.296117 0.453065
0.378855 0.117013 0.433672 -0.122216 -0.990415 0.064359
0.229306 0.400938 0.495717 -0.177927 -0.979409 0.095391
0.358029 0.400938 0.331798 -0.080323 -0.995997 -0.039217
0.646154 0.633247 0.310361 -0.394913 -0.573187 0.717983
0.199518 0.878851 0.261266 0.696675 0.238270 0.676662
0.133481 0.480852 0.476366 -0.151934 0.987841 -0.032950
0.481290 0.400938 0.390633 0.066869 -0.997298 -0.030404
0.436175 0.140212 0.347947 0.297407 0.546610 -0.782794
0.253399 0.400938 0.628232 -0.119157 -0.977801 0.172358
0.524239 0.480852 0.188839 0.102365 0.992038 -0.073367
0.233470 0.554130 0.619145 -0.419942 -0.317651 0.850145
0.478448 0.402189 0.587523 0.150816 -0.980119 0.128925
0.340242 0.400938 0.303098 -0.106441 -0.992889 -0.053317
0.087626 0.555637 0.355892 -0.777593 -0.276441 -0.564739
0.276222 0.400938 0.384267 -0.155626 -0.987721 0.013714
0.587632 0.072118 0.558884 0.481882 0.855737 0.188423
0.345211 0.480852 0.512742 -0.053630 0.998128 0.029403
0.632999 0.466419 0.258166 0.791431 0.162242 -0.589334
0.142640 0.633494 0.267398 -0.743606 -0.247425 -0.621153
0.557019 0.653431 0.140723 0.204940 0.953545 -0.220796
0.624361 0.480852 0.295659 0.132204 0.991216 -0.003588
0.713026 0.446732 0.344921 0.906325 -0.196060 -0.374347
0.366545 0.089064 0.193440 -0.084929 0.889857 -0.448264
0.705368 0.407307 0.429762 0.545761 -0.825767 0.142315
0.594181 0.653431 0.209168 0.010299 0.999937 0.004376
0.351927 0.400938 0.473859 -0.052236 -0.997234 0.052883
0.599464 0.434271 0.580479 0.725953 -0.381763 0.572057
0.382419 0.145035 0.459223 -0.126116 0.875028 0.467354
0.680700 0.026136 0.248649 -0.284446 -0.863540 -0.416400
0.343835 0.400938 0.688331 -0.008715 -0.982193 0.187671
0.227861 0.729022 0.156191 -0.686162 -0.101253 -0.720368
0.290149 0.480852 0.467631 -0.072284 0.997381 -0.002627
0.309006 0.400938 0.380056 -0.121503 -0.992586 0.003254
0.460399 0.133050 0.478529 0.149935 0.859505 0.488641
0.398778 0.400938 0.317798 -0.039707 -0.997545 -0.057682
0.340394 0.400938 0.617718 -0.029397 -0.988895 0.145676
0.205718 0.892430 0.165785 -0.723526 0.213262 -0.656528
0.476811 0.405922 0.639596 0.277737 -0.924899 0.259660
0.187474 0.646951 0.333756 0.627972 0.252678 0.736074
0.531984 0.480852 0.503628 0.043682 0.996759 0.067561
0.615111 0.400938 0.246569 0.173737 -0.973095 -0.151333
0.353787 0.400950 0.695442 0.003821 -0.981705 0.190370
0.309534 0.072205 0.541876 -0.086256 -0.995342 -0.043056
0.412038 0.152339 0.346249 0.025337 0.898300 -0.438652
0.274582 0.550015 0.171354 -0.542257 -0.295270 -0.786621
0.090945 0.913057 0.308491 -0.842600 0.536527 0.046516
0.337694 0.400938 0.318693 -0.105443 -0.993505 -0.042771
0.131524 0.645431 0.274050 -0.758329 -0.236785 -0.607347
0.620335 0.560642 0.231557 0.792249 -0.219154 -0.569485
0.593033 0.400938 0.240369 0.149002 -0.977318 -0.150492
0.411332 0.575874 0.140707 0.806573 0.238882 0.540718
0.411613 0.096344 0.252108 0.684814 -0.465282 -0.560841
0.403040 0.078540 0.203835 0.768925 -0.361253 -0.527494
0.333451 0.585926 0.097043 -0.473114 -0.278026 -0.835981
0.404642 0.304502 0.380175 -0.138030 0.000000 -0.990428
0.279338 0.480852 0.512419 -0.086721 0.996123 0.014750
0.113310 0.029336 0.334245 0.109199 -0.958141 -0.264652
0.475427 0.400938 0.426478 0.069317 -0.997576 -0.006103
0.269805 0.916334 0.103441 -0.658338 0.254845 -0.708269
0.157400 0.653431 0.512951 0.223969 0.940001 -0.257362
0.097856 0.043398 0.364325 -0.554711 0.832025 0.005429
0.495769 0.400938 0.538381 0.118422 -0.991094 0.060895
0.338822 0.677530 0.058488 -0.532793 -0.187377 -0.825240
0.495414 0.480852 0.187159 0.088034 0.992845 -0.080675
0.427235 0.480852 0.303957 0.030166 0.998543 -0.044752
0.186239 0.814147 0.179555 -0.736894 0.054716 -0.673790
0.413015 0.480852 0.369209 0.009755 0.999770 -0.019088
0.336065 0.400938 0.551251 -0.050283 -0.993148 0.105495
0.552752 0.400938 0.184553 0.092335 -0.980039 -0.176063
0.682000 0.475200 0.443446 0.242072 0.945457 0.217972
0.326334 0.681705 0.182653 0.737734 0.237858 0.631800
0.281408 0.551493 0.283163 0.660793 0.257362 0.705065
0.575310 0.507498 0.196685 0.590504 -0.288972 -0.753525
0.369204 0.114963 0.530732 0.183747 0.769055 0.612202
0.517168 0.406777 0.610794 0.340592 -0.905553 0.252926
0.186526 0.537145 0.264944 -0.672799 -0.290461 -0.680422
0.296588 0.419039 0.182269 -0.564598 -0.665752 -0.487856
0.415827 0.371340 0.426690 -0.142919 0.000000 0.989734
0.195885 0.568594 0.242062 -0.670540 -0.277645 -0.687961
0.510783 0.102661 0.311573 -0.074287 -0.233799 -0.969443
0.379797 0.598842 0.074383 0.010851 -0.275121 -0.961349
0.502060 0.477682 0.589844 0.060416 0.987884 0.142952
0.397673 0.480852 0.259666 0.024192 0.997201 -0.070744
0.405229 0.629111 0.090812 0.806924 -0.099541 -0.582207
0.236275 0.475437 0.281807 -0.175816 0.957970 -0.226676
0.501754 0.108014 0.523682 0.117505 0.835760 0.536374
0.433300 0.475902 0.682662 0.034110 0.980672 0.192665
0.376353 0.480852 0.415337 -0.018167 0.999812 -0.006769
0.384263 0.400938 0.656028 0.026463 -0.986816 0.159668
0.234899 0.637290 0.290717 0.660147 0.251991 0.707606
0.219605 0.400938 0.434905 -0.203155 -0.977359 0.059143
0.377018 0.327073 0.387577 -0.872140 0.000000 -0.489257
0.312719 0.926910 0.102911 0.278975 0.802380 -0.527598
0.255809 0.794869 0.111290 -0.663256 0.011613 -0.748303
0.170498 0.965418 0.278026 0.617805 0.555890 0.556150
0.422393 0.480852 0.330494 0.022350 0.999168 -0.034119
0.121861 0.413435 0.356997 -0.696103 -0.647991 -0.309111
0.489626 0.477507 0.604650 0.053784 0.987358 0.149103
0.414252 0.480852 0.585319 -0.033100 0.996494 0.076839
0.084786 0.639849 0.403494 -0.660879 -0.025701 0.750052
0.411580 0.391925 0.378316 0.637660 0.000000 -0.770318
0.141231 0.968841 0.300153 0.271044 0.782907 0.559993
0.238411 0.967903 0.159376 -0.487888 0.734895 -0.471058
0.390289 0.603802 0.084071 0.424151 -0.223322 -0.877624
0.042387 0.693803 0.362965 -0.924580 -0.128179 -0.358777
0.419149 0.361987 0.414292 0.281334 0.000000 0.959610
0.239553 0.580515 0.311842 0.639760 0.256084 0.724657
0.156594 0.069877 0.364781 -0.477091 0.875509 -0.076602
0.568097 0.620220 0.158318 0.058627 -0.989090 -0.135145
0.515614 0.634986 0.094122 0.140248 -0.573223 -0.807308
0.198060 0.401046 0.409845 -0.236104 -0.970696 0.044768
0.387347 0.190467 0.384809 -0.982153 0.000000 -0.188085
0.282657 0.466260 0.203217 -0.412199 0.564660 -0.715018
0.118397 0.737306 0.373138 0.599205 0.245890 0.761900
0.376329 0.121910 0.274875 -0.170789 0.902064 -0.396374
0.315808 0.752635 0.170915 0.743173 0.215628 0.633402
0.406738 0.097029 0.224655 0.605772 0.516061 -0.605576
0.375449 0.480852 0.362367 -0.007860 0.999507 -0.030389
0.358461 0.450934 0.120395 -0.505797 0.029666 -0.862142
0.264453 0.844807 0.199413 0.730681 0.219000 0.646641
0.103144 0.705517 0.398369 0.578984 0.250542 0.775890
0.315147 0.526994 0.140689 -0.429503 -0.316056 -0.845952
0.621059 0.480852 0.373269 0.115218 0.992888 0.029961
0.204989 0.480852 0.489786 -0.119327 0.992788 -0.011528
0.140574 0.964860 0.244026 -0.765919 0.554255 -0.325836
0.149648 0.628030 0.590594 -0.666392 -0.471883 0.577277
0.115459 0.615853 0.302164 -0.766053 -0.253092 -0.590853
0.298551 0.478047 0.263703 -0.078111 0.987587 -0.136271
0.433293 0.480852 0.563314 -0.018946 0.997261 0.071496
0.405137 0.503855 0.181064 0.759177 0.263864 0.595001
0.195070 0.692210 0.310621 0.644997 0.240544 0.725339
0.278152 0.057319 0.645802 -0.235561 0.848065 0.474653
0.289830 0.074279 0.605082 -0.395006 0.845683 0.358873
0.449276 0.116840 0.413686 0.067965 -0.996678 0.044878
0.175908 0.890658 0.195466 -0.751473 0.211884 -0.624815
0.065831 0.664390 0.388163 -0.909964 -0.072720 0.408262
0.340277 0.891520 0.113023 0.904907 0.277693 0.322536
0.123770 0.409829 0.355088 -0.665602 -0.691585 -0.280506
0.580773 0.653431 0.195476 -0.007577 0.999902 -0.011750
0.130026 0.405700 0.399111 -0.530087 -0.837515 -0.132574
0.381280 0.328137 0.392663 -0.959908 0.000000 -0.280316
0.186239 0.400938 0.469008 -0.229394 -0.969331 0.088184
0.561174 0.469171 0.605703 0.291067 0.832954 0.470603
0.323709 0.400938 0.369523 -0.108229 -0.994102 -0.006973
0.180272 0.930627 0.194016 -0.759451 0.319271 -0.566834
0.414560 0.477621 0.140489 -0.002333 0.985140 -0.171739
0.069837 0.724855 0.389265 -0.674802 0.184039 0.714683
0.254560 0.785113 0.115050 -0.664446 -0.005407 -0.747317
0.618993 0.478468 0.462288 0.133401 0.985823 0.101775
0.082667 0.605407 0.390151 -0.946711 -0.200959 0.251700
0.216551 0.480852 0.444985 -0.104594 0.994100 -0.028735
0.468929 0.480852 0.270456 0.058108 0.997050 -0.050148
0.556751 0.423179 0.623192 0.611334 -0.614740 0.498364
0.133124 0.676609 0.264422 -0.769348 -0.185255 -0.611379
0.337247 0.515058 0.123721 -0.366217 -0.324751 -0.872022
0.381264 0.475544 0.138630 -0.056616 0.975426 -0.212928
0.146702 0.653431 0.559633 -0.253703 0.964501 0.073300
0.100447 0.588933 0.328753 -0.773772 -0.263423 -0.576095
0.537583 0.094343 0.531501 0.225493 0.885873 0.405441
0.649323 0.406854 0.479677 0.473884 -0.865636 0.161578
0.368039 0.401777 0.227492 -0.128078 -0.982339 -0.136406
0.160760 0.653431 0.506042 0.299326 0.904270 -0.304466
0.589318 0.620220 0.210538 -0.028291 -0.998876 0.038026
0.287283 0.400938 0.550034 -0.102816 -0.987885 0.116244
0.264777 0.810847 0.100776 -0.655469 0.041082 -0.754104
0.099838 0.047189 0.365718 -0.493101 0.869491 -0.028939
0.375829 0.510127 0.207524 0.736678 0.263615 0.622746
0.367802 0.480852 0.583995 -0.056545 0.996237 0.065687
0.275059 0.758357 0.101440 -0.639107 -0.053189 -0.767277
0.222117 0.803037 0.142879 -0.698561 0.028818 -0.714970
0.694051 0.640006 0.260298 0.821996 0.361579 -0.439981
0.124119 0.465596 0.360892 -0.678277 0.489723 -0.547824
0.400959 0.179399 0.412342 -0.027307 0.000000 0.999627
0.166379 0.441454 0.541213 -0.771937 -0.361493 0.522911
0.460373 0.402157 0.128725 -0.066132 -0.970528 -0.231737
0.192616 0.477212 0.555269 -0.414186 0.893482 0.173610
0.167898 0.862990 0.201458 -0.759450 0.156541 -0.631452
0.136717 0.881717 0.323806 0.637269 0.297034 0.711097
0.478117 0.480852 0.479634 0.020887 0.998782 0.044701
0.363190 0.110516 0.300484 -0.533746 -0.803807 -0.262697
0.348456 0.480625 0.257433 -0.004356 0.996265 -0.086241
0.531994 0.653431 0.167433 -0.252520 0.965375 0.065456
0.305981 0.749543 0.072788 -0.599218 -0.068478 -0.797652
0.316259 0.610427 0.221554 0.708650 0.250608 0.659554
0.399212 0.401086 0.208006 -0.071390 -0.988647 -0.132217
0.285216 0.653431 0.674646 0.151881 0.985449 0.076298
0.400566 0.114290 0.474897 0.144380 -0.929844 0.338444
0.433984 0.480852 0.438906 0.006408 0.999842 0.016552
0.531219 0.480852 0.380381 0.068085 0.997598 0.012740
0.354789 0.523680 0.222410 0.721384 0.261859 0.641120
0.115435 0.490310 0.356176 -0.735093 -0.306087 -0.604937
0.391877 0.400938 0.574346 0.015040 -0.994150 0.106959
0.542567 0.400938 0.309902 0.112869 -0.988979 -0.095818
0.283834 0.400938 0.365339 -0.152082 -0.988368 -0.000177
0.325899 0.474442 0.692470 -0.444519 0.690339 0.570819
0.062470 0.788719 0.378681 -0.629802 0.376302 0.679519
0.407153 0.659294 0.094326 0.993748 0.068953 -0.087814
0.043966 0.766954 0.330320 -0.856801 -0.019558 -0.515275
0.128524 0.477393 0.422667 -0.228555 0.958334 -0.171344
0.355706 0.400938 0.522023 -0.036371 -0.995933 0.082436
0.232444 0.799665 0.133420 -0.687926 0.022019 -0.725447
0.088748 0.930648 0.286729 -0.854460 0.386921 -0.346684
0.308391 0.692634 0.085030 -0.577097 -0.163114 -0.800221
0.079647 0.666037 0.402081 -0.623767 0.026774 0.781152
0.451096 0.400938 0.443260 0.047101 -0.998838 0.010234
0.184054 0.502545 0.553648 0.339175 -0.251761 -0.906409
0.564307 0.407485 0.573224 0.409126 -0.879844 0.241848
0.464124 0.480852 0.458484 0.017958 0.999322 0.032126
0.371947 0.126301 0.505633 -0.041336 0.862090 0.505067
0.566889 0.480852 0.341707 0.094012 0.995564 0.003710
0.332756 0.438079 0.146100 -0.581127 -0.282306 -0.763279
0.171427 0.559304 0.548687 0.535182 -0.000236 -0.844737
0.283833 0.788471 0.191642 0.729261 0.212362 0.650447
0.426727 0.464828 0.109033 0.010190 0.265989 -0.963922
0.574604 0.630203 0.238812 -0.625363 -0.466200 0.625762
0.674201 0.050841 0.258316 0.458181 0.860681 -0.222033
0.219931 0.581718 0.330916 0.625088 0.256496 0.737207
0.426341 0.370365 0.387452 0.999205 0.000000 0.039869
0.588906 0.653431 0.236955 -0.261564 0.944841 0.197127
0.259345 0.672360 0.139296 -0.629116 -0.196850 -0.751973
0.241003 0.800000 0.124775 -0.678958 0.021873 -0.733851
0.235704 0.480852 0.392674 -0.084458 0.995288 -0.047622
0.401014 0.122060 0.474098 0.272798 -0.628609 0.728308
0.492388 0.400938 0.130732 0.015222 -0.980716 -0.194843
0.355094 0.861444 0.086623 0.812299 0.431114 -0.392823
0.481264 0.480852 0.366016 0.045358 0.998958 -0.005027
0.620682 0.620366 0.233505 -0.678106 0.083630 0.730191
0.181975 0.461340 0.297498 -0.709623 0.223470 -0.668204
0.619432 0.572353 0.238814 -0.441607 -0.112171 0.890169
0.369845 0.480852 0.277640 0.006506 0.997597 -0.068971
0.553009 0.475707 0.565585 0.122727 0.977203 0.173241
0.652390 0.653431 0.301144 -0.174152 0.948456 0.264769
0.593621 0.053713 0.549480 0.638378 -0.546084 -0.542463
0.248745 0.653431 0.684576 -0.267834 0.915776 0.299364
0.278334 0.071422 0.606665 -0.477605 0.822549 0.308718
0.289718 0.753712 0.196668 0.725643 0.216800 0.653024
0.426515 0.318148 0.386803 0.995719 0.000000 -0.092437
0.396527 0.067213 0.167163 0.827599 -0.152393 -0.540237
0.439329 0.479324 0.144541 0.040452 0.989774 -0.136789
0.277790 0.400938 0.491306 -0.127598 -0.988473 0.081480
0.156152 0.664428 0.244530 -0.741568 -0.206931 -0.638166
0.676019 0.401791 0.384580 0.298381 -0.952741 -0.057034
0.402866 0.538453 0.167626 0.762985 0.258621 0.592426
0.422457 0.480852 0.300248 0.028504 0.998467 -0.047440
0.296162 0.401512 0.303855 -0.177063 -0.982278 -0.061471
0.191784 0.083957 0.364382 -0.466814 0.878421 -0.102284
0.029882 0.791571 0.338066 -0.866409 0.024186 -0.498749
0.455386 0.400938 0.210320 -0.004876 -0.990402 -0.138132
0.417933 0.436572 0.723069 0.402817 -0.325163 0.855574
0.238359 0.760203 0.245989 0.691971 0.223506 0.686456
0.388698 0.400938 0.509371 -0.004058 -0.997778 0.066509
0.479987 0.480852 0.265672 0.064719 0.996663 -0.049736
0.324766 0.118324 0.501674 -0.441081 0.838006 0.321238
0.448301 0.402759 0.130604 -0.102450 -0.963094 -0.248906
0.583222 0.400938 0.441019 0.188586 -0.981822 -0.021484
0.225521 0.506895 0.591596 0.829493 -0.076801 -0.553212
0.324957 0.400938 0.665106 -0.034261 -0.983392 0.178229
0.364327 0.759456 0.120255 0.775646 0.210215 0.595133
0.597139 0.055079 0.609232 0.130224 0.827495 0.546163
0.190247 0.640202 0.631194 -0.658496 0.446603 0.605746
0.342582 0.795230 0.027181 -0.538718 0.015390 -0.842346
0.372416 0.044403 0.139885 0.012039 -0.997194 0.073892
0.562984 0.480852 0.272229 0.105759 0.994000 -0.027898
0.413522 0.118635 0.355604 0.050646 -0.996899 -0.060235
0.423407 0.305633 0.398399 0.964177 0.000000 0.265261
0.119545 0.404475 0.430324 -0.480312 -0.874900 -0.062052
0.716137 0.469607 0.408678 0.577581 0.723680 0.377740
0.353083 0.093452 0.219653 -0.571526 0.738979 -0.356748
0.369112 0.406952 0.138840 -0.347860 -0.865078 -0.361432
0.400113 0.615724 0.090375 0.710411 -0.144830 -0.688724
0.650141 0.400938 0.367235 0.240340 -0.967121 -0.083152
0.256328 0.478215 0.308768 -0.105383 0.986819 -0.122809
0.324241 0.116796 0.505644 -0.434058 0.839946 0.325706
0.371245 0.821774 0.064032 0.714237 0.336277 -0.613827
0.304310 0.452646 0.679143 -0.568431 -0.144175 0.810000
0.337944 0.400938 0.307595 -0.107840 -0.992915 -0.049907
0.522878 0.400938 0.181081 0.059776 -0.983372 -0.171481
0.256230 0.480852 0.520603 -0.099932 0.994906 0.013270
0.312556 0.838832 0.055037 -0.608721 0.093678 -0.787835
0.189219 0.653431 0.545599 0.265250 0.938118 -0.222657
0.208735 0.403115 0.364155 -0.321242 -0.945416 -0.054701
0.173884 0.886405 0.286215 0.675837 0.260945 0.689313
0.350810 0.718483 0.035956 -0.533163 -0.120071 -0.837448
0.271443 0.400938 0.497130 -0.132924 -0.987332 0.086639
0.194637 0.835644 0.270058 0.681026 0.230406 0.695066
0.389481 0.400938 0.400840 -0.029577 -0.999559 -0.002563
0.482655 0.126665 0.475162 0.252289 0.900335 0.354609
0.597034 0.064836 0.553037 0.812488 0.544051 -0.209456
0.381761 0.095173 0.506746 0.179068 -0.962846 0.202143
0.220899 0.085917 0.340178 -0.365530 0.370915 -0.853704
0.370639 0.480852 0.541684 -0.046625 0.997771 0.047745
0.211826 0.633310 0.554812 0.701941 -0.181821 -0.688636
0.574590 0.479463 0.493250 0.089240 0.991764 0.091869
0.623244 0.454434 0.248411 0.768592 -0.070366 -0.635857
0.295793 0.400938 0.547745 -0.094292 -0.989130 0.112827
0.550142 0.475238 0.184697 0.493622 0.772728 -0.399036
0.596892 0.068317 0.562974 0.535085 0.834289 0.132838
0.537392 0.464321 0.635663 0.408354 0.561649 0.719581
0.372478 0.686544 0.134989 0.768588 0.233196 0.595728
0.275315 0.620220 0.685094 0.169769 -0.985328 0.017557
0.392645 0.480852 0.382794 -0.003310 0.999840 -0.017571
0.522408 0.416983 0.657535 0.524714 -0.720192 0.453871
0.173746 0.480230 0.425451 -0.133296 0.989455 -0.056661
0.371963 0.478703 0.201385 -0.016378 0.990431 -0.137031
0.315563 0.702803 0.075240 -0.571973 -0.146223 -0.807134
0.286651 0.456877 0.661485 -0.611788 -0.050237 0.789425
0.377484 0.533643 0.195192 0.741972 0.260002 0.617961
0.106510 0.438240 0.372348 -0.842669 -0.230132 -0.486773
0.292757 0.861540 0.169594 0.753083 0.216612 0.621245
0.141076 0.956430 0.307516 0.490441 0.579873 0.650550
0.391019 0.104008 0.313802 -0.033082 -0.998584 -0.041669
0.382625 0.785029 0.093931 0.790922 0.200603 0.578101
0.591545 0.480852 0.395275 0.095873 0.994845 0.033038
0.448816 0.400938 0.414258 0.037561 -0.999264 -0.007807
0.334859 0.141909 0.374424 -0.430518 0.896582 -0.103898
0.713892 0.417218 0.351217 0.574077 -0.801359 -0.168104
0.302468 0.400938 0.374661 -0.129846 -0.991533 0.001358
0.315060 0.101210 0.390049 -0.093053 -0.994420 0.049703
0.093082 0.725409 0.291900 -0.815432 -0.096998 -0.570668
0.263579 0.038316 0.627311 -0.034521 -0.993312 -0.110180
0.144085 0.842733 0.223793 -0.779979 0.116829 -0.614803
0.601165 0.480852 0.389141 0.101983 0.994255 0.032495
0.207639 0.888355 0.252283 0.704837 0.238649 0.668021
0.402885 0.118635 0.360291 0.034637 -0.996362 -0.077869
0.545829 0.480852 0.493819 0.052746 0.996401 0.066352
0.558846 0.448599 0.621098 0.655975 -0.013298 0.754666
0.125416 0.544795 0.408985 -0.718445 -0.155615 0.677954
0.134344 0.595437 0.292059 -0.742647 -0.263300 -0.615750
0.080747 0.907734 0.300803 -0.881882 0.390904 -0.263586
0.348699 0.400938 0.487653 -0.052329 -0.996678 0.062404
0.584091 0.480852 0.389065 0.093325 0.995225 0.028600
0.623418 0.626038 0.287625 -0.254448 -0.872180 0.417802
0.266132 0.645056 0.139538 -0.608976 -0.241812 -0.755430
0.310954 0.480852 0.391987 -0.046480 0.998423 -0.031479
0.347242 0.030323 0.102019 -0.271884 -0.949838 0.154554
0.312197 0.480852 0.516017 -0.070928 0.997203 0.023572
0.541049 0.088306 0.550655 0.155384 0.852961 0.498310
0.533972 0.400938 0.194189 0.074812 -0.983287 -0.165982
0.381753 0.028375 0.083971 0.513194 -0.855478 -0.069203
0.606316 0.400938 0.413460 0.206206 -0.977507 -0.044268
0.280573 0.894568 0.091085 -0.647967 0.210402 -0.732031
0.529478 0.082440 0.482633 0.373790 -0.887815 -0.268452
0.329865 0.707328 0.059772 -0.555670 -0.138631 -0.819763
0.267604 0.400938 0.378257 -0.166272 -0.986008 0.011914
0.555840 0.407693 0.584499 0.407870 -0.876598 0.255380
0.279963 0.465347 0.204722 -0.442110 0.502188 -0.743200
0.131310 0.723856 0.254072 -0.782127 -0.103443 -0.614472
0.547634 0.611668 0.156234 -0.894295 -0.355099 -0.272291
0.254805 0.480852 0.499757 -0.096478 0.995328 0.003777
0.618808 0.620266 0.185055 0.359569 -0.857146 -0.368796
0.448814 0.400938 0.359621 0.024223 -0.998795 -0.042678
0.230813 0.501142 0.236140 -0.563899 -0.323388 -0.759893
0.692332 0.653431 0.278000 0.390039 0.918000 -0.071730
0.345522 0.499063 0.122326 -0.325518 -0.334587 -0.884358
0.260597 0.035843 0.633750 -0.029386 -0.993018 -0.114245
0.341643 0.400938 0.593594 -0.033943 -0.990866 0.130509
0.681373 0.415131 0.498570 0.668077 -0.669519 0.324682
0.218812 0.493158 0.582268 0.813779 -0.069404 -0.577016
0.402209 0.480852 0.546370 -0.031492 0.997882 0.056916
0.294696 0.431856 0.669529 -0.428226 -0.633147 0.644785
0.349322 0.400938 0.673913 -0.006372 -0.984051 0.177774
0.696668 0.462394 0.478841 0.707304 0.405408 0.579107
0.530204 0.079369 0.485568 0.289902 -0.929746 -0.226999
0.380536 0.108280 0.239821 -0.050139 0.893372 -0.446512
0.587729 0.085778 0.280169 0.265296 0.834457 -0.483011
0.262449 0.111296 0.349276 -0.391047 0.797253 -0.459859
0.354622 0.405658 0.714361 0.058569 -0.955550 0.288952
0.450299 0.480852 0.234434 0.055777 0.995973 -0.070195
0.309156 0.669111 0.203784 0.723779 0.242929 0.645856
0.089446 0.875179 0.280799 -0.844275 0.216282 -0.490329
0.215706 0.759274 0.268933 0.675957 0.227740 0.700869
0.259630 0.110557 0.355264 -0.420890 0.844910 -0.330119
0.318895 0.883446 0.073151 -0.228598 0.533445 -0.814358
0.463475 0.401065 0.587311 0.099189 -0.989757 0.102677
0.076370 0.569156 0.371653 -0.854929 -0.279385 -0.437081
0.610023 0.566812 0.220066 0.772289 -0.213423 -0.598348
0.152174 0.517519 0.307737 -0.704731 -0.297186 -0.644232
0.716577 0.466433 0.453788 0.592211 0.648970 0.477622
0.469169 0.141403 0.354514 0.311141 0.911574 -0.268745
0.605543 0.479451 0.462466 0.111350 0.990111 0.085335
0.365916 0.599841 0.058703 -0.425109 -0.271760 -0.863382
0.183993 0.653431 0.531080 0.320930 0.906479 -0.274407
0.224703 0.968390 0.175194 -0.503768 0.771998 -0.387603
0.573269 0.480852 0.238479 0.117576 0.992241 -0.040410
0.250209 0.099088 0.344111 -0.402014 0.519222 -0.754184
0.665300 0.640059 0.231547 0.779451 0.388453 -0.491487
0.307894 0.480852 0.580254 -0.085925 0.995003 0.050856
0.431520 0.404240 0.122322 -0.181165 -0.936347 -0.300722
0.167926 0.620220 0.553119 -0.075110 -0.997175 -0.001141
0.194628 0.929392 0.179570 -0.740670 0.304855 -0.598724
0.153208 0.045147 0.331095 0.064086 -0.872031 -0.485236
0.088042 0.609075 0.396261 -0.859726 -0.143458 0.490195
0.255862 0.890673 0.115513 -0.673726 0.205197 -0.709920
0.574667 0.469453 0.201039 0.698586 0.248130 -0.671125
0.245678 0.104298 0.345054 -0.371856 0.754673 -0.540547
0.467917 0.400938 0.566421 0.095062 -0.991826 0.085110
0.345561 0.098811 0.474775 -0.126786 -0.991880 0.009963
0.168851 0.590980 0.550964 0.563797 0.041361 -0.824877
0.116540 0.796217 0.356503 0.613691 0.241753 0.751624
0.233636 0.536054 0.613373 -0.021333 -0.521334 0.853086
0.173087 0.940000 0.282160 0.660444 0.352647 0.662914
0.399150 0.275553 0.381646 -0.399836 0.000000 -0.916587
0.170777 0.917867 0.202581 -0.766445 0.287920 -0.574163
0.377551 0.175022 0.387434 -0.986220 0.000000 0.165439
0.387648 0.108523 0.239348 0.020936 0.884073 -0.466880
0.656778 0.060009 0.274590 0.505318 0.859120 -0.081034
0.663157 0.653431 0.308180 -0.131105 0.957353 0.257461
0.281118 0.400938 0.519983 -0.116899 -0.988216 0.098812
0.390758 0.549760 0.174599 0.755306 0.257228 0.602782
0.144899 0.439160 0.519733 -0.791152 -0.406233 0.457224
0.141770 0.823479 0.324027 0.639711 0.237175 0.731107
0.326424 0.697268 0.065803 -0.556262 -0.155268 -0.816373
0.565285 0.620220 0.141386 0.122012 -0.966692 -0.224987
0.570178 0.480852 0.460298 0.071942 0.995778 0.057015
0.409413 0.089069 0.239720 0.626174 -0.644689 -0.438500
0.270365 0.639962 0.254038 0.687484 0.250363 0.681678
0.497233 0.133333 0.367500 0.428698 0.903363 -0.012366
0.390128 0.060989 0.131130 0.736755 0.398490 -0.546258
0.162627 0.618333 0.562968 -0.713507 -0.184169 0.676010
0.210506 0.480852 0.412602 -0.101079 0.993891 -0.044316
0.502163 0.132046 0.374961 0.467763 0.880555 0.076291
0.274989 0.620220 0.660329 0.307617 -0.938810 -0.154946
0.177631 0.579824 0.255487 -0.693537 -0.272312 -0.666972
0.431595 0.480852 0.362455 0.020557 0.999628 -0.017943
0.654541 0.653431 0.269650 0.101958 0.992265 0.070820
0.146346 0.620220 0.524842 -0.116046 -0.993102 -0.016788
0.432158 0.480852 0.338709 0.025619 0.999270 -0.028340
0.532565 0.403753 0.157731 0.090466 -0.970765 -0.222331
0.355339 0.093499 0.237700 -0.961324 -0.235517 -0.142788
0.261555 0.562433 0.298049 0.648932 0.256766 0.716211
0.188585 0.480852 0.442528 -0.118010 0.992363 -0.035897
0.247231 0.620220 0.611287 0.316754 -0.912451 -0.259037
0.232592 0.620220 0.624554 0.111516 -0.992768 -0.044464
0.383334 0.142162 0.324936 -0.214054 0.905833 -0.365580
0.617691 0.418258 0.562252 0.634852 -0.659928 0.401818
0.107616 0.666392 0.406074 0.568447 0.254165 0.782476
0.297033 0.400938 0.584973 -0.083700 -0.987202 0.135742
0.430481 0.400938 0.514343 0.042097 -0.997288 0.060375
0.351965 0.477228 0.196428 -0.052471 0.984495 -0.167381
0.443214 0.400938 0.193435 -0.021888 -0.989043 -0.145999
0.254301 0.046261 0.663308 -0.425995 0.827206 0.366414
0.252196 0.480852 0.429547 -0.083658 0.996108 -0.027763
0.032248 0.797595 0.334149 -0.864457 0.034365 -0.501531
0.325497 0.683594 0.182897 0.737511 0.237303 0.632270
0.383208 0.480852 0.635188 -0.058855 0.994054 0.091609
0.540675 0.471730 0.622942 0.189782 0.929160 0.317246
0.527244 0.099417 0.524838 0.213413 0.882188 0.419761
0.177788 0.620220 0.524852 0.154764 -0.951915 -0.264399
0.336233 0.586571 0.212411 0.716357 0.252490 0.650447
0.395241 0.083229 0.251550 -0.083479 -0.995463 0.045652
0.331516 0.650481 0.188111 0.734446 0.246192 0.632439
0.143406 0.477401 0.407909 -0.215575 0.961960 -0.167812
0.433682 0.476537 0.673693 0.026241 0.983295 0.180119
0.517956 0.471047 0.646531 0.191611 0.916238 0.351842
0.427331 0.480852 0.419574 0.006879 0.999956 0.006446
0.222516 0.076763 0.340395 -0.208354 -0.483939 -0.849936
0.108198 0.864846 0.353853 0.609984 0.301547 0.732795
0.569179 0.549610 0.195497 -0.753067 0.059913 0.655210
0.212459 0.653431 0.631874 -0.203681 0.962516 0.179102
0.470900 0.400938 0.401520 0.058309 -0.998077 -0.021043
0.223058 0.554252 0.598166 0.743172 0.050772 -0.667172
0.667132 0.480852 0.377075 0.137646 0.989591 0.041995
0.583025 0.400938 0.442973 0.188851 -0.981798 -0.020191
0.295916 0.693147 0.097373 -0.592789 -0.162337 -0.788827
0.186455 0.471572 0.306330 -0.333239 0.834757 -0.438329
0.549569 0.480852 0.489463 0.055537 0.996321 0.065270
0.323383 0.508667 0.140334 -0.386196 -0.328463 -0.861954
0.210297 0.441528 0.268561 -0.761740 -0.220940 -0.609046
0.635037 0.071545 0.295993 0.535762 0.842435 0.057120
0.424075 0.143317 0.456754 0.122776 0.715103 0.688153
0.328374 0.411267 0.150482 -0.474093 -0.768531 -0.429647
0.398255 0.432676 0.104512 -0.441674 -0.434440 -0.784975
0.659685 0.653431 0.259105 0.239626 0.970593 -0.022999
0.084523 0.550500 0.361204 -0.779174 -0.278317 -0.561630
0.574073 0.480845 0.216557 0.122726 0.991173 -0.050148
0.466196 0.123651 0.333311 0.162794 0.073369 -0.983928
0.578722 0.089433 0.282538 0.245752 0.827657 -0.504569
0.158689 0.058744 0.379230 -0.319669 -0.547900 0.773057
0.330298 0.839891 0.047039 -0.462395 0.224279 -0.857840
0.184078 0.444771 0.558912 -0.763406 -0.288200 0.578060
0.374216 0.687867 0.132836 0.769905 0.232643 0.594243
0.699699 0.404486 0.397313 0.431535 -0.901530 0.031963
0.376055 0.107663 0.462734 -0.071457 -0.995211 0.066698
0.628755 0.653431 0.247276 0.033378 0.997389 0.064036
0.145364 0.963370 0.232780 -0.793765 0.455842 -0.402673
0.260808 0.105719 0.345533 -0.399777 0.641245 -0.654968
0.298457 0.477343 0.251888 -0.088581 0.984284 -0.152769
0.674299 0.427087 0.505644 0.756145 -0.481039 0.443674
0.218774 0.622403 0.561760 0.375131 -0.835236 -0.402066
0.263045 0.620220 0.631813 0.350413 -0.902320 -0.251056
0.248966 0.480852 0.369342 -0.073077 0.995808 -0.055020
0.348494 0.603262 0.074545 -0.466117 -0.267887 -0.843191
0.332871 0.480852 0.499486 -0.057184 0.998146 0.020838
0.202489 0.615744 0.332910 0.626197 0.254516 0.736953
0.498251 0.400938 0.317452 0.067139 -0.994457 -0.080920
0.548649 0.067490 0.516065 0.216854 -0.955061 -0.202069
0.477271 0.400938 0.359389 0.054853 -0.997271 -0.049424
0.568313 0.101235 0.329231 0.481795 0.876206 0.011670
0.179110 0.649502 0.225415 -0.711057 -0.232840 -0.663463
0.595155 0.653431 0.239368 -0.223873 0.957451 0.182123
0.374293 0.095437 0.290946 -0.088694 -0.995396 -0.036327
0.102877 0.808078 0.366443 0.606696 0.243033 0.756872
0.379316 0.480852 0.417187 -0.017043 0.999841 -0.005297
0.160180 0.724941 0.224922 -0.755526 -0.104144 -0.646788
0.239010 0.659484 0.162945 -0.647817 -0.218015 -0.729933
0.259356 0.905471 0.199017 0.743316 0.231906 0.627456
0.373264 0.468140 0.115055 -0.281589 0.734153 -0.617841
0.508372 0.400938 0.201419 0.049357 -0.986567 -0.155719
0.429056 0.403897 0.130598 -0.168503 -0.944016 -0.283621
0.464066 0.480852 0.166176 0.076251 0.992370 -0.096888
0.335080 0.400938 0.346004 -0.101669 -0.994511 -0.024710
0.423735 0.275605 0.397177 0.988617 0.000000 0.150455
0.267828 0.913736 0.189797 0.750761 0.231788 0.618572
0.231069 0.757622 0.254090 0.686286 0.225073 0.691632
0.232557 0.511577 0.229908 -0.573812 -0.315940 -0.755593
0.189391 0.599095 0.573052 0.620807 0.055175 -0.782019
0.351026 0.480852 0.485957 -0.045289 0.998796 0.018867
0.222671 0.893441 0.148905 -0.707039 0.213881 -0.674055
0.365858 0.796786 0.050209 0.368445 0.233224 -0.899920
0.323031 0.617222 0.211696 0.716030 0.249653 0.651901
0.248321 0.048294 0.654483 -0.549525 0.792013 0.265966
0.180592 0.662644 0.334378 0.627962 0.250238 0.736915
0.135046 0.617235 0.281984 -0.747274 -0.253962 -0.614072
0.310533 0.679936 0.086157 -0.569397 -0.184050 -0.801195
0.058512 0.716677 0.378182 -0.942584 0.036708 0.331947
0.247635 0.076367 0.355428 0.030219 -0.998637 -0.042557
0.530893 0.113680 0.322197 0.365229 0.898508 -0.243497
0.274422 0.620815 0.701033 0.072266 -0.987593 0.139422
0.283929 0.480852 0.453860 -0.072634 0.997308 -0.010074
0.256023 0.573180 0.179951 -0.601945 -0.276158 -0.749266
0.667304 0.457150 0.292471 0.846438 0.005600 -0.532457
0.259446 0.408485 0.222558 -0.520148 -0.777490 -0.353489
0.406489 0.461098 0.105645 -0.219042 0.199414 -0.955120
0.346494 0.061841 0.127770 -0.135457 0.883207 -0.448995
0.657972 0.653431 0.267269 0.156196 0.987010 0.037594
0.605036 0.400938 0.307716 0.178651 -0.977631 -0.111006
0.176044 0.480852 0.475986 -0.130917 0.991105 -0.023904
0.217668 0.817296 0.148355 -0.706198 0.058520 -0.705592
0.259107 0.653431 0.655541 0.052213 0.994390 0.091994
0.189043 0.609767 0.574739 0.615805 0.054751 -0.785994
0.163912 0.401597 0.538746 -0.242185 -0.959510 0.143829
0.537254 0.480852 0.440663 0.059070 0.997417 0.040862
0.410283 0.400938 0.339988 -0.021940 -0.998690 -0.046229
0.395604 0.480852 0.461558 -0.017810 0.999681 0.017908
0.171263 0.612433 0.247831 -0.708646 -0.258143 -0.656645
0.181627 0.834578 0.283165 0.671588 0.232538 0.703488
0.430587 0.402695 0.642230 0.127379 -0.973898 0.187877
0.528548 0.456716 0.651395 0.562024 0.179315 0.807450
0.559753 0.579267 0.167415 0.627850 -0.216151 -0.747719
0.227778 0.405044 0.312461 -0.397018 -0.903046 -0.163967
0.277728 0.400938 0.577771 -0.106068 -0.985049 0.135748
0.505354 0.620220 0.139863 -0.405269 -0.877989 0.254739
0.473822 0.480852 0.320737 0.050602 0.998359 -0.026805
0.438746 0.411662 0.725932 0.368963 -0.819902 0.437752
