0.427653 0.475660 0.127933 0.048456 0.998091 -0.038295
0.282786 0.851868 0.032957 0.006255 -0.072449 -0.997352
0.193675 0.839267 0.040556 0.012003 0.077124 0.996949
0.387401 0.769988 0.125345 0.004746 0.219168 0.975676
0.351676 0.468693 0.084044 0.018738 -0.069420 -0.997412
0.104254 0.538834 0.157335 -0.006700 0.049802 0.998737
0.250917 0.293577 0.319293 -0.461800 0.000015 0.886984
0.263563 0.939010 0.046363 0.001764 -0.054952 -0.998487
0.432053 0.637757 0.098183 0.958897 -0.023554 -0.282776
0.182921 0.392727 0.483165 0.003295 -0.999064 0.043134
0.335024 0.475731 0.490042 0.003530 0.999994 -0.000565
0.157749 0.896057 0.106971 -0.004980 0.080251 0.996762
0.209878 0.609985 0.074109 -0.008484 -0.091686 -0.995752
0.114160 0.759937 0.049180 -0.029477 -0.193054 -0.980745
0.271469 0.402213 0.307988 0.003351 -0.999994 0.000000
0.092718 0.523861 0.088249 0.028246 0.061261 0.997722
0.247723 0.382714 0.293047 -0.779425 0.105827 -0.617493
0.466520 0.630969 0.398716 0.259234 0.749846 0.608710
0.122140 0.402105 0.104632 -0.022648 -0.824357 -0.565618
0.419609 0.884869 0.043107 -0.941468 0.021190 0.336435
0.130908 0.476679 0.149413 0.002979 -0.999671 0.025477
0.227488 0.396836 0.371878 0.003983 0.999992 -0.000000
0.434730 0.436309 0.111169 -0.958176 0.039092 0.283497
0.259396 0.396372 0.483298 0.003826 0.998812 0.048581
0.316239 0.509772 0.098304 0.009085 -0.029522 -0.999523
0.173282 0.403784 0.439928 -0.014609 -0.999893 -0.000003
0.213291 0.107532 0.385553 -0.922380 -0.269022 -0.277206
0.426397 0.748244 0.079453 -0.957568 -0.030864 0.286550
0.277892 0.705023 0.076743 0.003902 -0.183252 -0.983058
0.132106 0.475731 0.296151 -0.006845 0.999977 0.000000
0.164842 0.411584 0.100395 0.015582 0.655989 0.754610
0.145268 0.398628 0.285927 0.016334 0.999867 0.000002
0.458244 0.443016 0.446904 0.102809 -0.180202 -0.978242
0.212801 0.397156 0.383164 0.006188 0.999981 -0.000000
0.315889 0.911835 0.105722 0.001910 0.077096 0.997022
0.360505 0.437665 0.112015 0.033308 -0.042148 -0.998556
0.320528 0.501579 0.087208 -0.011731 0.061327 0.998049
0.318071 0.789047 0.119887 0.001616 0.560466 0.828176
0.233543 0.475731 0.456504 -0.001468 0.999999 -0.000029
0.095004 0.894155 0.033315 -0.034534 -0.069341 -0.996995
0.115113 0.960693 0.047976 -0.021770 -0.048487 -0.998587
0.389881 0.405235 0.153606 0.026526 -0.999648 0.000156
0.259967 0.556181 0.082308 -0.001052 0.061236 0.998123
0.438763 0.060150 0.420444 0.691751 0.215081 -0.689362
0.312286 0.584355 0.076006 0.011066 -0.064769 -0.997839
0.320646 0.934056 0.028205 0.012836 -0.017238 -0.999769
0.251850 0.505986 0.079483 -0.000419 -0.061360 -0.998116
0.230427 0.450253 0.517006 0.027302 0.009580 0.999581
0.433139 0.474845 0.362452 0.370665 0.928766 0.000000
0.100228 0.790331 0.049661 0.030700 0.182602 0.982707
0.329768 0.476679 0.119458 0.032575 -0.998437 -0.045403
0.256771 0.407262 0.101487 -0.000169 0.736062 0.676914
0.273832 0.212414 0.304163 0.989208 -0.081358 0.121855
0.400302 0.583548 0.078152 0.027856 -0.064574 -0.997524
0.206340 0.046316 0.525963 0.993260 -0.023002 0.113601
0.278355 0.391781 0.178468 0.002758 -0.999962 -0.008224
0.389421 0.399220 0.352614 -0.020461 0.999791 -0.000000
0.334520 0.398017 0.268705 -0.012174 0.999926 0.000018
0.135863 0.393683 0.388361 -0.019230 -0.999815 0.000000
0.391241 0.792346 0.106927 0.007935 -0.992481 0.122138
0.364080 0.479924 0.083650 0.021044 -0.065815 -0.997610
0.214168 0.099537 0.382913 -0.855803 -0.448407 -0.257940
0.194441 0.102684 0.287216 -0.029507 -0.412291 -0.910574
0.178145 0.475741 0.142289 -0.005109 0.999987 -0.000388
0.428995 0.653293 0.342142 -0.068040 0.994095 0.084532
0.190732 0.475731 0.452715 -0.003646 0.999993 -0.000023
0.083230 0.476679 0.107492 -0.010220 -0.995119 -0.098152
0.253991 0.085582 0.293732 0.191428 -0.978882 -0.071723
0.256428 0.124589 0.258001 0.311226 0.944036 -0.109242
0.271397 0.475731 0.275041 -0.000096 1.000000 0.000000
0.399680 0.405487 0.248605 0.026714 -0.999643 0.000000
0.231293 0.402310 0.345099 -0.004007 -0.999992 0.000000
0.382857 0.393909 0.475182 0.024515 -0.998726 0.044112
0.425987 0.863115 0.069046 -0.342510 0.064974 0.937265
0.370176 0.832172 0.042591 -0.023691 0.088789 0.995769
0.273162 0.193254 0.307888 0.921518 -0.101692 0.374784
0.091080 0.503423 0.089545 0.028526 0.061344 0.997709
0.436972 0.553510 0.127328 0.989034 -0.009642 -0.147370
0.191347 0.397624 0.344068 0.009408 0.999956 0.000000
0.371289 0.809947 0.114402 0.004631 0.089187 0.996004
0.405370 0.671933 0.085241 0.023564 -0.158035 -0.987152
0.372555 0.404794 0.272603 0.021896 -0.999760 0.000000
0.110141 0.561458 0.097544 -0.021679 -0.065899 -0.997591
0.118107 0.639949 0.089526 -0.020506 -0.128623 -0.991481
0.242363 0.475731 0.490361 -0.000932 0.999999 -0.000494
0.443019 0.638681 0.388190 -0.014576 0.858516 0.512580
0.063816 0.647126 0.217257 0.016881 0.998419 -0.053611
0.294380 0.875304 0.037507 -0.008205 0.069437 0.997553
0.223487 0.093441 0.354883 -0.657974 -0.727377 -0.194915
0.311731 0.392458 0.320634 0.009453 -0.999955 -0.000001
0.369031 0.411803 0.115906 0.011916 0.020208 -0.999725
0.286917 0.789973 0.072623 -0.000607 -0.999924 0.012354
0.436745 0.399764 0.417492 0.932473 -0.361229 0.002903
0.089256 0.394629 0.362964 -0.026813 -0.999640 -0.000000
0.088407 0.405940 0.357590 -0.030091 -0.999547 0.000000
0.217414 0.408548 0.100983 0.006330 0.715110 0.698983
0.256631 0.902968 0.028732 0.000606 -0.069404 -0.997589
0.079133 0.501734 0.158514 -0.028514 0.026399 0.999245
0.114426 0.469473 0.517006 -0.004975 0.035334 0.999363
0.356194 0.393365 0.480280 0.020974 -0.998585 0.048864
0.284838 0.952755 0.025988 -0.001289 0.197543 -0.980293
0.404558 0.475731 0.419726 0.006392 0.999980 0.000000
0.252080 0.184171 0.305366 -0.613350 -0.770648 0.172927
0.102978 0.872171 0.108950 -0.007402 0.084255 0.996417
0.298926 0.397242 0.162127 -0.009202 0.999872 0.013064
0.436560 0.106650 0.415620 0.780163 -0.378887 -0.497786
0.040520 0.031964 0.336370 -0.133135 -0.744758 0.653919
0.378777 0.839357 0.111795 0.004712 0.087583 0.996146
0.072345 0.421638 0.235038 -0.979206 -0.202867 0.000005
0.248700 0.522868 0.084340 0.000930 0.061277 0.998120
0.375240 0.527740 0.157784 0.004226 0.038227 0.999260
0.434127 0.443233 0.108012 -0.959859 0.033781 0.278443
0.247839 0.531639 0.157626 -0.000736 0.042661 0.999089
0.439153 0.104730 0.173095 0.838335 -0.307676 -0.450033
0.322447 0.881287 0.031922 0.015004 -0.069403 -0.997476
0.371315 0.112239 0.197540 -0.548475 -0.256359 -0.795899
0.077061 0.491628 0.102657 -0.625063 -0.015330 -0.780424
0.112100 0.395360 0.127974 -0.023698 -0.990340 -0.136618
0.335374 0.605330 0.092449 0.012530 -0.104752 -0.994419
0.198809 0.782221 0.081403 -0.001610 0.953651 -0.300911
0.437909 0.500349 0.154429 0.859242 0.011803 0.511433
0.068641 0.406911 0.314041 -0.968988 -0.247106 -0.000001
0.220428 0.391966 0.382104 -0.005468 -0.999985 0.000000
0.140577 0.547044 0.156915 -0.005336 0.055486 0.998445
0.345581 0.124589 0.362804 0.063392 0.990875 -0.118948
0.214053 0.402746 0.151557 -0.005292 -0.999986 0.000090
0.220931 0.115622 0.281562 -0.327599 -0.307192 -0.893483
0.380283 0.404992 0.429553 0.023358 -0.999727 0.000000
0.187861 0.520226 0.086050 0.011585 0.061283 0.998053
0.332160 0.086454 0.228825 -0.315713 -0.822052 -0.473873
0.139206 0.404649 0.306554 -0.020819 -0.999783 0.000000
0.192049 0.085582 0.512047 -0.238930 -0.698505 0.674539
0.243457 0.877429 0.036541 0.002082 0.069435 0.997584
0.068863 0.570692 0.128021 -0.993160 -0.007752 -0.116501
0.113805 0.840187 0.036598 -0.030595 -0.075922 -0.996644
0.077657 0.490475 0.443790 0.948343 -0.071074 -0.309184
0.037402 0.065909 0.336161 -0.982702 0.093465 0.159881
0.184661 0.476679 0.106880 -0.002659 -0.995830 -0.091193
0.241884 0.889300 0.107520 -0.001310 0.081743 0.996653
0.127231 0.475731 0.390110 -0.007082 0.999975 -0.000000
0.235545 0.396709 0.143645 -0.000183 0.999777 0.021116
0.285549 0.391929 0.170439 0.003666 -0.999941 -0.010238
0.407734 0.726115 0.056282 0.031540 -0.194502 -0.980395
0.268762 0.820896 0.040606 -0.003552 0.120364 0.992724
0.422573 0.497216 0.090086 -0.029720 0.061307 0.997676
0.463659 0.556854 0.437012 0.098277 -0.189484 -0.976953
0.376365 0.404892 0.486422 0.021736 -0.999764 -0.000345
0.186307 0.046415 0.112315 -0.157770 -0.987221 -0.022416
0.334005 0.973698 0.059959 0.001910 0.998801 0.048926
0.151623 0.405189 0.511979 -0.018057 -0.965259 0.260671
0.097281 0.736902 0.073344 -0.025380 -0.203974 -0.978647
0.297797 0.402886 0.300052 0.008192 -0.999966 0.000000
0.075039 0.642362 0.152095 0.920654 0.384926 -0.065024
0.308628 0.682516 0.142439 0.001560 0.157748 0.987478
0.249458 0.363129 0.291312 -0.661274 0.083878 -0.745440
0.425528 0.823108 0.093029 0.994943 -0.014128 -0.099444
0.251386 0.333806 0.290058 -0.525483 0.052160 -0.849203
0.143793 0.404533 0.199847 -0.020292 -0.999794 0.000043
0.404956 0.394360 0.469816 0.027263 -0.998867 0.039003
0.228125 0.477542 0.100451 -0.003301 -0.863608 -0.504153
0.261376 0.123318 0.358441 0.452009 0.873801 0.179331
0.377090 0.404910 0.426254 0.022771 -0.999741 0.000000
0.267651 0.475733 0.184246 -0.000355 1.000000 0.000050
0.241524 0.341196 0.295151 -0.751129 0.598575 -0.278410
0.415146 0.072424 0.184900 -0.978955 0.196746 -0.054202
0.067761 0.467822 0.173923 -0.989442 0.144930 -0.000080
0.391064 0.405262 0.143605 0.027108 -0.999633 -0.000032
0.430521 0.618908 0.411853 -0.063029 0.684502 0.726281
0.321357 0.944417 0.033439 -0.018232 0.227421 0.973626
0.096161 0.755089 0.128760 -0.007863 0.215233 0.976531
0.120892 0.405115 0.194350 -0.024174 -0.999708 0.000053
0.249081 0.388867 0.306318 -0.803870 0.496085 0.328165
0.294079 0.475743 0.130576 0.000309 1.000000 -0.000468
0.287734 0.402918 0.508914 0.006263 -0.992222 0.124321
0.381401 0.822446 0.057284 0.021244 -0.083881 -0.996249
0.037771 0.093401 0.313563 -0.652957 -0.487269 0.579842
0.296558 0.475732 0.189404 0.001035 0.999999 0.000090
0.347260 0.409219 0.102278 -0.015320 0.694120 0.719696
0.322267 0.415853 0.115644 0.008518 0.020597 -0.999752
0.295609 0.397165 0.378868 -0.006284 0.999980 -0.000000
0.178003 0.790722 0.117824 -0.005072 0.988203 0.153065
0.355800 0.548960 0.097458 0.015647 -0.059715 -0.998093
0.141919 0.400397 0.124142 0.016858 0.986247 0.164417
0.075835 0.560023 0.442756 0.065580 0.181124 0.981271
0.068016 0.466552 0.510691 -0.979638 0.017489 0.200010
0.410353 0.573909 0.096916 0.023968 -0.080516 -0.996465
0.408088 0.394424 0.376886 0.025240 -0.999681 0.000000
0.228499 0.085582 0.435199 0.436640 -0.886749 0.151726
0.077371 0.576749 0.438121 0.068789 0.332349 0.940645
0.282101 0.402479 0.141339 0.008770 -0.999962 0.000039
0.434136 0.605456 0.109816 0.972537 -0.023818 -0.231528
0.150984 0.393376 0.437255 -0.016238 -0.999859 0.004253
0.201086 0.066691 0.499078 0.968897 -0.190391 -0.158085
0.084372 0.406042 0.248774 -0.031060 -0.999518 0.000000
0.433613 0.515828 0.101268 -0.960068 0.017098 0.279243
0.212699 0.733741 0.071403 -0.006449 -0.204646 -0.978815
0.391357 0.405268 0.139516 0.027272 -0.999628 -0.000115
0.218994 0.397021 0.341232 0.005258 0.999986 0.000000
0.073134 0.418035 0.147152 -0.973635 -0.228112 -0.000064
0.195589 0.070987 0.114080 0.283445 0.076966 0.955895
0.230819 0.650950 0.074032 0.004015 0.170748 0.985307
0.250908 0.096833 0.373206 0.799984 -0.535319 0.271034
0.424263 0.781482 0.051256 0.951156 -0.023110 -0.307845
0.239272 0.475731 0.471680 -0.001189 0.999999 -0.000090
0.068503 0.448647 0.281785 -0.997372 -0.072446 -0.000000
0.260046 0.086604 0.345375 0.668018 -0.712891 0.213398
0.280425 0.139362 0.291098 0.874694 -0.000103 -0.484675
0.084818 0.394719 0.347556 -0.027535 -0.999621 -0.000000
0.315502 0.444959 0.090590 -0.009958 0.107733 0.994130
0.216690 0.113916 0.283665 -0.026385 -0.248436 -0.968289
0.429728 0.409249 0.156957 0.797978 -0.602687 0.000102
0.381895 0.539914 0.086425 -0.022549 0.061234 0.997869
0.250790 0.850979 0.052218 -0.000406 -0.079063 -0.996870
0.432881 0.474924 0.234508 0.346692 0.937979 0.000005
0.219955 0.908630 0.105972 -0.002269 0.077627 0.996980
0.034154 0.063071 0.333386 -0.977169 0.121496 0.174295
0.062122 0.059936 0.298533 0.663102 0.219332 -0.715674
0.066076 0.431514 0.114340 -0.987554 -0.015294 -0.156537
0.277094 0.396762 0.182547 -0.004926 0.999959 0.007562
0.141978 0.691549 0.140945 -0.005384 0.166900 0.985959
0.294572 0.392108 0.516760 0.016675 -0.992759 0.118960
0.195933 0.475731 0.232162 -0.003702 0.999993 0.000008
0.093862 0.651842 0.077386 0.028026 0.166307 0.985676
0.260593 0.391415 0.321647 0.001075 -0.999999 -0.000001
0.254906 0.243242 0.317781 -0.259684 -0.000002 0.965694
0.284373 0.475731 0.311981 0.000553 1.000000 -0.000000
0.377822 0.561602 0.078965 0.023589 -0.061221 -0.997845
0.103948 0.475731 0.465486 -0.007531 0.999972 -0.000044
0.398111 0.772663 0.124732 0.005217 0.220429 0.975389
0.163215 0.632386 0.079520 0.015764 0.124711 0.992068
0.419134 0.770918 0.124926 0.123365 0.229522 0.965454
0.110311 0.405377 0.138404 -0.024676 -0.999696 -0.000077
0.437292 0.444076 0.227611 0.993664 -0.112392 0.000006
0.435931 0.432828 0.386457 0.987585 -0.157087 0.000000
0.159736 0.809145 0.044238 0.018617 0.156083 0.987568
0.070224 0.679356 0.082669 -0.980279 0.043080 -0.192864
0.421435 0.864078 0.066480 0.968484 -0.019802 -0.248288
0.455655 0.431808 0.449177 0.088937 -0.229889 -0.969145
0.104604 0.094786 0.287559 -0.017365 -0.640863 -0.767458
0.198887 0.394143 0.123456 -0.009242 -0.984348 -0.175992
0.324674 0.510700 0.158365 0.002307 0.027759 0.999612
0.255420 0.391310 0.199153 -0.000352 -0.999995 -0.003122
0.438033 0.404175 0.168828 0.961588 -0.274490 -0.002165
0.277210 0.351310 0.319493 0.748929 -0.047018 0.660980
0.378766 0.124589 0.202867 -0.114309 0.975365 -0.188672
0.324336 0.475731 0.428791 0.002495 0.999997 0.000000
0.304324 0.689314 0.080191 0.008021 -0.170863 -0.985262
0.400182 0.124589 0.428810 -0.059224 0.991578 0.115173
0.144847 0.627673 0.090472 -0.016441 -0.119437 -0.992706
0.070996 0.421209 0.362950 0.937292 0.348545 0.000000
0.106659 0.475731 0.426209 -0.008081 0.999967 -0.000000
0.182508 0.756928 0.066967 -0.010786 -0.218035 -0.975881
0.273110 0.402255 0.312422 0.003653 -0.999993 0.000000
0.077224 0.751093 0.070663 -0.982614 0.057960 -0.176384
0.350991 0.415636 0.115956 0.010930 0.024130 -0.999649
0.304030 0.392301 0.250861 0.008026 -0.999968 -0.000278
0.223419 0.118920 0.130599 0.919485 0.214916 -0.329178
0.207519 0.465281 0.088922 0.008322 0.068561 0.997612
0.223620 0.873652 0.051054 -0.004877 -0.074397 -0.997217
0.294208 0.746545 0.130536 0.000757 0.206445 0.978458
0.105520 0.513577 0.158308 -0.006124 0.031910 0.999472
0.373131 0.404809 0.420192 0.022044 -0.999757 0.000000
0.278261 0.402400 0.505280 0.004581 -0.999355 0.035620
0.215549 0.107166 0.123348 0.883747 -0.353433 -0.306718
0.366588 0.398722 0.183250 -0.018351 0.999800 0.007909
0.245851 0.879163 0.108364 -0.001148 0.083419 0.996514
0.381670 0.114575 0.368986 0.592834 -0.227824 -0.772427
0.422973 0.124589 0.170259 -0.154046 0.954153 -0.256635
0.273189 0.101489 0.334171 -0.456056 -0.508880 0.730106
0.322781 0.392685 0.197254 0.010819 -0.999937 -0.003094
0.160077 0.731834 0.059701 0.017963 0.195433 0.980552
0.258054 0.391363 0.379478 0.000659 -1.000000 0.000000
0.081449 0.649319 0.298036 0.987939 0.148793 -0.042864
0.433059 0.646990 0.370364 -0.051038 0.942125 0.331354
0.069293 0.435813 0.369200 -0.991896 -0.127050 0.000000
0.434657 0.396723 0.256847 0.693102 -0.720840 -0.000164
0.246106 0.930402 0.046786 -0.001169 -0.057997 -0.998316
0.427336 0.840490 0.055939 0.984466 -0.017746 -0.174674
0.133397 0.393733 0.358152 -0.019632 -0.999807 0.000000
0.389440 0.795630 0.048107 -0.027589 0.165287 0.985860
0.063029 0.046677 0.333529 0.987094 -0.011854 0.159704
0.124933 0.771771 0.065029 -0.021936 -0.128067 -0.991523
0.428834 0.490431 0.102736 0.584828 -0.016204 -0.810995
0.329842 0.904164 0.030519 0.016643 -0.069329 -0.997455
0.140917 0.885018 0.032785 -0.024545 -0.069399 -0.997287
0.288943 0.474343 0.088072 -0.005995 0.065732 0.997819
0.176257 0.475731 0.465875 -0.004109 0.999992 -0.000050
0.364480 0.772236 0.064595 0.019184 -0.099169 -0.994886
0.179899 0.123067 0.472572 -0.414738 0.904689 -0.097624
0.101135 0.394388 0.221869 -0.025076 -0.999685 -0.001190
0.141592 0.416350 0.097813 0.020092 0.516331 0.856153
0.361655 0.660102 0.145811 0.003656 0.139749 0.990180
0.315844 0.475731 0.474480 0.002360 0.999997 -0.000155
0.400899 0.691558 0.062984 0.028985 -0.194711 -0.980432
0.081575 0.805441 0.052715 -0.977230 -0.023124 -0.210919
0.080054 0.400090 0.425098 0.080042 0.996773 0.006122
0.078958 0.400208 0.411675 0.180574 0.983556 0.003351
0.084850 0.399945 0.509316 0.034003 0.990782 0.131132
0.151224 0.646856 0.076914 0.017918 0.159419 0.987048
0.193160 0.113470 0.521356 0.067628 -0.328319 0.942143
0.163608 0.879382 0.108346 -0.004742 0.083237 0.996518
0.404503 0.516316 0.100003 0.022540 -0.034971 -0.999134
0.433169 0.640282 0.149503 -0.971660 -0.232438 -0.042999
0.212950 0.475731 0.315606 -0.002917 0.999996 -0.000000
0.232559 0.396728 0.180771 0.002016 0.999970 0.007516
0.073222 0.417652 0.159081 -0.973892 -0.227011 0.000118
0.200151 0.971877 0.045961 -0.008656 0.187483 -0.982230
0.297561 0.475731 0.213860 0.001184 0.999999 0.000034
0.158727 0.603714 0.075700 -0.018130 -0.080588 -0.996583
0.331303 0.643017 0.087910 0.011927 -0.134745 -0.990809
0.433935 0.096119 0.438352 0.512623 -0.274931 0.813406
0.225471 0.506269 0.085950 0.004996 0.061325 0.998105
0.414317 0.475731 0.417636 0.006866 0.999976 0.000000
0.233570 0.103132 0.178853 0.844831 -0.443938 -0.298629
0.143397 0.672934 0.143959 -0.005269 0.152428 0.988301
0.215665 0.402705 0.492941 -0.010672 -0.999943 -0.000616
0.317241 0.609568 0.091628 0.009764 -0.107910 -0.994113
0.306019 0.537463 0.078735 0.009907 -0.061251 -0.998073
0.233444 0.436951 0.084244 -0.002148 -0.134289 -0.990940
0.435941 0.650316 0.112172 0.983797 0.007660 -0.179120
0.127121 0.399024 0.251747 0.018950 0.999820 0.000250
0.407368 0.394666 0.140172 0.024105 -0.999026 -0.036948
0.147106 0.398588 0.390383 0.016049 0.999871 -0.000000
0.233865 0.085582 0.206657 0.167684 -0.983566 -0.066941
0.220704 0.475731 0.372697 -0.002540 0.999997 -0.000000
0.399022 0.399430 0.268130 -0.021928 0.999760 0.000027
0.061077 0.639939 0.201125 -0.006360 -0.999044 0.043249
0.259211 0.475741 0.140100 -0.001231 0.999999 -0.000376
0.293308 0.631628 0.078346 -0.007100 0.134109 0.990941
0.436472 0.421630 0.393879 -0.937183 0.348838 0.000000
0.365074 0.715564 0.057323 0.022652 -0.194958 -0.980550
0.385899 0.697920 0.080442 0.021063 -0.178183 -0.983772
0.215395 0.554374 0.077378 -0.007319 -0.061234 -0.998097
0.318914 0.475850 0.082824 0.012443 -0.066153 -0.997732
0.466686 0.647400 0.278770 0.998129 -0.050647 -0.034241
0.083412 0.931092 0.102550 -0.562253 0.063270 0.824541
0.163241 0.398241 0.150603 0.011992 0.999828 0.014142
0.078480 0.476679 0.130615 -0.103424 -0.994620 -0.005918
0.226633 0.402428 0.345743 -0.004858 -0.999988 0.000000
0.192063 0.947131 0.047013 -0.009659 -0.052478 -0.998575
0.334034 0.671814 0.071303 -0.014141 0.192358 0.981223
0.242968 0.124589 0.395777 0.220261 0.971237 0.090469
0.433953 0.423841 0.445736 0.979731 -0.200316 -0.000013
0.269284 0.158557 0.291003 0.658999 -0.285145 -0.695997
0.422214 0.666364 0.086533 0.066003 -0.150034 -0.986475
0.062306 0.425219 0.457288 0.011184 0.224729 0.974357
0.231329 0.552532 0.077113 -0.004302 -0.061237 -0.998114
0.210305 0.739901 0.050743 -0.008840 -0.195712 -0.980622
0.209037 0.402875 0.375512 -0.008070 -0.999967 0.000000
0.434282 0.413104 0.272252 -0.945488 0.325656 0.000001
0.434618 0.540314 0.445671 -0.062497 0.095300 0.993485
0.069640 0.463466 0.514984 -0.747569 0.000596 0.664184
0.204387 0.402993 0.480581 -0.010859 -0.999941 -0.000321
0.169164 0.713119 0.057133 -0.016888 -0.195371 -0.980584
0.247444 0.404179 0.097000 -0.000929 -0.730247 -0.683183
0.095552 0.405758 0.275574 -0.028831 -0.999584 0.000000
0.177565 0.403675 0.169211 -0.012930 -0.999916 0.000108
0.340737 0.403981 0.154782 0.017701 -0.999843 0.000156
0.088064 0.946205 0.103006 -0.152329 0.066950 0.986060
0.374061 0.088268 0.407798 -0.410819 -0.691960 0.593648
0.216044 0.901372 0.106539 -0.002431 0.079322 0.996846
0.419037 0.470923 0.085512 0.031583 -0.070246 -0.997030
0.437877 0.595152 0.132314 0.995021 -0.009939 -0.099165
0.166545 0.446420 0.115902 -0.000366 0.050262 -0.998736
0.135921 0.474848 0.084143 -0.022079 -0.065757 -0.997591
0.318233 0.108878 0.277968 0.592097 -0.265512 0.760871
0.401349 0.540883 0.080797 0.028072 -0.061228 -0.997729
0.285851 0.106770 0.343354 -0.543992 -0.277451 0.791892
0.362453 0.404536 0.296956 0.020080 -0.999798 0.000000
0.121288 0.790712 0.061289 -0.017978 -0.672684 -0.739711
0.300085 0.085582 0.278507 0.196016 -0.957746 0.210479
0.290384 0.402696 0.486729 0.004835 -0.999988 -0.000412
0.245741 0.396438 0.440144 0.001545 0.999986 0.005015
0.336737 0.403874 0.504681 0.015236 -0.999640 0.022067
0.321045 0.492769 0.098745 0.007976 -0.020762 -0.999753
0.184862 0.789860 0.060706 -0.006558 -0.919865 -0.392179
0.420725 0.877835 0.048310 -0.967537 0.016083 0.252219
0.424222 0.926817 0.074268 0.986178 -0.002189 -0.165672
0.469136 0.640761 0.378843 0.957219 0.250410 0.145008
0.420206 0.394671 0.423443 0.027423 -0.999606 0.005918
0.075604 0.731715 0.072547 -0.980262 0.062167 -0.187673
0.403407 0.394329 0.199400 0.023892 -0.999711 -0.002595
0.438876 0.644284 0.152599 -0.063458 0.996990 -0.044543
0.373368 0.536655 0.080390 0.022741 -0.061239 -0.997864
0.131531 0.507382 0.082251 -0.023211 -0.061324 -0.997848
0.201672 0.781607 0.078938 -0.001314 0.951602 -0.307330
0.465525 0.544066 0.439986 0.731708 -0.111856 -0.672377
0.258452 0.401881 0.219009 -0.000583 -1.000000 0.000010
0.369416 0.874645 0.108743 0.004263 0.084266 0.996434
0.207783 0.437003 0.517006 -0.003873 -0.045232 0.998969
0.270672 0.842087 0.053248 0.002901 -0.080738 -0.996731
0.402642 0.927010 0.104580 0.005672 0.073183 0.997302
0.083645 0.860595 0.069696 -0.976025 -0.018155 -0.216902
0.085168 0.745326 0.130622 -0.119993 0.215727 0.969053
0.418083 0.475731 0.389064 0.007049 0.999975 -0.000000
0.075695 0.601754 0.424931 0.057234 0.543766 0.837283
0.414977 0.065573 0.418204 -0.479140 0.552297 -0.682197
0.406034 0.399584 0.266334 -0.022996 0.999736 0.000054
0.065456 0.422519 0.449533 -0.818317 0.574135 0.026933
0.350782 0.846051 0.041089 -0.019711 0.074093 0.997056
0.094959 0.394516 0.186008 -0.026596 -0.999609 -0.008592
0.062008 0.029698 0.331563 0.598577 -0.632529 0.491541
0.179180 0.624501 0.150425 -0.003779 0.114460 0.993421
0.301815 0.463824 0.114656 0.006665 0.170982 -0.985252
0.191110 0.535218 0.085047 0.011017 0.061250 0.998062
0.291920 0.085582 0.344253 -0.186057 -0.934599 0.303164
0.076011 0.695347 0.087887 0.957477 -0.034975 0.286382
0.391308 0.772624 0.124741 0.004923 0.220499 0.975375
0.409279 0.405732 0.360364 0.028688 -0.999588 0.000000
0.435202 0.397368 0.372849 0.769659 -0.638455 -0.000000
0.083565 0.499547 0.089974 0.029840 0.061360 0.997670
0.283745 0.392436 0.302674 0.982025 0.187002 0.025645
0.221882 0.973338 0.063183 -0.000299 0.998422 0.056152
0.358219 0.873047 0.033409 0.022824 -0.069413 -0.997327
0.273464 0.395589 0.302993 0.137614 0.990228 0.022623
0.077942 0.407446 0.492491 -0.574488 -0.818513 -0.000450
0.245801 0.391450 0.418561 -0.001164 -0.999996 0.002624
0.382103 0.405038 0.346004 0.023693 -0.999719 0.000000
0.206947 0.475731 0.311270 -0.003209 0.999995 -0.000000
0.234898 0.792229 0.105235 0.007130 -0.995639 0.093016
0.098940 0.405664 0.131176 -0.026726 -0.999643 -0.000152
0.422924 0.797132 0.068676 -0.958984 0.034091 0.281404
0.268966 0.396582 0.338757 -0.002257 0.999997 0.000000
0.358378 0.393410 0.233471 0.016768 -0.999859 -0.000528
0.431421 0.124589 0.407285 0.155895 0.964680 -0.212343
0.181752 0.397833 0.480480 0.015228 0.998722 0.048184
0.153277 0.438295 0.517006 -0.005145 -0.038131 0.999259
0.130165 0.398957 0.414129 0.018722 0.999822 0.002392
0.346641 0.393178 0.149161 0.013437 -0.999801 -0.014739
0.267715 0.475731 0.314120 -0.000256 1.000000 -0.000000
0.265755 0.949370 0.103024 -0.000574 0.065632 0.997844
0.267899 0.188446 0.287357 0.515919 0.000003 -0.856637
0.275624 0.402320 0.351594 0.004115 -0.999992 0.000000
0.393857 0.124589 0.383410 0.136418 0.969203 -0.205029
0.435499 0.430864 0.214378 0.985393 -0.170294 0.000021
0.068317 0.636702 0.128795 -0.997304 0.009915 -0.072705
0.242214 0.391523 0.420720 -0.001725 -0.999994 0.002846
0.170928 0.124170 0.102655 -0.527558 0.848729 0.036632
0.162562 0.476679 0.150421 0.003366 -0.999418 0.033944
0.235524 0.387042 0.294767 -0.941203 0.020675 -0.337208
0.366916 0.475731 0.256750 0.004492 0.999990 -0.000000
0.256142 0.758499 0.127978 -0.000954 0.214893 0.976637
0.247290 0.604301 0.073564 -0.001388 -0.080646 -0.996742
0.367086 0.398731 0.261061 -0.017130 0.999853 0.000132
0.409074 0.475731 0.367241 0.006611 0.999978 -0.000000
0.244024 0.124589 0.361463 0.106703 0.992855 0.053410
0.255267 0.579779 0.080740 -0.000251 0.064039 0.997947
0.157087 0.430536 0.115503 -0.003643 0.017569 -0.999839
0.088900 0.923139 0.038609 0.733826 0.068162 0.675909
0.183733 0.403513 0.141130 -0.010562 -0.999944 -0.000017
0.208962 0.397240 0.359799 0.006764 0.999977 -0.000000
0.272624 0.231767 0.297032 0.927982 -0.060378 -0.367700
0.428536 0.062352 0.170047 0.153454 -0.439317 -0.885129
0.274963 0.209851 0.296169 0.924629 -0.000012 -0.380868
0.401646 0.735698 0.132793 0.005587 0.197101 0.980367
0.223586 0.396921 0.231789 0.004392 0.999990 0.000556
0.125004 0.405010 0.420487 -0.023412 -0.999726 -0.000001
0.219734 0.537197 0.157401 -0.002006 0.047095 0.998888
0.332125 0.403745 0.124979 0.015242 -0.999849 -0.008362
0.147784 0.942894 0.103458 -0.005479 0.067115 0.997730
0.317195 0.397638 0.344913 -0.009546 0.999954 0.000000
0.089018 0.972317 0.050706 -0.701224 0.377950 -0.604515
0.139147 0.833631 0.042440 0.022852 0.090294 0.995653
0.128188 0.393838 0.312137 -0.020479 -0.999790 -0.000002
0.381550 0.742337 0.131412 0.004615 0.202195 0.979334
0.432067 0.610732 0.101434 0.958720 -0.029643 -0.282801
0.074560 0.645233 0.147440 -0.228785 0.130913 0.964634
0.384217 0.658974 0.086747 0.020140 -0.147785 -0.988814
0.406035 0.542993 0.080779 0.028965 -0.061226 -0.997704
0.167185 0.970062 0.093726 0.003784 0.992280 0.123959
0.070408 0.683647 0.083097 -0.981318 0.049811 -0.185831
0.086266 0.500841 0.158562 -0.006827 0.025894 0.999641
0.302325 0.937540 0.033395 -0.012099 0.152592 0.988215
0.343549 0.868066 0.109302 0.003127 0.085076 0.996370
0.150340 0.393389 0.466607 -0.010772 -0.999743 0.019940
0.425725 0.814881 0.050342 0.976013 -0.033079 -0.215185
0.207073 0.475731 0.463603 -0.002684 0.999996 -0.000046
0.067640 0.462666 0.299703 -0.999922 -0.012497 0.000000
0.404593 0.399552 0.283746 -0.022761 0.999741 0.000004
0.194814 0.568396 0.095265 -0.008851 -0.072900 -0.997300
0.437665 0.471144 0.182391 0.858043 0.513578 -0.000006
0.342366 0.398189 0.406090 -0.013229 0.999911 0.001532
0.220901 0.479382 0.081850 -0.006152 -0.065152 -0.997856
0.415324 0.057100 0.219989 -0.943300 0.036595 0.329918
0.285866 0.642431 0.070038 0.005981 -0.154080 -0.988040
0.195762 0.416170 0.517006 -0.003077 -0.085900 0.996299
0.424078 0.922427 0.062591 -0.947828 0.043927 0.315741
0.165311 0.398191 0.430371 0.013555 0.999898 0.004544
0.276437 0.790872 0.116099 -0.001457 0.987367 -0.158441
0.287781 0.579896 0.154692 0.000598 0.078768 0.996893
0.246455 0.087557 0.218538 0.430342 -0.889761 -0.152089
0.340233 0.399974 0.123037 -0.013390 0.980218 0.197468
0.216315 0.111556 0.119693 0.911723 -0.259782 -0.318237
0.191562 0.069789 0.114311 -0.141953 0.003603 0.989867
0.438617 0.469144 0.444630 0.956517 0.291676 -0.000014
0.441460 0.639678 0.386276 -0.020318 0.869672 0.493211
0.436682 0.553869 0.086270 0.943709 -0.020267 -0.330155
0.284843 0.739001 0.132106 0.000455 0.201112 0.979568
0.078862 0.400219 0.464886 0.195459 0.980530 0.018893
0.423778 0.772897 0.086066 0.982222 0.063867 -0.176525
0.077865 0.400489 0.381507 0.401639 0.915798 -0.000000
0.332639 0.475731 0.282994 0.002898 0.999996 0.000000
0.045253 0.080412 0.305974 -0.759106 0.417102 0.499783
0.068727 0.445004 0.247884 -0.996107 -0.088158 0.000001
0.363544 0.658465 0.074753 -0.019359 0.186982 0.982172
0.436369 0.066301 0.458324 0.981439 0.150193 0.119243
0.165085 0.594821 0.082052 0.015527 0.066612 0.997658
0.230389 0.475731 0.216467 -0.002090 0.999998 0.000023
0.220199 0.085582 0.395762 -0.166094 -0.985372 -0.038141
0.305367 0.917269 0.105300 0.001454 0.075712 0.997129
0.114438 0.486441 0.083941 -0.026308 -0.063439 -0.997639
0.268412 0.842139 0.111550 -0.000153 0.087359 0.996177
0.135138 0.667317 0.144769 -0.005588 0.148158 0.988948
0.446138 0.640655 0.216132 -0.006114 -0.998915 0.046178
0.076179 0.475475 0.230469 -0.165818 0.986156 0.000010
0.305987 0.444589 0.084499 0.011348 -0.118452 -0.992895
0.078660 0.542208 0.439108 0.460550 -0.113187 -0.880388
0.269228 0.434332 0.090091 -0.000388 0.139655 0.990200
0.437524 0.052305 0.193883 0.992949 -0.118001 -0.011312
0.437227 0.443378 0.182488 0.993675 -0.112294 0.000123
0.209016 0.595011 0.092698 -0.006699 -0.094545 -0.995498
0.249019 0.791965 0.101422 0.012294 -0.996328 0.084733
0.401752 0.475731 0.448590 0.006316 0.999980 -0.000024
0.268983 0.476679 0.149162 0.008773 -0.998516 0.053745
0.100466 0.475731 0.279407 -0.008387 0.999965 -0.000000
0.331009 0.957201 0.102533 0.002109 0.064266 0.997931
0.320161 0.397703 0.517019 -0.001975 0.996214 0.086916
0.401344 0.394286 0.368322 0.024135 -0.999709 0.000000
0.364699 0.393538 0.449071 0.018496 -0.999785 0.009320
0.310171 0.392426 0.337024 0.009198 -0.999958 0.000000
0.130095 0.970337 0.091052 -0.002818 0.994106 0.108372
0.091341 0.687461 0.082906 -0.025385 -0.164897 -0.985984
0.241296 0.821144 0.034705 -0.003270 -0.118672 -0.992928
0.205781 0.624594 0.079205 0.008296 0.113003 0.993560
0.127928 0.852882 0.035354 -0.027435 -0.072106 -0.997020
0.286078 0.391934 0.346121 0.005251 -0.999986 0.000000
0.040816 0.124589 0.304054 -0.095910 0.993416 -0.062657
0.182182 0.108453 0.512597 -0.578785 -0.302202 0.757417
0.384103 0.088083 0.375292 0.372425 -0.795867 -0.477384
0.168881 0.844491 0.054502 -0.013956 -0.080557 -0.996652
0.267972 0.391573 0.155875 -0.000052 -0.999895 -0.014502
0.230337 0.962524 0.102199 -0.002519 0.063500 0.997979
0.358423 0.398541 0.377899 -0.015777 0.999876 -0.000000
0.138374 0.404670 0.412903 -0.020971 -0.999780 -0.000000
0.421559 0.124589 0.170319 -0.173737 0.949601 -0.260908
0.427065 0.400077 0.314017 -0.071147 0.997466 0.000002
0.235440 0.121796 0.438262 0.639569 0.732624 0.232836
0.416425 0.405914 0.456214 0.029625 -0.999561 -0.000031
0.248636 0.226882 0.285453 -0.500092 -0.000009 -0.865972
0.450997 0.653033 0.308937 0.019064 0.997828 -0.063058
0.391973 0.775582 0.065161 0.022675 0.157520 -0.987255
0.434331 0.425557 0.345563 0.981442 -0.191757 0.000000
0.154980 0.393294 0.312998 -0.016119 -0.999870 -0.000002
0.227688 0.609267 0.079579 0.004515 0.086781 0.996217
0.274038 0.205338 0.290814 0.769292 0.000009 -0.638897
0.178763 0.103396 0.098587 -0.835267 -0.381247 -0.396207
0.306584 0.624782 0.073415 0.009884 -0.113864 -0.993447
0.423138 0.941627 0.101809 0.556247 0.062299 0.828679
0.430079 0.394999 0.361214 0.111069 -0.993813 -0.000000
0.439271 0.465391 0.269897 0.999794 -0.020290 -0.000008
0.279618 0.136177 0.316536 0.843709 -0.052733 0.534205
0.126007 0.791781 0.098766 -0.003444 -0.997837 0.065653
0.128734 0.905746 0.037698 0.025143 0.069303 0.997279
0.351284 0.823389 0.056549 0.016250 -0.083782 -0.996352
0.222994 0.124589 0.446834 0.168263 0.983626 0.064557
0.269030 0.391587 0.237770 0.002306 -0.999997 -0.000500
0.162012 0.606302 0.075466 -0.017520 -0.085378 -0.996195
0.267938 0.396559 0.205812 -0.002433 0.999996 0.001355
0.421782 0.394703 0.360825 0.027483 -0.999622 0.000000
0.405639 0.394374 0.413625 0.024967 -0.999683 0.003290
0.072950 0.637104 0.390293 0.043472 0.836289 0.546563
0.068133 0.454571 0.156758 -0.998627 -0.052391 -0.000115
0.358355 0.662405 0.067760 0.020054 -0.189003 -0.981772
0.156874 0.476679 0.125149 -0.004071 -0.999037 -0.043684
0.409110 0.927658 0.030913 0.033195 -0.048952 -0.998249
0.432171 0.542399 0.093080 -0.964568 0.016161 0.263339
0.081364 0.648994 0.295076 0.992135 0.117509 -0.043132
0.075093 0.421068 0.515720 -0.618749 -0.122430 0.775990
0.060965 0.027740 0.330207 0.202023 -0.859059 0.470323
0.238379 0.736343 0.050759 -0.003147 -0.196009 -0.980597
0.442284 0.421628 0.404421 0.999988 0.003850 0.003044
0.060135 0.048874 0.344260 0.187844 0.006987 0.982174
0.276173 0.809398 0.056108 0.003381 -0.085697 -0.996315
0.156153 0.675254 0.143624 -0.004754 0.154073 0.988048
0.250970 0.384875 0.315707 -0.475915 0.107931 0.872844
0.352480 0.393289 0.325141 0.016130 -0.999870 -0.000001
0.203770 0.397874 0.135923 0.006098 0.997921 0.064157
0.084655 0.445624 0.517006 -0.007271 -0.023651 0.999694
0.040927 0.585656 0.428467 -0.744400 -0.309753 -0.591542
0.066922 0.413771 0.321504 -0.980654 -0.195747 -0.000001
0.297136 0.666332 0.144911 0.001078 0.145355 0.989379
0.222273 0.564166 0.095008 -0.004692 -0.069957 -0.997539
0.039880 0.046901 0.299668 -0.164518 -0.975911 -0.143285
0.084960 0.735422 0.054943 -0.128663 -0.183494 -0.974564
0.138530 0.779950 0.123062 -0.006901 0.224960 0.974344
0.160954 0.393173 0.283013 -0.015146 -0.999885 -0.000006
0.340764 0.393050 0.311804 0.014210 -0.999899 -0.000002
0.324732 0.392723 0.376524 0.011584 -0.999933 0.000000
0.158941 0.600994 0.093147 -0.014286 -0.098477 -0.995037
0.253964 0.889549 0.049278 0.000117 -0.070420 -0.997517
0.297849 0.402880 0.137509 0.011970 -0.999928 0.000012
0.373679 0.475731 0.274038 0.004870 0.999988 0.000000
0.340794 0.628630 0.149915 0.002745 0.115623 0.993289
0.101321 0.475733 0.183652 -0.008198 0.999966 0.000042
0.253545 0.343218 0.319484 -0.106966 0.888123 0.446984
0.223489 0.656218 0.146371 -0.001951 0.138423 0.990371
0.250404 0.464405 0.082069 -0.000559 -0.068689 -0.997638
0.281009 0.820130 0.040996 -0.006008 0.121350 0.992592
0.374807 0.475731 0.472916 0.005084 0.999987 -0.000130
0.315811 0.974229 0.047241 0.009276 0.834781 -0.550503
0.166148 0.398173 0.353425 0.013191 0.999913 -0.000000
0.420200 0.394671 0.285443 0.027221 -0.999629 -0.000004
0.094153 0.671859 0.067202 -0.030665 -0.191997 -0.980916
0.071443 0.398343 0.480563 -0.846697 -0.529816 0.048975
0.410651 0.774202 0.046801 0.033779 -0.192118 -0.980790
0.325277 0.618417 0.090846 0.010991 -0.115104 -0.993293
0.068147 0.454429 0.436048 -0.998860 -0.047725 -0.000000
0.380543 0.968526 0.100392 0.001256 0.755124 0.655581
0.078838 0.473664 0.514940 -0.030983 0.791927 0.609829
0.245737 0.194090 0.289929 -0.717639 0.000006 -0.696415
0.306444 0.932184 0.027972 0.010792 -0.041831 -0.999066
0.169698 0.821290 0.113393 -0.004171 0.088355 0.996080
0.192232 0.397604 0.255877 0.009197 0.999958 0.000193
0.354042 0.404322 0.294368 0.018534 -0.999828 0.000000
0.383980 0.791992 0.101816 0.014363 -0.994159 0.106965
0.429009 0.475618 0.467739 0.089036 0.996028 -0.000112
0.244425 0.401976 0.259863 -0.001716 -0.999999 0.000000
0.434240 0.524975 0.103554 -0.958018 0.017545 0.286171
0.125947 0.921312 0.049885 -0.020847 -0.061633 -0.997881
0.231824 0.475731 0.489131 -0.001470 0.999999 -0.000450
0.283770 0.470711 0.088162 -0.005068 0.066480 0.997775
0.150783 0.504773 0.099233 -0.017364 -0.024971 -0.999537
0.435640 0.397957 0.401750 0.820810 -0.571201 0.000967
0.410742 0.044671 0.441538 -0.998304 -0.057962 -0.005412
0.364542 0.514690 0.158286 0.003827 0.029221 0.999566
0.311645 0.520916 0.158061 0.001787 0.034081 0.999418
0.060966 0.625441 0.405135 -0.001149 0.733112 0.680107
0.330900 0.398646 0.107706 0.013383 -0.904721 -0.425794
0.345656 0.958860 0.047103 0.017236 -0.048338 -0.998682
0.256650 0.357926 0.288226 -0.191615 0.078734 -0.978307
0.358891 0.393420 0.451622 0.017561 -0.999799 0.009649
0.269550 0.292754 0.318976 0.557594 0.000005 0.830114
0.389704 0.118382 0.425283 -0.565294 0.067446 0.822128
0.141072 0.476679 0.121380 -0.004246 -0.998528 -0.054073
0.124644 0.785960 0.049863 0.025819 0.187827 0.981863
0.188067 0.078379 0.107779 -0.822420 0.362238 0.438645
0.242306 0.129638 0.321190 -0.635897 -0.159898 0.755028
0.059911 0.552729 0.437196 -0.003167 -0.154779 -0.987944
0.185929 0.116900 0.454014 -0.957809 -0.067709 -0.279314
0.273344 0.240523 0.291287 0.780435 0.000010 -0.625237
0.191185 0.653653 0.086034 -0.009519 -0.140747 -0.990000
0.331657 0.595717 0.093356 0.011962 -0.096966 -0.995216
0.071001 0.421191 0.240451 0.937859 0.347018 0.000257
0.169883 0.392992 0.286014 -0.013693 -0.999906 -0.000005
0.080949 0.777278 0.098069 -0.988158 0.115289 -0.101249
0.107763 0.427702 0.088022 -0.026578 -0.159638 -0.986818
0.173093 0.689106 0.141349 -0.004051 0.164580 0.986356
0.290869 0.790711 0.046354 -0.007681 0.177609 0.984071
0.427888 0.407459 0.264770 0.552794 -0.833318 0.000005
0.311173 0.397506 0.505837 -0.002150 0.997460 0.071190
0.113453 0.405304 0.234742 -0.025718 -0.999669 0.000005
0.340140 0.393037 0.404418 0.014173 -0.999899 0.001105
0.154651 0.531901 0.080198 -0.018816 -0.061245 -0.997945
0.067564 0.444087 0.446375 0.063203 -0.179208 -0.981779
0.210611 0.392165 0.506326 0.007579 -0.996491 0.083357
0.236693 0.859902 0.032104 -0.003748 -0.069952 -0.997543
0.274147 0.728236 0.072096 0.003581 -0.201571 -0.979467
0.273642 0.483236 0.081292 0.003784 -0.064459 -0.997913
0.338566 0.584652 0.082571 -0.014948 0.065146 0.997764
0.155951 0.914559 0.030348 -0.021441 -0.062406 -0.997821
0.328002 0.935692 0.047920 0.012318 -0.055799 -0.998366
0.122592 0.405071 0.163784 -0.022942 -0.999737 0.000110
0.212401 0.475731 0.377732 -0.002944 0.999996 -0.000000
0.387035 0.780002 0.123051 0.004722 0.224301 0.974509
0.207396 0.061052 0.120157 0.992142 0.121214 -0.030995
0.091520 0.394587 0.175110 -0.027265 -0.999550 -0.012534
0.233383 0.916776 0.034077 0.003892 0.077982 0.996947
0.227914 0.876407 0.037036 0.005200 0.069432 0.997573
0.383683 0.445730 0.092280 -0.022352 0.102464 0.994486
0.191550 0.791086 0.088722 -0.002288 -0.998966 0.045415
0.363008 0.710707 0.137602 0.003939 0.178752 0.983886
0.285956 0.651856 0.068135 0.006082 -0.174080 -0.984713
0.299767 0.124589 0.333924 0.038054 0.993429 -0.107941
0.289530 0.803370 0.043779 -0.007732 0.156846 0.987593
0.066252 0.423167 0.395264 -0.488762 0.872417 0.000386
0.409462 0.805979 0.040410 0.033768 -0.162531 -0.986125
0.432997 0.409010 0.131293 -0.950261 0.309713 0.032880
0.279824 0.571827 0.081856 -0.004569 0.062630 0.998026
0.276585 0.098388 0.336585 -0.449077 -0.592523 0.668765
0.300391 0.392226 0.468506 0.009904 -0.999569 0.027646
0.320369 0.392634 0.431384 0.011105 -0.999930 0.004075
0.084634 0.399950 0.216326 0.025112 0.999684 0.000741
0.270229 0.789876 0.119264 -0.001370 0.723606 0.690212
0.181167 0.398164 0.139260 0.008936 0.998974 0.044395
0.435456 0.562480 0.118503 0.979897 -0.013881 -0.199021
0.321493 0.403491 0.343826 0.012549 -0.999921 0.000000
0.127081 0.539168 0.098535 -0.019123 -0.048294 -0.998650
0.229293 0.391786 0.335752 -0.004025 -0.999992 0.000000
0.063373 0.625027 0.395858 0.008347 -0.774553 -0.632454
0.187398 0.475731 0.221715 -0.004166 0.999991 0.000013
0.429683 0.730388 0.130883 0.724212 0.204224 0.658642
0.348011 0.617737 0.074826 0.017854 -0.096918 -0.995132
0.282649 0.396881 0.235548 -0.004470 0.999990 0.000512
0.171807 0.791239 0.090933 -0.002599 -0.998714 0.050629
0.356060 0.477577 0.156372 0.002596 -0.878152 0.478374
0.206282 0.475731 0.475821 -0.002704 0.999996 -0.000171
0.097533 0.429506 0.116272 -0.009263 -0.002208 -0.999955
0.352567 0.677998 0.083095 0.015358 -0.162412 -0.986603
0.144410 0.398785 0.142244 0.014882 0.999513 0.027437
0.292210 0.905760 0.029447 0.008399 -0.069367 -0.997556
0.192218 0.104551 0.318724 -0.027256 -0.414196 0.909780
0.175941 0.595054 0.153452 -0.003910 0.091858 0.995764
0.385968 0.862055 0.054171 0.022055 -0.076552 -0.996822
0.270189 0.402181 0.329794 0.003116 -0.999995 0.000000
0.308005 0.475738 0.158643 0.001350 0.999999 -0.000165
0.058827 0.643651 0.136830 -0.020089 0.998851 -0.043505
0.106855 0.405471 0.493232 -0.028326 -0.999599 -0.000500
0.365661 0.974079 0.056447 0.002606 0.999110 0.042101
0.108083 0.475731 0.288764 -0.008012 0.999968 0.000000
0.086361 0.495482 0.158668 -0.006808 0.023260 0.999706
0.414083 0.399760 0.336771 -0.024187 0.999707 0.000000
0.113597 0.405291 0.129275 -0.023658 -0.999720 -0.000160
0.307505 0.400469 0.117469 -0.008309 0.957627 0.287893
0.357839 0.393398 0.305552 0.017007 -0.999855 -0.000002
0.071853 0.557913 0.083830 -0.844254 -0.032816 -0.534938
0.185764 0.046416 0.136221 -0.269617 -0.962917 0.009887
0.287779 0.396994 0.399946 -0.005043 0.999987 0.000728
0.438537 0.457486 0.332476 0.998592 -0.053049 -0.000000
0.180846 0.621411 0.150774 -0.003713 0.112053 0.993695
0.140456 0.404618 0.234296 -0.020774 -0.999784 0.000006
0.281058 0.402458 0.385349 0.005114 -0.999987 0.000000
0.214361 0.099207 0.223024 -0.819206 -0.518132 0.245846
0.159398 0.475731 0.194603 -0.005356 0.999986 0.000142
0.083418 0.912699 0.061814 0.957947 0.018155 0.286369
0.149409 0.552400 0.097268 -0.015731 -0.059270 -0.998118
0.214192 0.725352 0.059541 0.007608 0.195834 0.980608
0.248459 0.418937 0.087514 0.000138 -0.363059 -0.931766
0.239024 0.712755 0.137220 -0.001284 0.181984 0.983301
0.095142 0.464961 0.116375 -0.003808 0.070993 -0.997470
0.304696 0.392314 0.425159 0.008497 -0.999958 0.003389
0.457030 0.644926 0.168387 0.076206 0.995982 -0.047033
0.137566 0.871031 0.053102 -0.019058 -0.075278 -0.996980
0.114295 0.405282 0.467612 -0.025772 -0.999668 -0.000096
0.262762 0.280676 0.324013 0.187407 -0.000008 0.982282
0.371886 0.728069 0.061083 -0.022260 0.195105 0.980530
0.465067 0.521081 0.442378 0.908721 -0.070391 -0.411425
0.403618 0.405587 0.431809 0.027648 -0.999618 0.000000
0.127928 0.475731 0.346260 -0.007048 0.999975 -0.000000
0.258076 0.260385 0.317977 -0.070662 -0.028730 0.997086
0.202596 0.114865 0.519613 0.565785 -0.275991 0.776992
0.167136 0.399719 0.106403 -0.014705 -0.868324 -0.495780
0.094801 0.667574 0.068037 -0.030398 -0.191337 -0.981054
0.251911 0.475731 0.472734 -0.000602 1.000000 -0.000113
0.436107 0.661162 0.142895 0.694309 0.140468 0.705836
0.115226 0.973570 0.061136 -0.001491 0.999240 0.038943
0.242300 0.093250 0.205742 0.625570 -0.747704 -0.222712
0.346096 0.680095 0.142840 0.003083 0.155416 0.987844
0.334253 0.475359 0.089168 -0.013943 0.065335 0.997766
0.080895 0.438755 0.116554 -0.062585 0.014130 -0.997940
0.155416 0.398407 0.381340 0.014802 0.999890 -0.000000
0.255062 0.835248 0.039220 -0.000424 0.083827 0.996480
0.189690 0.926519 0.034591 0.012383 0.087834 0.996058
0.070364 0.478616 0.136529 -0.770542 -0.634757 -0.057869
0.344872 0.474992 0.121957 0.002988 0.973984 -0.226599
0.240205 0.402268 0.120163 -0.002544 -0.994212 -0.107402
0.430142 0.053301 0.416881 0.082192 0.117822 -0.989627
0.344701 0.649629 0.070004 0.017274 -0.167671 -0.985692
0.052647 0.124589 0.318114 -0.006345 0.977212 0.212171
0.323734 0.704894 0.058434 0.014229 -0.195473 -0.980606
0.053242 0.643468 0.131836 -0.072701 0.996439 -0.042711
0.180966 0.680165 0.063429 -0.013953 -0.194128 -0.980877
0.097987 0.475731 0.298038 -0.008502 0.999964 0.000000
0.346220 0.085582 0.347985 0.378410 -0.787615 -0.486281
0.279571 0.963017 0.045497 0.007366 -0.047514 -0.998843
0.259442 0.855918 0.051904 0.001032 -0.078095 -0.996945
0.439339 0.088938 0.173457 0.899496 -0.280452 -0.335042
0.207396 0.048619 0.117253 0.998905 -0.020723 -0.041944
0.147023 0.475735 0.174876 -0.006124 0.999981 -0.000036
0.124451 0.399085 0.153011 0.018492 0.999748 0.012732
0.230863 0.111150 0.439912 0.905082 -0.278663 0.321206
0.112983 0.472972 0.117790 -0.005948 0.551224 -0.834336
0.255380 0.676676 0.081215 0.000322 -0.160467 -0.987041
0.354678 0.475731 0.260130 0.003907 0.999992 -0.000000
0.342325 0.404023 0.329357 0.016380 -0.999866 0.000000
0.296677 0.597358 0.074836 0.008056 -0.067369 -0.997696
0.086997 0.609564 0.093793 -0.025184 -0.104092 -0.994249
0.208788 0.697372 0.078615 -0.007172 -0.175775 -0.984404
0.429662 0.409145 0.147996 0.793093 -0.609100 -0.000059
0.438252 0.455165 0.098638 0.974513 -0.021955 -0.223256
0.066973 0.423409 0.184996 -0.285310 0.958422 0.005042
0.070406 0.513425 0.440252 0.054456 -0.055776 -0.996957
0.154598 0.475731 0.462854 -0.005139 0.999987 -0.000040
0.209044 0.392197 0.466295 -0.001535 -0.999803 0.019775
0.428369 0.782739 0.069979 0.988841 0.022313 -0.147292
0.146471 0.590307 0.076807 -0.020408 -0.066799 -0.997558
0.090043 0.401724 0.106369 -0.028235 -0.841084 -0.540167
0.449925 0.515773 0.440475 0.020028 -0.057082 -0.998169
0.107137 0.951578 0.102886 -0.007361 0.064832 0.997869
0.147262 0.773215 0.051799 0.021312 0.192876 0.980992
0.193204 0.687924 0.061588 -0.011813 -0.195449 -0.980643
0.186744 0.584022 0.154355 -0.003473 0.083252 0.996522
0.200344 0.932085 0.028002 -0.012225 -0.041971 -0.999044
0.319956 0.085582 0.245564 -0.181651 -0.941103 -0.285181
0.429231 0.408556 0.332624 0.722710 -0.691151 -0.000001
0.314292 0.397574 0.282318 -0.009109 0.999959 0.000003
0.433994 0.506279 0.447614 -0.076674 0.046567 0.995968
0.116481 0.475731 0.266861 -0.007614 0.999971 -0.000000
0.406172 0.112142 0.172242 -0.552161 -0.233713 -0.800310
0.123907 0.865413 0.109530 -0.006496 0.085088 0.996352
0.224995 0.402470 0.417880 -0.005157 -0.999987 -0.000000
0.153889 0.507224 0.087713 0.017532 0.061328 0.997964
0.107473 0.849051 0.036140 -0.031906 -0.073258 -0.996803
0.080649 0.848189 0.051880 -0.980951 -0.015939 -0.193602
0.328271 0.790662 0.082592 0.031100 -0.997568 0.062375
0.286093 0.475731 0.294965 0.000637 1.000000 0.000000
0.253697 0.195616 0.288880 -0.293517 -0.099573 -0.950754
0.323955 0.392707 0.491214 0.017451 -0.997703 0.065454
0.189802 0.890502 0.050560 -0.010426 -0.070402 -0.997464
0.362998 0.753383 0.049722 0.023076 -0.194999 -0.980532
0.327231 0.403637 0.384039 0.013604 -0.999907 0.000000
0.338030 0.575910 0.077138 0.015994 -0.063301 -0.997866
0.169387 0.477147 0.102455 -0.008060 -0.951479 -0.307609
0.306413 0.831992 0.034950 0.011212 -0.092567 -0.995643
0.197496 0.655921 0.067903 -0.010694 -0.184876 -0.982704
0.073666 0.710467 0.075434 -0.978583 0.060585 -0.196735
0.351979 0.735933 0.058972 -0.018565 0.195296 0.980569
0.073206 0.423068 0.116211 -0.893626 -0.231113 -0.384733
0.119087 0.869803 0.109153 -0.006700 0.084559 0.996396
0.236051 0.781431 0.078233 -0.000411 0.951342 -0.308136
0.415435 0.475731 0.252709 0.006837 0.999977 -0.000000
0.176855 0.790211 0.076072 -0.002182 -0.999686 0.024978
0.423080 0.911395 0.058073 -0.959320 0.015172 0.281912
0.220130 0.421042 0.087502 -0.004933 -0.315884 -0.948785
0.277579 0.475736 0.167654 -0.000010 1.000000 -0.000087
0.151021 0.953340 0.033783 0.015468 0.319059 0.947609
0.087236 0.876098 0.045128 0.969584 0.015562 0.244265
0.334809 0.403830 0.491775 0.013286 -0.999912 -0.000480
0.439243 0.466912 0.149495 0.998701 0.050951 -0.000425
0.386328 0.926860 0.036445 -0.027256 0.089848 0.995582
0.070643 0.429369 0.450315 -0.987002 -0.160707 -0.000022
0.051828 0.036422 0.298800 0.053580 -0.555175 -0.830006
0.135070 0.513969 0.158300 -0.004989 0.031734 0.999484
0.129029 0.520558 0.099248 -0.019097 -0.034136 -0.999235
0.141459 0.451718 0.085463 -0.020840 -0.091753 -0.995564
0.272561 0.396665 0.158674 -0.005376 0.999889 0.013877
0.069008 0.497441 0.129326 -0.993424 -0.001497 -0.114486
0.089602 0.814333 0.045621 0.483266 0.127122 0.866195
0.125072 0.399068 0.333484 0.019356 0.999813 0.000000
0.274998 0.396714 0.330816 -0.003169 0.999995 0.000000
