0.242681 0.102494 0.334219 -0.063076 -0.997298 -0.037654
0.334662 0.930157 0.619497 0.035123 0.451088 -0.891788
0.332841 0.448627 0.527918 -0.012132 0.999744 -0.019079
0.629795 0.630482 0.340059 0.014453 -0.999781 0.015121
0.641789 0.630482 0.243342 0.012839 -0.999917 -0.000683
0.310153 0.430271 0.241397 -0.011802 -0.988749 -0.149119
0.582916 0.764732 0.620859 0.460941 -0.208534 0.862581
0.409317 0.927204 0.617968 -0.051694 0.450165 -0.891448
0.611546 0.489251 0.489315 0.975335 0.109372 0.191728
0.194527 0.448265 0.394789 -0.055397 0.997904 0.033454
0.268222 0.430272 0.523567 -0.031217 -0.992286 0.119977
0.263809 0.617415 0.598629 -0.003521 -0.111382 0.993771
0.173860 0.763225 0.625891 -0.166722 -0.256288 0.952114
0.602676 0.425517 0.449744 0.080969 -0.069035 -0.994323
0.078934 0.663869 0.437728 -0.042682 0.998614 0.030784
0.094759 0.086181 0.270758 -0.206312 -0.349417 0.913971
0.071981 0.089708 0.292929 0.169044 0.845169 0.507063
0.401773 0.214212 0.393504 0.946622 0.063759 0.315977
0.148634 0.433930 0.516332 -0.038176 -0.925165 -0.377641
0.122970 0.497580 0.394024 -0.988407 0.150892 0.016811
0.399227 0.563686 0.594048 0.000274 0.137606 -0.990487
0.308347 0.433203 0.268745 -0.005409 -0.999929 -0.010649
0.198615 0.123754 0.348160 -0.336373 0.001785 0.941727
0.367838 0.520392 0.373352 0.009650 0.999953 0.000658
0.195969 0.448264 0.263222 -0.069739 0.996719 -0.041073
0.207096 0.488984 0.135560 -0.056597 0.133636 -0.989413
0.388845 0.433140 0.479615 -0.001727 -0.999933 0.011477
0.217540 0.534723 0.376697 0.094098 0.995560 0.002203
0.243960 0.433928 0.175914 -0.018163 -0.923703 0.382678
0.483920 0.621070 0.598948 0.005160 -0.118372 0.992956
0.122801 0.493985 0.355624 -0.992512 0.122042 0.005128
0.578535 0.430271 0.216263 0.083891 -0.994599 -0.061112
0.146520 0.799913 0.574823 -0.949530 0.180516 -0.256530
0.612862 0.465495 0.292293 0.924616 -0.380348 -0.020528
0.131135 0.602476 0.536730 -0.950302 -0.019169 -0.310739
0.214939 0.843123 0.654937 -0.022973 -0.307867 0.951152
0.203746 0.690781 0.531001 0.083035 0.216677 -0.972706
0.327554 0.415535 0.486266 -0.078634 -0.979096 0.187583
0.167906 0.430272 0.424616 -0.080483 -0.996495 0.022810
0.454765 0.638903 0.600508 0.001857 -0.144755 0.989466
0.466509 0.448265 0.429908 0.057047 0.997366 0.044800
0.454866 0.447176 0.532592 0.015820 0.917926 0.396437
0.061669 0.039603 0.295738 -0.264853 -0.020943 0.964061
0.554826 0.445472 0.201633 0.073785 -0.995930 -0.051766
0.478696 0.567226 0.527409 -0.081811 -0.081191 -0.993335
0.587061 0.448265 0.210254 0.080906 0.995224 -0.054629
0.358371 0.132778 0.432426 0.779948 0.000527 0.625844
0.232439 0.444504 0.339321 -0.007424 -0.999971 -0.001404
0.612038 0.438441 0.508267 0.945033 -0.044852 -0.323883
0.368860 0.356106 0.382351 -0.055451 -0.944582 0.323557
0.448420 0.418369 0.449745 0.019548 -0.126805 -0.991735
0.336451 0.874750 0.598397 0.035937 0.296845 -0.954249
0.407217 0.415535 0.312506 -0.068537 -0.996623 -0.045234
0.426067 0.430271 0.151170 0.028334 -0.996685 -0.076260
0.230721 0.145971 0.317294 -0.048310 0.994920 -0.088315
0.386285 0.618307 0.600569 -0.001140 0.108158 -0.994133
0.380424 0.448265 0.293221 0.007833 0.999886 -0.012933
0.352622 0.433161 0.330698 -0.004741 -0.999986 -0.002158
0.209326 0.925733 0.601009 -0.050777 0.439095 -0.897005
0.381829 0.633728 0.614041 -0.002082 -0.154422 0.988003
0.199784 0.426636 0.293725 -0.045735 0.280441 -0.958781
0.572259 0.535888 0.359080 0.138233 0.990399 -0.001254
0.552134 0.844538 0.652846 0.162165 -0.285372 0.944598
0.252607 0.114165 0.319343 0.267430 -0.050848 -0.962235
0.496432 0.595281 0.596695 0.006557 -0.078286 0.996909
0.242503 0.113438 0.516335 -0.839115 -0.008423 -0.543890
0.263133 0.415535 0.421043 -0.276242 -0.952204 0.130378
0.101159 0.622851 0.455213 -0.992774 0.072060 -0.095958
0.465238 0.552677 0.531170 -0.069983 -0.140767 -0.987566
0.380133 0.448265 0.513821 0.031743 0.995858 0.085205
0.611314 0.094571 0.295094 -0.174063 -0.984584 0.017222
0.229968 0.940843 0.684948 -0.033304 0.012772 0.999364
0.209406 0.789373 0.637318 -0.023550 -0.287528 0.957483
0.630116 0.600676 0.449746 0.175207 0.017458 -0.984377
0.567091 0.430471 0.150660 0.067351 -0.986008 -0.152484
0.340085 0.459091 0.137724 -0.002485 -0.534632 -0.845081
0.244474 0.530168 0.378777 0.084139 0.996454 0.000092
0.247986 0.529574 0.316257 0.082057 0.996618 -0.004397
0.372847 0.622483 0.612980 -0.003139 -0.141590 0.989920
0.123578 0.510498 0.253444 -0.978645 0.203990 -0.025356
0.294996 0.542788 0.591652 -0.050215 0.176275 -0.983059
0.229035 0.430271 0.176468 -0.031191 -0.995691 -0.087336
0.309921 0.700966 0.548216 0.053494 0.190251 -0.980277
0.290579 0.520157 0.509135 0.068608 0.991158 0.113577
0.446977 0.430271 0.153534 0.033344 -0.996288 -0.079359
0.612790 0.512960 0.263202 0.978809 0.204186 -0.015543
0.258232 0.415535 0.388211 -0.154151 -0.988020 0.007367
0.122231 0.481873 0.236731 -0.998947 0.031669 -0.033203
0.351908 0.520392 0.341246 0.024061 0.999710 -0.001080
0.388938 0.736525 0.634600 -0.001023 -0.253179 0.967419
0.142087 0.451350 0.388641 -0.313824 -0.949479 0.001817
0.477041 0.853405 0.658398 0.006404 -0.310901 0.950421
0.057069 0.087022 0.265627 -0.082035 -0.996628 0.001847
0.282868 0.927637 0.612838 0.084398 0.434947 -0.896492
0.357534 0.448642 0.380563 -0.005964 0.999928 -0.010449
0.422342 0.695993 0.625567 0.002645 -0.222987 0.974818
0.639222 0.630482 0.474120 0.012097 -0.999079 0.041168
0.369521 0.618697 0.600614 -0.002978 0.107914 -0.994156
0.295058 0.147895 0.478004 -0.058422 0.997315 0.044161
0.388601 0.072532 0.073102 0.992871 0.091726 0.076111
0.475321 0.428042 0.450467 -0.001267 0.665756 -0.746168
0.477338 0.448265 0.198070 0.035946 0.997494 -0.060933
0.110580 0.112338 0.319129 -0.332131 0.000981 0.943233
0.303251 0.415535 0.308466 -0.083369 -0.993376 -0.079077
0.563383 0.430271 0.199410 0.093931 -0.993264 -0.067843
0.239074 0.805617 0.565115 0.091214 0.284735 -0.954257
0.559425 0.098123 0.308173 -0.138420 -0.990374 -0.000013
0.306578 0.444499 0.221227 -0.000154 -0.999994 -0.003412
0.416386 0.571113 0.594952 0.002057 0.134148 -0.990959
0.269853 0.590172 0.596456 -0.002980 -0.073980 0.997255
0.419401 0.765596 0.630663 0.002527 0.303022 -0.952980
0.430755 0.612928 0.600033 0.003636 0.109581 -0.993971
0.407990 0.434917 0.560068 0.002276 -0.975999 0.217765
0.343227 0.583481 0.596308 -0.000154 -0.058160 0.998307
0.545986 0.966217 0.633493 0.509948 0.860189 0.005354
0.649761 0.136226 0.304627 0.066477 0.997784 -0.002804
0.509792 0.100459 0.612472 -0.797891 -0.022081 0.602398
0.573846 0.448265 0.194785 0.073999 0.995433 -0.060309
0.552222 0.088410 0.660021 0.521729 0.327462 0.787761
0.635008 0.643152 0.530143 0.017195 -0.018478 0.999681
0.178242 0.448264 0.245973 -0.078757 0.995543 -0.051884
0.247387 0.098711 0.534957 0.015711 -0.998690 -0.048701
0.605649 0.649307 0.546148 0.962674 0.089085 -0.255581
0.504143 0.444504 0.363721 0.008124 -0.999967 -0.000399
0.424099 0.415535 0.295031 0.051737 -0.995602 0.078108
0.195874 0.455129 0.540934 -0.036943 -0.851397 0.523219
0.157139 0.415188 0.462100 -0.006529 -0.812009 0.583609
0.320340 0.939066 0.685589 -0.003333 -0.097470 0.995233
0.176432 0.834636 0.573487 -0.182405 0.303750 -0.935128
0.382395 0.044365 0.079597 0.693820 0.322007 -0.644147
0.491202 0.430271 0.305229 0.134513 -0.990465 -0.029748
0.447574 0.444499 0.427032 0.001025 -0.999999 0.000872
0.394413 0.433138 0.517547 -0.000465 -0.999882 0.015344
0.602025 0.663869 0.381687 -0.035349 0.999139 0.021710
0.443651 0.444499 0.302970 0.000427 -0.999991 -0.004190
0.515167 0.588487 0.596409 0.008094 -0.071794 0.997387
0.673787 0.060239 0.257653 0.420045 0.607087 -0.674543
0.182885 0.876455 0.586451 -0.165347 0.320131 -0.932833
0.353977 0.520369 0.215773 0.018344 0.999799 -0.008122
0.400866 0.733408 0.633911 0.000386 -0.252972 0.967474
0.293070 0.518583 0.169955 0.067962 0.983635 -0.166861
0.125195 0.630482 0.266209 0.015882 -0.999869 0.003057
0.151701 0.061441 0.653586 -0.790731 -0.003883 -0.612151
0.149124 0.448265 0.370442 -0.076393 0.996934 0.016902
0.141901 0.531201 0.458099 -0.284360 0.958676 0.008912
0.336399 0.224793 0.364295 -0.896254 0.092612 -0.433764
0.254880 0.520642 0.575387 -0.028230 -0.949366 0.312902
0.203223 0.087076 0.630514 -0.028667 -0.997769 -0.060294
0.383829 0.448265 0.297938 0.009738 0.999902 -0.010049
0.383523 0.520392 0.333066 -0.000673 1.000000 -0.000491
0.444232 0.448094 0.306703 0.119475 0.990659 -0.065734
0.146627 0.118413 0.284397 0.288079 0.003564 -0.957600
0.507579 0.960542 0.622766 -0.098476 0.606661 -0.788837
0.570734 0.531569 0.169317 0.183343 0.958015 -0.220436
0.415758 0.453651 0.540889 0.002537 -0.897858 0.440278
0.563049 0.615974 0.520886 0.113835 0.110136 -0.987376
0.547482 0.087164 0.631675 0.013815 -0.999786 0.015372
0.532541 0.517562 0.550812 0.050753 0.296922 0.953552
0.286317 0.436828 0.334321 -0.954264 -0.028678 -0.297588
0.479352 0.444502 0.354199 0.005065 -0.999984 -0.002637
0.332508 0.444897 0.200109 -0.000207 -0.999225 -0.039361
0.370912 0.917072 0.680568 -0.000550 -0.289727 0.957109
0.494024 0.435436 0.178013 0.007410 -0.636068 0.771598
0.535045 0.448265 0.280709 0.068076 0.997437 -0.022045
0.217754 0.870210 0.581387 0.095424 0.318921 -0.942965
0.575387 0.535375 0.350892 0.155487 0.987835 -0.002330
0.364967 0.415535 0.393980 -0.008975 -0.999958 -0.001710
0.282527 0.490419 0.551824 -0.004016 0.188738 0.982019
0.500653 0.531022 0.248258 -0.095211 0.995439 -0.006053
0.240661 0.525501 0.161578 0.084740 0.966022 -0.244174
0.541754 0.051266 0.649698 -0.845261 -0.047080 0.532275
0.515025 0.143699 0.310728 -0.216448 0.456227 -0.863138
0.344339 0.122741 0.074500 -0.998912 0.010083 -0.045522
0.540908 0.131861 0.302105 -0.277055 0.013491 -0.960759
0.401429 0.876656 0.666012 0.000286 -0.313969 0.949433
0.400829 0.448265 0.380658 0.025619 0.999277 0.028097
0.595735 0.554173 0.566542 0.858113 -0.511980 0.038967
0.599973 0.713631 0.570665 0.982355 0.123883 -0.140116
0.246600 0.444503 0.258440 -0.005271 -0.999972 -0.005256
0.372171 0.607585 0.611582 -0.003736 -0.132190 0.991217
0.178182 0.054838 0.617008 -0.761600 -0.026253 -0.647515
0.425396 0.433113 0.379911 0.002773 -0.999976 0.006378
0.093579 0.630482 0.271062 -0.001822 -0.999991 0.003817
0.578934 0.448265 0.271667 0.084428 0.996023 -0.028458
0.371074 0.868625 0.663383 -0.000018 -0.309200 0.950997
0.146900 0.664639 0.532205 -0.346037 0.179131 -0.920961
0.575508 0.647099 0.525308 0.181790 0.156039 -0.970878
0.366986 0.638231 0.600450 -0.000011 -0.144394 0.989520
0.258871 0.415535 0.383294 -0.151829 -0.988391 0.005668
0.321026 0.433187 0.482968 -0.011425 -0.999920 0.005505
0.347323 0.424317 0.306854 -0.007554 -0.092102 0.995721
0.375555 0.448656 0.384374 -0.005840 0.999937 -0.009565
0.492870 0.529582 0.415710 -0.095031 0.995466 0.004116
0.336363 0.436980 0.567006 -0.004901 -0.930443 0.366405
0.377743 0.283426 0.346569 0.306202 0.026297 -0.951603
0.586899 0.661977 0.244514 -0.786273 0.617855 -0.005384
0.164965 0.895087 0.662020 -0.599948 -0.145623 0.786674
0.361942 0.520392 0.332182 0.016532 0.999863 -0.001150
0.299571 0.448265 0.444039 -0.007816 0.998117 0.060835
0.272691 0.734749 0.620718 -0.003044 -0.247700 0.968832
0.286230 0.444500 0.319415 -0.001763 -0.999998 -0.000541
0.200218 0.089202 0.639502 0.064309 0.996821 0.047028
0.372785 0.430271 0.205589 -0.000072 -0.992815 -0.119656
0.388793 0.097878 0.082114 0.998261 -0.043369 -0.039920
0.514515 0.414200 0.305097 0.006435 -0.946514 0.322600
0.223509 0.527133 0.585988 -0.025164 -0.639623 0.768277
0.533963 0.537185 0.353267 -0.106318 0.994332 0.001025
0.178460 0.087124 0.628631 -0.000178 -0.999691 0.024869
0.248285 0.544679 0.528376 0.074039 -0.219678 -0.972759
0.168889 0.671398 0.603892 -0.136919 -0.185316 0.973094
0.171640 0.471351 0.140668 -0.346729 -0.255367 -0.902533
0.133575 0.445315 0.341169 -0.791751 0.610842 -0.001357
0.575861 0.511630 0.147553 0.478006 0.210825 -0.852680
0.168769 0.446149 0.339881 -0.115283 -0.993331 -0.001722
0.148145 0.807756 0.625052 -0.911357 -0.007110 0.411555
0.306025 0.150183 0.444972 -0.080695 0.996305 0.029406
0.334827 0.415535 0.448263 0.010149 -0.994249 0.106608
0.359096 0.587277 0.596393 -0.000063 -0.065590 0.997847
0.335088 0.390081 0.367305 -0.909976 0.272520 -0.312532
0.372524 0.962207 0.640199 -0.008119 0.732160 -0.681084
0.575555 0.064974 0.669958 0.540620 0.324426 0.776195
0.411805 0.514867 0.158911 -0.033246 0.973538 -0.226095
0.327263 0.106723 0.439837 -0.050138 -0.993538 0.101826
0.433808 0.444499 0.278485 0.000319 -0.999988 -0.004908
0.156591 0.438408 0.512871 -0.032209 -0.121212 -0.992104
0.523206 0.115361 0.630869 -0.802240 0.009648 0.596923
0.367939 0.415535 0.414972 0.057152 -0.997558 0.040155
0.206258 0.536631 0.327285 0.097979 0.995188 -0.000892
0.162006 0.447072 0.370978 -0.151785 -0.988413 -0.001413
0.388878 0.649259 0.603546 -0.000786 0.120206 -0.992749
0.431208 0.430271 0.206677 0.015364 -0.992208 -0.123639
0.434600 0.760825 0.629017 0.027519 0.294206 -0.955346
0.170090 0.612331 0.596291 -0.115855 -0.111376 0.987002
0.547183 0.101475 0.346697 0.299745 -0.309460 0.902434
0.366019 0.444499 0.313649 0.000116 -0.999999 -0.001399
0.236439 0.430271 0.204206 -0.027323 -0.993235 -0.112865
0.297341 0.146197 0.440598 -0.845123 0.048133 -0.532401
0.156903 0.430272 0.458900 -0.075839 -0.996273 0.041095
0.386337 0.107301 0.313788 0.073348 -0.997305 0.001562
0.292323 0.522076 0.258440 0.062305 0.998038 -0.006117
0.190462 0.660751 0.524877 -0.018265 0.181679 -0.983188
0.382166 0.743211 0.636089 -0.001779 -0.257849 0.966184
0.147651 0.551112 0.583637 -0.639686 -0.488357 0.593557
0.290097 0.447723 0.366066 -0.192463 0.975146 -0.109766
0.303439 0.444499 0.456096 -0.000484 -0.999984 0.005592
0.440293 0.448528 0.447268 0.065647 0.997367 -0.030812
0.358847 0.318584 0.415038 -0.332223 0.031864 0.942662
0.375476 0.031178 0.073527 0.020329 -0.804584 0.593491
0.668872 0.086989 0.302835 -0.035080 -0.991111 -0.128326
0.348644 0.028622 0.048835 -0.984433 0.175567 0.008190
0.318101 0.433190 0.523250 -0.012055 -0.999893 0.008291
0.301468 0.603172 0.532827 0.049379 0.065093 -0.996657
0.150607 0.657432 0.411491 0.998657 0.048045 0.019399
0.339386 0.438179 0.167895 -0.004032 -0.184194 -0.982882
0.585875 0.650614 0.357611 -0.999919 0.010191 -0.007582
0.358215 0.067666 0.027859 -0.011187 0.380360 -0.924771
0.607618 0.524688 0.337532 0.753566 0.657116 0.018352
0.601214 0.454008 0.467722 0.450285 -0.892808 0.011666
0.598432 0.479290 0.521844 0.825691 -0.017690 0.563846
0.411052 0.805572 0.656841 0.002384 -0.239649 0.970857
0.175414 0.448265 0.429161 -0.059119 0.996909 0.051734
0.441390 0.448439 0.542814 0.097808 0.994796 -0.028528
0.163294 0.034802 0.659070 -0.439266 -0.663883 0.605231
0.181418 0.956747 0.641129 -0.660512 0.742833 0.109195
0.155824 0.534509 0.408268 -0.173771 0.984779 0.003727
0.578598 0.448265 0.260256 0.083050 0.995992 -0.033218
0.613433 0.499287 0.381999 0.989075 0.146594 0.015514
0.176655 0.881138 0.662284 -0.272021 -0.278493 0.921111
0.607101 0.114566 0.280915 -0.256648 0.000081 -0.966505
0.229263 0.146001 0.323264 -0.049059 0.995772 -0.077660
0.229534 0.874963 0.584745 0.096612 0.318623 -0.942945
0.565949 0.827487 0.572479 0.236004 0.301243 -0.923880
0.458071 0.448265 0.314365 0.041203 0.999145 -0.003265
0.612038 0.439675 0.166973 0.964835 0.022380 -0.261901
0.576776 0.133229 0.290625 -0.286133 0.019655 -0.957988
0.122802 0.472500 0.355521 -0.982523 -0.186104 0.003819
0.385382 0.444070 0.170317 0.002595 0.815580 -0.578638
0.306679 0.613412 0.612090 -0.011626 -0.132318 0.991139
0.351146 0.042460 0.056992 -0.999879 0.015503 -0.000782
0.349500 0.444499 0.462522 -0.000163 -0.999989 0.004715
0.361524 0.097535 0.173491 0.009638 -0.999953 0.000569
0.378136 0.825000 0.691944 0.006202 0.018228 0.999815
0.597385 0.630482 0.487694 -0.064129 -0.996193 0.059055
0.350011 0.676451 0.609380 -0.005948 0.227143 -0.973843
0.573308 0.535716 0.257283 0.137408 0.990502 -0.005002
0.178215 0.448265 0.311710 -0.071404 0.997340 -0.014650
0.215036 0.433918 0.175888 -0.022372 -0.927538 0.373060
0.550710 0.448265 0.159477 0.060857 0.995083 -0.078139
0.670638 0.033252 0.267842 -0.308379 0.109719 -0.944915
0.342844 0.048743 0.055622 -0.302153 -0.952345 0.041734
0.676769 0.125107 0.271936 0.704734 0.055720 -0.707280
0.243001 0.499158 0.136338 -0.025311 0.245209 -0.969140
0.634167 0.577517 0.294915 0.685231 0.061552 -0.725720
0.357321 0.433157 0.303503 -0.003617 -0.999987 -0.003567
0.520092 0.534619 0.227009 -0.107271 0.994196 -0.008147
0.356106 0.415535 0.422791 -0.006935 -0.999927 0.009921
0.062818 0.093149 0.265120 -0.546737 -0.184515 -0.816721
0.276670 0.920639 0.681514 -0.005540 -0.264944 0.964248
0.331763 0.108575 0.351701 -0.059285 -0.986390 -0.153365
0.117195 0.541940 0.452872 0.965716 0.042459 -0.256104
0.203056 0.052666 0.623745 0.607637 -0.111361 -0.786369
0.321236 0.107899 0.351561 -0.040461 -0.996266 -0.076271
0.288856 0.667085 0.618005 -0.275152 -0.190695 0.942299
0.130957 0.606619 0.580366 -0.924774 -0.039688 0.378440
0.441200 0.108912 0.443387 0.859842 -0.045925 -0.508490
0.547434 0.448265 0.366181 0.082247 0.996526 0.013100
0.272577 0.447058 0.148242 -0.062265 0.857691 -0.510382
0.263307 0.562572 0.595031 -0.004192 -0.100587 0.994919
0.536001 0.144279 0.332790 0.079711 0.996794 0.006921
0.520668 0.448265 0.288467 0.063229 0.997838 -0.017925
0.130684 0.652778 0.549178 -0.969143 0.094034 -0.227860
0.515843 0.672443 0.606469 0.004282 -0.209530 0.977793
0.220483 0.120737 0.308751 0.281878 -0.032507 -0.958899
0.101156 0.523782 0.456581 -0.998023 0.023121 -0.058450
0.428386 0.968646 0.652762 -0.019024 0.995903 0.088402
0.451011 0.448265 0.448487 0.052890 0.997164 0.053543
0.449286 0.448265 0.340574 0.040555 0.999143 0.008293
0.693635 0.065909 0.292713 0.392595 0.108825 0.913251
0.245596 0.708758 0.540873 0.082820 0.220487 -0.971867
0.435129 0.584724 0.596613 0.004001 0.127996 -0.991767
0.274623 0.525069 0.246232 0.069349 0.997569 -0.006880
0.323541 0.444499 0.410712 -0.000280 -0.999994 0.003380
0.605577 0.639750 0.582693 0.936231 -0.013318 0.351134
0.295870 0.444499 0.428631 -0.001037 -0.999991 0.004189
0.344314 0.102182 0.070227 -0.998315 -0.042028 -0.040011
0.196221 0.636441 0.600120 -0.024579 -0.155892 0.987468
0.158739 0.430271 0.154989 -0.044483 -0.996870 -0.065358
0.103840 0.630482 0.315965 0.008004 -0.999906 0.011171
0.178756 0.559080 0.593303 -0.105026 -0.137913 0.984860
0.352394 0.433167 0.532222 -0.006722 -0.999900 0.012469
0.555639 0.082393 0.631091 -0.265417 0.881207 -0.391187
0.255304 0.448265 0.514204 -0.017786 0.995525 0.092811
0.633151 0.460386 0.293899 0.277645 0.003570 -0.960677
0.344932 0.415484 0.353779 -0.573420 0.252703 -0.779314
0.067483 0.652975 0.460256 -0.999419 0.019968 0.027617
0.317539 0.701079 0.548240 0.047436 0.191879 -0.980272
0.150541 0.842713 0.618648 -0.990791 0.133151 -0.024560
0.347479 0.433170 0.518183 -0.007625 -0.999913 0.010755
0.226243 0.941020 0.684913 -0.035242 0.022816 0.999118
0.215867 0.100733 0.308736 0.184113 -0.855752 -0.483520
0.549788 0.537764 0.470267 0.011616 0.999923 0.004325
0.397610 0.829492 0.653199 -0.000279 0.378405 -0.925640
0.496901 0.448265 0.286964 0.053643 0.998413 -0.017127
0.358945 0.520392 0.320370 0.018434 0.999829 -0.001726
0.385269 0.699580 0.626346 -0.001789 -0.217943 0.975960
0.143483 0.765508 0.612975 -0.899455 -0.016395 0.436706
0.435803 0.449916 0.159451 0.002851 -0.970323 -0.241796
0.489701 0.430271 0.248382 0.110362 -0.974892 -0.193406
0.424760 0.577330 0.607602 0.003249 -0.194219 0.980953
0.212469 0.901664 0.675090 -0.051066 -0.326644 0.943767
0.283166 0.430271 0.175348 -0.016355 -0.995873 -0.089272
0.348363 0.448631 0.275366 0.000798 0.999972 -0.007483
0.205603 0.071946 0.632001 0.734260 0.507867 -0.450481
0.495389 0.139216 0.590539 -0.411165 0.831178 0.374281
0.309766 0.857103 0.666604 -0.053380 0.967702 0.246380
0.555158 0.701978 0.534552 0.095429 0.222958 -0.970146
0.619635 0.137957 0.293608 0.054234 0.997763 -0.039093
0.146983 0.434643 0.535572 -0.091331 -0.484055 0.870258
0.440807 0.433323 0.268917 0.051412 -0.997812 -0.041564
0.523969 0.094398 0.594086 -0.060707 -0.992299 -0.107964
0.388627 0.072481 0.077881 0.990990 0.010685 0.133507
0.207352 0.137621 0.565278 -0.776573 0.361272 -0.516155
0.605980 0.525966 0.223136 0.676028 0.736794 -0.010935
0.345827 0.433166 0.353105 -0.005882 -0.999982 -0.001121
0.124393 0.663869 0.269192 -0.001495 0.999993 0.003511
0.170783 0.445965 0.309909 -0.104986 -0.994469 -0.002983
0.359464 0.102193 0.242856 -0.015050 -0.999514 -0.027295
0.546829 0.143645 0.336180 0.084063 0.996148 0.024969
0.612467 0.519816 0.411170 0.951034 0.307734 0.028872
0.623328 0.111881 0.275721 -0.257439 -0.003278 -0.966289
0.390561 0.623456 0.599160 0.000126 -0.124523 0.992217
0.164611 0.686599 0.533209 -0.174546 0.206500 -0.962752
0.383384 0.448265 0.505069 0.032096 0.996168 0.081353
0.496637 0.448265 0.430266 0.069033 0.996683 0.043106
0.430402 0.951409 0.631901 -0.059066 0.585804 -0.808298
0.233721 0.430271 0.457890 -0.256515 -0.966421 0.015176
0.406691 0.867691 0.596132 -0.043263 0.302061 -0.952306
0.126843 0.663869 0.460161 0.038234 0.998126 0.047777
0.333638 0.492085 0.136168 0.007514 0.217011 -0.976140
0.371583 0.369348 0.416228 -0.015462 0.091714 0.995665
0.375072 0.444499 0.303917 0.000140 -0.999998 -0.002076
0.385461 0.079231 0.063332 -0.995559 -0.091527 -0.022023
0.280990 0.415535 0.424173 -0.023232 -0.999724 -0.003488
0.197735 0.104824 0.578169 -0.838425 -0.021378 -0.544598
0.351508 0.226035 0.349087 -0.454254 0.077416 -0.887502
0.585873 0.657686 0.255882 -0.999297 0.034135 -0.015506
0.384556 0.521453 0.548098 -0.003876 -0.945925 -0.324362
0.471411 0.430271 0.205916 0.026371 -0.991796 -0.125083
0.476304 0.415535 0.326268 0.140602 -0.988783 -0.050381
0.467603 0.524906 0.370217 -0.087473 0.996167 0.000776
0.362994 0.457022 0.591950 -0.003935 -0.261227 0.965269
0.278452 0.524422 0.436159 0.071888 0.997411 0.001918
0.464219 0.962456 0.633747 -0.072037 0.714344 -0.696077
0.428627 0.954596 0.684750 0.009302 0.590380 0.807072
0.523299 0.444741 0.207796 0.008273 -0.999314 -0.036107
0.169176 0.448265 0.319086 -0.074193 0.997183 -0.011010
0.463423 0.524133 0.384651 -0.086347 0.996264 0.001602
0.629953 0.663869 0.420056 0.005568 0.999464 0.032254
0.165509 0.430271 0.276111 -0.071207 -0.997012 -0.029946
0.336604 0.786797 0.691708 -0.284433 -0.114420 0.951843
0.417528 0.573037 0.533049 -0.039212 -0.047073 -0.998122
0.514291 0.428638 0.305534 -0.006128 0.781624 0.623720
0.148922 0.533036 0.450377 -0.221273 0.975192 0.006188
0.097191 0.663869 0.462523 -0.015764 0.999157 0.037902
0.555103 0.088548 0.602447 -0.454383 0.451625 -0.767835
0.127829 0.630482 0.514363 0.019889 -0.998606 0.048899
0.132091 0.440481 0.303502 -0.996396 0.081221 -0.024462
0.346455 0.415535 0.390062 -0.000992 -0.999326 0.036710
0.122264 0.482582 0.324527 -0.998760 0.049448 -0.005709
0.396981 0.167614 0.402330 0.818327 0.027037 0.574117
0.385379 0.044036 0.048843 -0.973398 -0.099545 -0.206365
0.205852 0.448265 0.523188 -0.036391 0.994379 0.099430
0.240116 0.842457 0.576600 0.091268 0.300818 -0.949304
0.412064 0.447168 0.148502 -0.021307 0.881498 -0.471708
0.582990 0.686736 0.604175 0.250770 -0.185109 0.950184
0.481978 0.908765 0.600006 -0.098513 0.329408 -0.939034
0.510074 0.653605 0.526827 -0.086425 0.178050 -0.980219
0.673158 0.084739 0.296854 -0.263924 0.952369 0.152768
0.625318 0.137635 0.295926 0.056723 0.997882 -0.031835
0.384908 0.444786 0.483062 0.000077 -0.999556 0.029811
0.415112 0.759653 0.627717 0.000211 -0.272613 0.962124
0.557960 0.441550 0.168267 0.028415 0.370233 -0.928504
0.347300 0.448265 0.466987 0.013649 0.997619 0.067596
0.361893 0.775856 0.672203 -0.177639 -0.655909 -0.733640
0.407680 0.448678 0.327574 -0.001209 0.999981 -0.006007
0.168811 0.583919 0.594235 -0.117427 -0.053360 0.991647
0.205228 0.507054 0.551345 -0.030375 0.260008 0.965129
0.301298 0.625788 0.534776 0.053251 0.101086 -0.993451
0.351416 0.448265 0.216420 -0.012546 0.998223 -0.058247
0.646775 0.630482 0.425606 0.031700 -0.999073 0.029127
0.503281 0.455753 0.144587 0.022442 -0.802644 -0.596036
0.134273 0.684741 0.590535 -0.928825 0.012545 0.370306
0.395225 0.433277 0.548414 -0.000381 -0.999003 0.044640
0.512115 0.839784 0.573212 -0.108769 0.305616 -0.945922
0.233314 0.444504 0.328798 -0.007077 -0.999972 -0.002296
0.168540 0.120522 0.618752 -0.853922 0.028588 -0.519615
0.446827 0.825888 0.649395 0.001551 -0.298967 0.954262
0.419482 0.433115 0.313672 0.001151 -0.999999 0.000002
0.313675 0.517234 0.171371 0.053388 0.986132 -0.157140
0.294266 0.448366 0.333693 -0.074042 0.996313 -0.043328
0.062718 0.025151 0.268656 0.067411 -0.997612 -0.015014
0.284011 0.517331 0.156562 0.068080 0.959997 -0.271610
0.281467 0.438136 0.536444 -0.032101 -0.120421 0.992204
0.403281 0.448265 0.377895 0.026295 0.999295 0.026786
0.361644 0.415535 0.319280 0.003660 -0.999122 0.041733
0.460277 0.444500 0.318872 0.002581 -0.999989 -0.003795
0.197403 0.048944 0.649186 -0.788437 -0.059988 -0.612184
0.429610 0.520392 0.397938 -0.058363 0.998291 0.003114
0.353575 0.724069 0.553209 0.018846 0.220772 -0.975143
0.373077 0.444499 0.259751 0.000100 -0.999993 -0.003839
0.593766 0.773179 0.589206 0.986656 0.134418 -0.091877
0.122844 0.472142 0.408147 -0.984125 -0.176298 0.020424
0.223048 0.533791 0.220172 0.090085 0.995896 -0.008710
0.453670 0.522328 0.245953 -0.057990 0.998313 -0.003029
0.485559 0.709573 0.614961 0.003098 -0.240675 0.970601
0.184706 0.419955 0.462878 -0.048955 -0.116829 0.991945
0.174674 0.430272 0.501602 -0.140049 -0.988710 0.053285
0.357431 0.563869 0.533687 0.011703 -0.090256 -0.995850
0.293201 0.461048 0.550878 -0.013741 -0.478633 0.877907
0.362365 0.087062 0.083180 0.009791 -0.999227 0.038078
0.126806 0.102697 0.324478 -0.321628 -0.065878 0.944571
0.316437 0.434785 0.559347 -0.013064 -0.974904 0.222243
0.559789 0.846757 0.652096 0.221400 -0.276809 0.935072
0.651966 0.117138 0.313339 0.351012 0.016908 0.936218
0.623952 0.465503 0.462875 -0.192993 0.007013 0.981175
0.608726 0.094913 0.304969 -0.089236 -0.995934 0.012364
0.575719 0.909515 0.661858 0.860620 0.075955 0.503552
0.208861 0.892874 0.588946 -0.003788 0.308693 -0.951154
0.439374 0.132419 0.440882 0.835985 -0.012302 -0.548614
0.122835 0.494701 0.446641 -0.989055 0.144009 0.032115
0.134528 0.431961 0.340811 -0.628079 -0.777976 0.016450
0.519119 0.413813 0.295866 0.003054 -0.975406 -0.220396
0.175461 0.755567 0.623751 -0.152216 -0.255517 0.954747
0.134953 0.596915 0.529865 -0.789789 -0.020436 -0.613037
0.404989 0.433130 0.511563 0.001085 -0.999874 0.015867
0.508949 0.465515 0.136524 0.054564 -0.392056 -0.918322
0.325102 0.629093 0.535500 0.039487 0.109982 -0.993149
0.273786 0.430271 0.211521 -0.022718 -0.992465 -0.120408
0.202284 0.458583 0.546474 -0.042659 -0.688734 0.723758
0.074453 0.081594 0.265644 0.480478 0.556878 -0.677516
0.137821 0.630482 0.493179 0.043037 -0.998266 0.040172
0.476766 0.526602 0.280100 -0.081224 0.996691 -0.003259
0.394641 0.448671 0.427347 -0.002394 0.999908 -0.013337
0.283459 0.444744 0.481255 -0.003179 -0.999455 0.032852
0.294178 0.444500 0.396091 -0.001146 -0.999995 0.002851
0.520541 0.139754 0.585233 0.088149 0.994687 0.053178
0.203727 0.428884 0.305297 0.002274 0.901277 0.433237
0.604560 0.526698 0.474551 0.601430 0.795178 0.077293
0.327831 0.420265 0.449746 -0.007594 -0.116939 -0.993110
0.177828 0.134818 0.646570 -0.262978 0.847344 0.461358
0.553938 0.414971 0.294707 0.004190 -0.876786 -0.480863
0.309559 0.517814 0.175735 0.057579 0.988822 -0.137535
0.588677 0.449854 0.217479 0.264304 -0.964409 -0.007628
0.329018 0.852313 0.672753 -0.010494 -0.112955 0.993545
0.321989 0.847626 0.671633 -0.011252 -0.256932 0.966364
0.496307 0.471121 0.552065 0.024117 -0.252003 0.967426
0.520956 0.444585 0.213428 0.010327 -0.999799 -0.017207
0.209276 0.444506 0.421849 -0.012418 -0.999903 0.006309
0.483644 0.448265 0.193758 0.037981 0.997292 -0.062980
0.123511 0.509079 0.371350 -0.975749 0.218696 0.009267
0.218590 0.454637 0.540678 -0.023436 -0.867964 0.496074
0.202543 0.628082 0.520459 0.092385 0.132239 -0.986903
0.331286 0.444781 0.204944 -0.000217 -0.999601 -0.028262
0.519453 0.839899 0.571860 -0.111376 0.307029 -0.945161
0.129422 0.443657 0.177472 -0.020017 0.755603 0.654724
0.280829 0.752770 0.555308 0.069918 0.247523 -0.966356
0.335103 0.763263 0.562636 0.033119 0.249083 -0.967916
0.269830 0.525880 0.293339 0.072462 0.997359 -0.005016
0.331195 0.430271 0.235187 -0.012126 -0.989554 -0.143655
0.144302 0.448264 0.287340 -0.087715 0.995679 -0.030493
0.299763 0.116391 0.437244 -0.835547 -0.015351 -0.549205
0.595824 0.573557 0.586271 0.543985 -0.214696 0.811163
0.392032 0.201406 0.354398 0.665342 0.003628 -0.746530
0.133354 0.663869 0.496462 0.054369 0.996763 0.059218
0.484692 0.428016 0.393857 0.430874 -0.902143 0.022056
0.138385 0.430381 0.209231 -0.084041 -0.995685 -0.039340
0.649149 0.092035 0.303232 -0.064895 -0.997368 0.032326
0.438350 0.448628 0.333287 0.031073 0.999361 -0.017658
0.150395 0.634197 0.430461 0.969550 -0.242131 0.036675
0.102828 0.629240 0.294392 -0.421965 0.024949 -0.906269
0.138228 0.730259 0.577053 -0.985476 0.125639 -0.114240
0.538835 0.538086 0.300836 -0.112063 0.993697 -0.002979
0.144459 0.450729 0.269654 -0.276820 -0.960875 -0.009428
0.487071 0.907381 0.598620 -0.100313 0.329765 -0.938718
0.530522 0.448265 0.452705 0.084835 0.995118 0.050429
0.603641 0.095097 0.315407 -0.042274 -0.998845 0.022844
0.352979 0.444499 0.444315 -0.000114 -0.999992 0.003939
0.592449 0.501992 0.160950 0.740658 0.152175 -0.654422
0.357303 0.446324 0.583215 -0.005777 -0.760249 0.649607
0.195424 0.966983 0.640003 -0.418826 0.901909 0.105568
0.518994 0.430271 0.415363 0.210691 -0.977181 0.026947
0.585875 0.646706 0.346059 -0.999856 -0.007173 -0.015378
0.636700 0.649460 0.202314 0.228155 0.015138 -0.973507
0.363089 0.808223 0.649249 -0.473237 0.862198 -0.180728
0.383115 0.520392 0.222399 -0.001531 0.999986 -0.005026
0.545577 0.093088 0.605045 0.013080 -0.999274 -0.035772
0.390490 0.156366 0.352474 0.566197 0.406279 -0.717188
0.313755 0.500793 0.586376 -0.009577 0.208047 -0.978072
0.067482 0.636432 0.355248 -0.996600 -0.079583 0.021324
0.549098 0.955507 0.658355 0.582790 0.776713 0.238900
0.451663 0.426238 0.265985 0.061482 -0.854344 -0.516058
0.365799 0.448650 0.427636 -0.007455 0.999896 -0.012384
0.589765 0.663608 0.458633 -0.249736 0.968079 0.021320
0.224497 0.444546 0.516151 -0.020953 0.912125 -0.409377
0.405599 0.428799 0.461398 -0.007829 0.843558 0.536980
0.145601 0.423171 0.462878 -0.075385 -0.101215 0.992004
0.255049 0.445771 0.499344 -0.003620 -0.995483 0.094871
0.331726 0.459030 0.575506 -0.009363 0.745148 -0.666833
0.294708 0.845065 0.586482 0.065645 0.284574 -0.956404
0.306518 0.444499 0.238712 -0.000171 -0.999996 -0.002736
0.380542 0.814965 0.691944 0.008697 0.016603 0.999824
0.517162 0.534077 0.456329 -0.094035 0.995532 0.008554
0.209739 0.430271 0.454214 -0.202310 -0.978988 0.025558
0.242523 0.444504 0.364769 -0.006564 -0.999978 0.000213
0.477510 0.526740 0.408725 -0.093810 0.995586 0.002821
0.593532 0.663869 0.402026 -0.042149 0.998799 0.024995
0.493218 0.817243 0.646561 0.006915 -0.298984 0.954233
0.233534 0.444504 0.269305 -0.006468 -0.999963 -0.005635
0.668998 0.653395 0.290553 0.999153 0.037601 -0.016696
0.144985 0.576193 0.588512 -0.382579 -0.115176 0.916716
0.203073 0.094141 0.583584 0.017567 -0.996976 -0.075694
0.307630 0.448607 0.481355 -0.013663 0.999769 -0.016580
0.462288 0.701268 0.544594 -0.066454 0.215897 -0.974152
0.174934 0.430271 0.328203 -0.079486 -0.996708 -0.016002
0.194038 0.448265 0.443555 -0.049991 0.996886 0.060987
0.390987 0.448665 0.313179 -0.000814 0.999980 -0.006345
0.082389 0.630482 0.243500 -0.010655 -0.999943 -0.000700
0.577615 0.049946 0.637102 0.820093 -0.020718 -0.571855
0.396215 0.358920 0.375795 -0.017299 -0.349185 -0.936894
0.612521 0.518666 0.416617 0.952968 0.301563 0.030186
0.260300 0.131549 0.491758 -0.833380 0.027229 -0.552029
0.426305 0.152504 0.381070 0.089063 0.995389 0.035616
0.344456 0.120963 0.096052 -0.998953 0.004647 -0.045506
0.112144 0.663869 0.517448 0.018031 0.998206 0.057086
0.562651 0.448265 0.300351 0.081128 0.996584 -0.015457
0.492426 0.529500 0.416913 -0.094857 0.995482 0.004193
0.224470 0.800879 0.561136 0.097912 0.287342 -0.952810
0.458033 0.523136 0.436004 -0.088685 0.996051 0.004099
0.337808 0.751768 0.626211 -0.007189 0.272071 -0.962250
0.353960 0.500011 0.586260 -0.004924 0.187850 -0.982185
0.576400 0.448265 0.385892 0.095796 0.995208 0.019609
0.100453 0.640830 0.530147 -0.012845 -0.040833 0.999083
0.108946 0.479615 0.306855 0.012813 0.008755 0.999880
0.439352 0.836887 0.585513 -0.072979 0.293302 -0.953230
0.436541 0.415535 0.277141 0.104087 -0.984410 -0.141784
0.593875 0.645090 0.593155 0.405297 -0.128129 0.905162
0.559057 0.430271 0.372880 0.089849 -0.995952 -0.002435
0.394120 0.335020 0.356580 0.706045 0.012917 -0.708050
0.364991 0.444654 0.477533 -0.000060 -0.999837 0.018042
0.216757 0.445452 0.494519 -0.005794 -0.996372 0.084912
0.633779 0.588933 0.450552 0.556742 0.048152 -0.829289
0.341395 0.439882 0.144675 -0.010849 0.060737 -0.998095
0.107842 0.663869 0.514561 0.009816 0.998447 0.054837
0.521089 0.789656 0.637530 0.010021 -0.291080 0.956646
0.426355 0.520392 0.247171 -0.032435 0.999470 -0.002705
0.354399 0.747897 0.623870 -0.000111 -0.258450 0.966025
0.428702 0.118349 0.338016 -0.240655 -0.019336 -0.970418
0.472739 0.145737 0.496198 0.097801 0.995056 0.017255
0.504445 0.429654 0.303656 -0.005877 0.966106 0.258077
0.389211 0.130708 0.158593 0.999125 0.029104 -0.030035
0.148180 0.592307 0.523383 -0.288982 0.044245 -0.956311
0.204033 0.064891 0.645326 0.874528 0.046182 0.482772
0.373434 0.511254 0.540871 -0.004331 0.894642 0.446763
0.249618 0.524402 0.163138 0.082805 0.970227 -0.227601
0.089082 0.050181 0.270510 -0.622606 0.176840 -0.762292
0.234284 0.505931 0.136619 -0.022111 0.283503 -0.958716
0.433865 0.590984 0.610062 0.003178 -0.126704 0.991935
0.423989 0.721031 0.617584 0.000260 -0.239768 0.970830
0.263639 0.613439 0.598282 -0.003520 -0.106314 0.994326
0.384323 0.448659 0.284431 0.000947 0.999983 -0.005767
0.291978 0.522135 0.265261 0.062611 0.998021 -0.005842
0.139470 0.630482 0.248783 0.022533 -0.999746 0.000223
0.292817 0.448265 0.487567 -0.005785 0.996820 0.079471
0.449586 0.118363 0.454890 0.845696 -0.033382 -0.532620
0.355130 0.162470 0.347291 -0.363697 0.024746 -0.931189
0.439087 0.440771 0.536441 0.037479 0.156393 0.986984
0.445429 0.861064 0.592075 -0.080812 0.303390 -0.949434
0.281294 0.646950 0.533677 0.064974 0.141551 -0.987796
0.381107 0.725081 0.632039 -0.002067 -0.240789 0.970575
0.581117 0.836316 0.640295 0.717368 -0.122943 0.685761
0.293054 0.917419 0.680624 -0.003396 -0.283783 0.958882
0.398576 0.444499 0.439093 0.000219 -0.999997 0.002632
0.549568 0.586127 0.517975 0.047518 -0.016217 -0.998739
0.268237 0.526149 0.296638 0.073201 0.997305 -0.004904
0.216611 0.534880 0.460451 0.094934 0.995441 0.009148
0.336396 0.247611 0.364356 -0.895054 0.118522 -0.429920
0.393445 0.448265 0.471587 0.032497 0.997241 0.066734
0.289714 0.452366 0.151061 -0.007053 -0.941135 -0.337959
0.419740 0.444499 0.239325 0.000242 -0.999981 -0.006099
0.279394 0.444501 0.394267 -0.002483 -0.999995 0.001887
0.344554 0.448265 0.502584 0.016398 0.996443 0.082658
0.494719 0.430271 0.412833 0.246419 -0.968834 0.025269
0.330158 0.448621 0.390409 -0.007184 0.999898 -0.012310
0.587698 0.533000 0.292051 0.237700 0.971319 -0.006230
0.353242 0.098122 0.182810 -0.027507 -0.999484 -0.016592
0.612706 0.514748 0.227415 0.976899 0.212094 -0.026180
0.487101 0.751409 0.625015 0.004736 -0.275028 0.961425
0.367733 0.433155 0.503568 -0.004691 -0.999923 0.011482
0.522319 0.535031 0.300619 -0.110070 0.993917 -0.003784
0.171500 0.870238 0.657673 -0.314601 -0.266274 0.911112
0.190091 0.044518 0.659284 -0.904382 -0.045669 -0.424273
0.326831 0.114704 0.399855 -0.839900 -0.026173 -0.542110
0.432412 0.420221 0.449746 0.020311 -0.117200 -0.992901
0.122643 0.490625 0.473151 -0.991499 0.123802 0.040031
0.445517 0.448265 0.394323 0.044874 0.998507 0.031130
0.527131 0.094521 0.578987 -0.001563 -0.999670 -0.025632
0.607576 0.102382 0.280761 -0.250706 -0.024616 -0.967750
0.333078 0.433180 0.518107 -0.009824 -0.999908 0.009324
0.566477 0.131304 0.293921 -0.282274 0.015641 -0.959206
0.198936 0.440136 0.179376 -0.024444 0.126723 0.991637
0.396080 0.448265 0.521601 0.038909 0.995406 0.087484
0.479678 0.448265 0.181873 0.035037 0.996936 -0.069933
0.140600 0.451789 0.371738 -0.330619 -0.943764 0.000731
0.498715 0.110679 0.522273 0.826700 -0.049473 -0.560463
0.330146 0.738995 0.621691 -0.000250 -0.245841 0.969310
0.150833 0.542449 0.555458 -0.728237 -0.666935 -0.157699
0.219691 0.446558 0.147038 -0.071486 0.751602 -0.655732
0.311150 0.482009 0.594932 -0.010160 -0.206667 0.978359
0.149446 0.832895 0.603319 -0.983356 0.151230 -0.100698
0.226343 0.430271 0.166267 -0.029273 -0.996481 -0.078538
0.343243 0.048658 0.055451 -0.242360 -0.970169 0.005796
0.632359 0.603603 0.449747 0.253046 0.018141 -0.967284
0.453135 0.740023 0.621926 0.001455 -0.265563 0.964092
0.586440 0.827636 0.629637 0.928796 0.008305 0.370499
0.428586 0.745344 0.624726 0.003690 0.287335 -0.957823
0.598660 0.529656 0.284446 0.408536 0.912726 -0.005541
0.419813 0.152817 0.375939 0.084473 0.996283 0.016884
0.302295 0.444499 0.314293 -0.000303 -1.000000 0.000236
0.145651 0.450418 0.243694 -0.263347 -0.964645 -0.010453
0.612854 0.663869 0.372904 -0.028044 0.999400 0.020300
0.542379 0.131404 0.582161 0.816557 0.015124 -0.577066
0.487099 0.967817 0.633592 -0.076217 0.806898 -0.585753
0.553215 0.430271 0.285884 0.096920 -0.994659 -0.035487
0.619272 0.466645 0.299248 -0.993759 0.020116 -0.109722
0.331751 0.133376 0.469196 0.785121 0.006093 0.619313
0.527140 0.448265 0.199006 0.055972 0.996785 -0.057329
0.502104 0.448265 0.522547 0.081006 0.993387 0.081363
0.468758 0.444501 0.400514 0.003735 -0.999993 -0.000557
0.310440 0.415535 0.308592 -0.077298 -0.993612 -0.082226
0.131367 0.587623 0.577766 -0.929467 -0.099371 0.355269
0.441059 0.448265 0.280352 0.030742 0.999390 -0.016557
0.631791 0.521129 0.462877 0.274233 0.011900 0.961590
0.474621 0.526205 0.347486 -0.089589 0.995979 -0.000553
0.522021 0.533685 0.189229 -0.118454 0.988321 -0.095868
0.350148 0.143184 0.443787 0.782709 0.016299 0.622174
0.181608 0.760197 0.626144 -0.119638 -0.261345 0.957802
0.530745 0.793529 0.638569 0.035352 -0.286565 0.957408
0.563276 0.691715 0.608888 0.117390 -0.204962 0.971705
0.305460 0.436393 0.565206 -0.009212 -0.938110 0.346216
0.268855 0.414051 0.415620 -0.194844 -0.936161 0.292640
0.477357 0.430271 0.279468 0.176323 -0.973831 -0.143400
0.564005 0.430271 0.277078 0.090565 -0.995145 -0.038537
0.581783 0.430271 0.345591 0.076812 -0.996971 -0.012166
0.393510 0.433139 0.543129 -0.000325 -0.999847 0.017490
0.432978 0.444499 0.374547 0.000388 -1.000000 -0.000916
0.294468 0.521713 0.304577 0.062519 0.998035 -0.004191
0.355901 0.448265 0.254572 -0.006421 0.999318 -0.036356
0.512298 0.361987 0.386495 -0.021659 0.040455 0.998947
0.240863 0.520250 0.572363 -0.033929 -0.973857 0.224612
0.371959 0.520411 0.562092 0.003516 -0.987829 -0.155503
0.203071 0.646306 0.601148 -0.007633 -0.173124 0.984870
0.425269 0.152221 0.364973 0.078444 0.996897 -0.006484
0.604789 0.127400 0.281658 -0.262497 0.025865 -0.964586
0.411732 0.877083 0.666151 0.000384 -0.314779 0.949165
0.502951 0.142506 0.532479 0.119515 0.992832 -0.000405
0.582774 0.871631 0.623379 0.988325 0.145009 -0.046746
0.600638 0.708361 0.572223 0.985955 0.116614 -0.119557
0.455652 0.522695 0.450369 -0.086966 0.996198 0.005147
0.374148 0.518697 0.182383 -0.002482 0.994916 -0.100682
0.094625 0.630482 0.296892 0.001044 -0.999967 0.008042
0.370884 0.430271 0.213762 -0.002698 -0.991967 -0.126468
0.474788 0.448265 0.268790 0.042887 0.998805 -0.023429
0.403282 0.684587 0.623008 0.000248 -0.207993 0.978130
0.334050 0.108212 0.416552 -0.094637 -0.991034 0.094314
0.634224 0.101794 0.319015 0.350532 -0.026210 0.936184
0.151616 0.430272 0.443638 -0.071957 -0.996670 0.038347
0.262579 0.444502 0.287612 -0.003863 -0.999987 -0.003181
0.557187 0.430271 0.347998 0.092006 -0.995687 -0.011897
0.069068 0.631881 0.520552 -0.716381 -0.695446 0.056158
0.309350 0.618214 0.534550 0.047581 0.089835 -0.994819
0.119126 0.426127 0.462878 -0.078454 0.090230 0.992826
0.208318 0.535951 0.204393 0.111015 0.992666 -0.047843
0.415842 0.705817 0.549264 -0.034851 0.213771 -0.976262
0.517644 0.117695 0.548235 0.816511 -0.032826 -0.576396
0.309282 0.413626 0.452147 -0.001266 -0.965380 -0.260846
0.270730 0.430271 0.265340 -0.075224 -0.973415 -0.216344
0.408934 0.148840 0.399132 0.834220 0.014229 -0.551248
0.460320 0.537310 0.534997 -0.057953 -0.273009 -0.960264
0.393678 0.690502 0.612498 -0.000369 0.239194 -0.970972
0.456025 0.532258 0.537252 -0.048457 -0.403214 -0.913822
0.122480 0.487170 0.289838 -0.997321 0.071340 -0.016156
0.177064 0.950098 0.623060 -0.580631 0.689485 -0.432988
0.255473 0.415535 0.451804 -0.151400 -0.988082 0.027801
0.390972 0.782693 0.676584 0.515124 -0.387317 -0.764613
0.352291 0.430271 0.186301 -0.000595 -0.994761 -0.102229
0.107864 0.630482 0.288661 0.007915 -0.999946 0.006710
0.324551 0.603482 0.599176 -0.008273 0.109724 -0.993928
0.605344 0.612044 0.537453 0.928306 0.019387 -0.371311
0.137005 0.430946 0.165298 -0.250737 -0.966673 -0.051715
0.216072 0.102200 0.307535 0.269799 -0.348956 -0.897462
0.377722 0.444499 0.331871 0.000170 -0.999999 -0.001002
0.364562 0.103133 0.256742 -0.000521 -0.998638 -0.052177
0.335217 0.520392 0.369836 0.036902 0.999319 -0.000406
0.532829 0.448265 0.178704 0.055926 0.996087 -0.068428
0.397416 0.277948 0.401677 0.806109 0.156390 0.570728
0.300839 0.444499 0.462212 -0.000632 -0.999983 0.005765
0.270280 0.099777 0.532433 0.071245 -0.996854 -0.034733
0.226571 0.430272 0.516646 -0.039930 -0.983432 0.176823
0.621330 0.594642 0.462596 -0.291203 0.021466 0.956421
0.630678 0.093463 0.297092 -0.113712 -0.993343 0.018437
0.135805 0.447097 0.384003 -0.415905 0.909290 -0.014624
0.409827 0.520392 0.452200 -0.045912 0.998934 0.004697
0.404438 0.430271 0.520899 0.007724 -0.990845 0.134780
0.569991 0.072610 0.669272 0.445109 0.597812 0.666707
0.450078 0.443146 0.529447 0.993693 0.097641 -0.055142
0.241387 0.920373 0.681260 -0.011352 -0.249946 0.968193
0.184145 0.448265 0.465695 -0.051406 0.996017 0.072856
0.528263 0.430271 0.240746 0.114110 -0.992045 -0.053150
0.450071 0.443375 0.457242 0.983209 0.114717 -0.141913
0.350001 0.119540 0.057671 -0.732641 0.023836 -0.680198
0.522071 0.521948 0.142580 -0.043970 0.653880 -0.755320
0.093235 0.663869 0.248896 -0.018879 0.999822 0.000190
0.432132 0.448265 0.230292 0.021478 0.998734 -0.045479
0.404171 0.803318 0.688870 0.972819 0.197160 0.121452
0.247292 0.445111 0.518851 -0.026546 0.999083 0.033601
0.514471 0.533579 0.312174 -0.107953 0.994151 -0.003223
0.135120 0.590431 0.584394 -0.749298 -0.078850 0.657522
0.592331 0.663869 0.455944 -0.047180 0.998317 0.033731
0.219437 0.844656 0.655531 -0.012723 -0.310408 0.950518
0.262981 0.522909 0.538812 0.012670 -0.893954 -0.447979
0.316751 0.448265 0.483566 0.003294 0.997074 0.076371
0.248305 0.754171 0.625919 -0.005258 -0.268637 0.963227
0.534855 0.913508 0.596174 0.062764 0.316881 -0.946386
0.309206 0.520392 0.235119 0.052591 0.998594 -0.006721
0.282788 0.413627 0.302670 -0.003269 -0.991557 0.129634
0.536985 0.057788 0.644318 0.697960 -0.125443 -0.705065
0.610262 0.663869 0.388719 -0.030889 0.999261 0.022861
0.616973 0.663353 0.527344 0.011473 0.905566 0.424051
0.603108 0.444833 0.299865 0.806908 0.590540 0.012718
0.424642 0.105987 0.441839 0.063984 -0.997655 0.024313
0.291681 0.551219 0.592973 -0.123362 0.166126 -0.978358
0.307915 0.527677 0.541579 0.048583 -0.597297 -0.800547
0.432421 0.433110 0.463285 0.004750 -0.999886 0.014361
0.387340 0.780276 0.675182 0.474725 -0.452398 -0.754965
0.499894 0.430271 0.405240 0.241334 -0.970154 0.023643
0.257125 0.527401 0.490990 0.089096 0.994328 0.058078
0.317350 0.795649 0.653299 -0.010701 -0.256923 0.966373
0.425678 0.499580 0.551116 -0.013854 0.284779 0.958493
0.367028 0.103643 0.264296 0.006429 -0.997317 -0.072927
0.586674 0.632576 0.334966 -0.821808 -0.569482 0.017935
0.124445 0.436401 0.511774 -0.976849 -0.096887 -0.190730
0.589518 0.435599 0.535960 0.068213 -0.320419 0.944817
0.451781 0.448265 0.387837 0.046663 0.998518 0.028022
0.211562 0.731496 0.540139 0.101082 0.250561 -0.962809
0.334305 0.452333 0.150832 -0.002713 -0.940379 -0.340118
0.538608 0.448265 0.488603 0.091830 0.993655 0.064939
0.274671 0.804783 0.570563 0.074257 0.273187 -0.959091
0.169820 0.448264 0.292530 -0.076928 0.996697 -0.026029
0.400271 0.520392 0.285680 -0.012520 0.999920 -0.001908
0.383988 0.422165 0.394438 0.590798 0.531838 0.606718
0.601635 0.446705 0.329462 0.611560 0.790823 0.024350
0.380147 0.520392 0.378032 -0.003879 0.999992 0.001139
0.639636 0.663869 0.290907 -0.005152 0.999962 0.007030
0.052093 0.038518 0.292581 -0.331665 -0.150754 0.931274
0.427244 0.448695 0.409209 0.003129 0.999910 -0.013026
0.395208 0.475970 0.594248 -0.000193 -0.253911 0.967228
0.586319 0.767331 0.558230 0.546404 0.256856 -0.797163
0.368243 0.444499 0.419334 0.000028 -0.999997 0.002620
0.403667 0.433126 0.319885 -0.000682 -1.000000 -0.000650
0.350550 0.060311 0.067079 -0.783702 0.181506 0.594025
0.499795 0.430271 0.463938 0.223505 -0.973964 0.037954
0.384723 0.144315 0.209237 0.004142 0.997753 -0.066874
0.350284 0.444582 0.176001 -0.001870 0.909110 0.416553
0.470502 0.448265 0.368275 0.051987 0.998473 0.018657
0.251791 0.430075 0.356129 -0.275216 -0.961219 -0.017737
0.589353 0.592349 0.523718 0.291817 0.042282 -0.955539
0.157240 0.432689 0.534764 -0.090641 -0.663614 0.742564
0.204011 0.537011 0.299913 0.098648 0.995118 -0.002946
0.176882 0.054933 0.671245 0.821918 -0.012898 0.569460
0.270285 0.943577 0.685604 -0.021564 0.039682 0.998980
0.390266 0.671522 0.606264 0.000049 -0.181203 0.983446
0.326199 0.963045 0.668908 0.002315 0.953841 0.300304
0.203084 0.766529 0.629719 -0.035895 -0.276217 0.960425
0.523708 0.448265 0.250349 0.060275 0.997599 -0.034101
0.596556 0.663869 0.258088 -0.028809 0.999584 0.001664
0.384653 0.493585 0.551536 0.002902 0.233464 0.972361
0.599001 0.443407 0.535286 0.232165 0.441760 0.866572
0.196553 0.749454 0.623989 -0.050611 -0.266488 0.962509
0.356841 0.433161 0.427993 -0.007173 -0.999967 0.003798
0.311059 0.504447 0.550776 0.013177 0.342071 0.939582
0.583012 0.588143 0.522328 0.226776 0.011571 -0.973878
0.444148 0.147535 0.484359 0.070038 0.997017 0.032429
0.490414 0.448265 0.318758 0.054526 0.998507 -0.003374
0.449854 0.724361 0.551474 -0.061941 0.235400 -0.969923
0.328018 0.445754 0.499799 -0.000435 -0.996298 0.085971
0.156002 0.646390 0.526198 -0.213578 0.164528 -0.962972
0.369934 0.448650 0.331606 -0.002470 0.999964 -0.008135
0.420458 0.430029 0.497270 0.018554 -0.944985 0.326588
0.063976 0.079501 0.260526 -0.455022 -0.056108 0.888711
0.380378 0.716855 0.616629 0.000012 -0.228496 0.973545
0.623536 0.534914 0.293723 -0.158503 0.011173 -0.987295
0.613178 0.504709 0.348068 0.984718 0.174013 0.007038
0.226803 0.444505 0.305803 -0.007492 -0.999964 -0.003873
0.365821 0.842078 0.587917 0.008771 0.287674 -0.957688
0.132092 0.440482 0.332556 -0.995552 0.093775 -0.009135
0.139706 0.663869 0.432668 0.058520 0.997256 0.045335
0.288492 0.955438 0.630334 0.071079 0.585468 -0.807574
0.568900 0.025301 0.640825 0.040928 -0.999139 0.006794
