0.409574 0.606267 0.222802 0.010245 0.332095 0.943190
0.160434 0.597030 0.496341 0.507579 0.815081 0.279297
0.670845 0.787458 0.109030 0.390398 -0.057561 -0.918845
0.612410 0.495360 0.149762 0.171897 -0.153137 -0.973140
0.565421 0.567204 0.132637 0.112659 -0.130077 -0.985083
0.127632 0.059405 0.407748 -0.074096 0.164584 0.983576
0.577418 0.863655 0.062501 0.135038 -0.052404 -0.989454
0.309874 0.456818 0.311113 0.135954 0.876136 0.462495
0.683372 0.649435 0.150902 0.448171 -0.088088 -0.889597
0.749277 0.915658 0.211771 0.779195 0.486401 0.395309
0.749277 0.527649 0.335705 -0.488867 0.699760 0.520907
0.547259 0.857050 0.063987 0.095183 -0.050765 -0.994164
0.425041 0.366690 0.361818 -0.822982 0.000000 -0.568067
0.139487 0.560528 0.558197 -0.035354 0.735556 0.676541
0.664283 0.975000 0.147052 0.216858 0.569281 0.793027
0.461040 0.086543 0.070640 0.335775 0.871611 -0.357141
0.118099 0.388079 0.597643 -0.738013 0.278807 0.614495
0.262474 0.672638 0.217418 0.150092 0.299370 0.942258
0.287721 0.856054 0.063561 -0.233988 -0.027913 -0.971839
0.297287 0.596205 0.225634 0.104598 0.316318 0.942869
0.490186 0.347880 0.421502 0.916069 0.000000 0.401021
0.763082 0.638182 0.383091 0.482959 0.870532 0.094469
0.466632 0.071674 0.758208 0.808266 0.520304 0.275661
0.381544 0.393443 0.673120 -0.024205 0.394625 0.918523
0.189116 0.389255 0.239033 -0.443868 -0.164814 -0.880805
0.077996 0.535494 0.356263 -0.972171 0.211889 -0.099929
0.749277 0.618970 0.445014 -0.578551 0.544539 0.607252
0.384495 0.819805 0.175296 0.082164 0.378892 0.921786
0.370514 0.876533 0.058925 -0.141907 -0.023814 -0.989593
0.803743 0.457668 0.581725 0.669311 0.481714 0.565662
0.678735 0.710702 0.231183 -0.279488 0.379338 0.882037
0.309018 0.569786 0.233067 0.099866 0.347607 0.932307
0.237304 0.640560 0.144244 -0.337368 -0.091856 -0.936880
0.160683 0.965708 0.139480 -0.905521 0.261367 -0.334244
0.656223 0.508330 0.164562 0.314103 -0.141247 -0.938823
0.831715 0.563919 0.224026 0.971472 0.127820 -0.199762
0.722767 0.808138 0.241043 -0.084669 0.463801 0.881884
0.791126 0.638182 0.432405 0.739225 0.669368 0.074117
0.160628 0.974887 0.156704 -0.889443 0.449636 -0.081966
0.336297 0.505620 0.251123 0.088860 0.421962 0.902248
0.333807 0.864345 0.165848 0.126808 0.393146 0.910690
0.520457 0.419196 0.673120 0.028709 0.638886 0.768765
0.261239 0.832475 0.081429 -0.290594 -0.031164 -0.956339
0.086112 0.638182 0.522939 -0.763556 0.476993 0.435270
0.106282 0.638182 0.504632 -0.501140 0.735355 0.456193
0.490186 0.279847 0.375112 0.850714 0.000000 -0.525629
0.811446 0.050172 0.407748 0.106943 0.192946 0.975364
0.461323 0.456818 0.316211 -0.034082 0.910180 0.412808
0.633014 0.755930 0.189889 -0.137979 0.396001 0.907824
0.688403 0.714310 0.237121 -0.304388 0.381168 0.872960
0.678523 0.794066 0.213353 -0.248242 0.419471 0.873167
0.299555 0.129540 0.407748 -0.119853 0.356375 0.926624
0.077996 0.389885 0.469408 -0.996537 0.081612 -0.015921
0.831715 0.618188 0.428688 0.916414 0.394253 0.068923
0.160573 0.889498 0.193783 -0.690567 0.627050 0.360452
0.719528 0.550415 0.200632 0.526865 -0.096051 -0.844504
0.383988 0.456818 0.404859 0.065053 0.964543 0.255785
0.615845 0.456818 0.441440 -0.154784 0.942555 0.296027
0.162375 0.456818 0.373969 0.213747 0.945532 0.245524
0.218950 0.408923 0.212222 -0.360573 -0.168489 -0.917387
0.561886 0.962067 0.039168 0.116715 -0.024413 -0.992865
0.291727 0.456818 0.403862 0.167929 0.957360 0.235079
0.166005 0.730983 0.175526 -0.739237 0.017008 -0.673231
0.114071 0.584239 0.552773 -0.483285 0.603815 0.633911
0.490186 0.328675 0.382101 0.866445 0.000000 -0.499272
0.585521 0.947606 0.148187 -0.026096 0.472777 0.880796
0.077996 0.506986 0.560946 -0.924250 0.254723 0.284391
0.563816 0.674981 0.206016 -0.109118 0.346297 0.931757
0.176751 0.871119 0.234751 0.027549 0.565763 0.824108
0.663479 0.949244 0.065287 0.356975 -0.017846 -0.933943
0.443078 0.138922 0.537916 -0.896566 0.412527 0.161216
0.627615 0.959004 0.040061 0.201249 -0.032752 -0.978992
0.580288 0.542500 0.138523 0.131568 -0.138017 -0.981652
0.259685 0.975000 0.076969 -0.352897 0.293033 -0.888592
0.831715 0.445053 0.375603 0.989855 0.119234 -0.077261
0.661975 0.770136 0.206956 -0.211763 0.406757 0.888653
0.461200 0.547780 0.239260 -0.021428 0.410663 0.911536
0.473069 0.456818 0.532107 0.116373 0.953323 0.278626
0.279151 0.491229 0.255172 0.137885 0.422341 0.895888
0.831715 0.475399 0.479976 0.965422 0.216336 0.145459
0.266029 0.456818 0.558013 0.078817 0.901883 0.424728
0.575087 0.783472 0.081473 0.130280 -0.073505 -0.988749
0.412507 0.458218 0.264461 0.053273 0.584773 0.809446
0.183192 0.648626 0.277481 0.293048 0.358082 0.886510
0.290805 0.957436 0.039573 -0.242525 0.007495 -0.970116
0.776154 0.582344 0.553206 -0.191232 0.733471 0.652266
0.466632 0.074259 0.664262 0.953705 0.271792 0.128746
0.821996 0.594739 0.550371 0.789297 0.559268 0.253436
0.160434 0.585406 0.449898 0.468110 0.803065 0.368728
0.799469 0.412624 0.592028 0.730041 0.366810 0.576620
0.746535 0.653046 0.290421 -0.459728 0.348376 0.816875
0.443078 0.059262 0.756267 -0.792907 0.557265 0.246485
0.241636 0.725452 0.220663 0.201706 0.346040 0.916281
0.574113 0.746216 0.190906 -0.090719 0.380942 0.920138
0.443078 0.129573 0.241120 -0.876509 0.444333 -0.185203
0.358236 0.456818 0.635173 0.024846 0.882937 0.468833
0.618668 0.975000 0.073933 0.264411 0.424378 -0.866020
0.505578 0.685375 0.104515 0.035506 -0.092091 -0.995117
0.077996 0.494861 0.388870 -0.981435 0.176386 -0.075323
0.523402 0.774045 0.083573 0.061507 -0.070300 -0.995628
0.077996 0.594191 0.471778 -0.911207 0.334360 0.240633
0.749277 0.951831 0.215041 0.724246 0.468186 0.506232
0.429605 0.463258 0.156895 -0.033154 -0.164409 -0.985835
0.831715 0.628876 0.210391 0.977326 0.170334 -0.125781
0.520311 0.838287 0.068360 0.058799 -0.052673 -0.996879
0.572929 0.975000 0.098986 -0.074013 0.921681 0.380823
0.544764 0.615472 0.220212 -0.103414 0.350257 0.930927
0.169544 0.476966 0.232925 -0.545329 -0.118918 -0.829744
0.703897 0.975000 0.192538 0.399275 0.501490 0.767520
0.825604 0.453714 0.245656 0.935800 0.073952 -0.344689
0.492255 0.975000 0.070722 -0.150486 0.391630 -0.907734
0.530128 0.405399 0.170846 0.082663 -0.180899 -0.980022
0.458806 0.027975 0.025000 0.796611 0.496590 -0.344687
0.508615 0.456818 0.468084 0.011569 0.961092 0.275985
0.749277 0.951214 0.137531 0.794701 0.122705 -0.594470
0.676740 0.644123 0.243923 -0.297821 0.346928 0.889350
0.460837 0.051994 0.025000 0.628788 0.693663 -0.351364
0.393903 0.969834 0.036901 -0.108477 -0.001759 -0.994097
0.288960 0.386229 0.673120 -0.063427 0.325107 0.943548
0.623863 0.872568 0.164104 -0.083586 0.446545 0.890849
0.656490 0.975000 0.070263 0.394752 0.092537 -0.914116
0.446034 0.166850 0.458798 -0.870611 0.462173 0.168617
0.230436 0.483795 0.290382 0.210177 0.615102 0.759918
0.368202 0.764565 0.187014 0.080577 0.347552 0.934192
0.777857 0.638182 0.350056 0.804604 0.582681 -0.114438
0.285038 0.720765 0.196304 0.126815 0.310662 0.942023
0.334372 0.456818 0.439218 0.168805 0.955794 0.240755
0.594514 0.456818 0.395230 -0.198857 0.935084 0.293385
0.703724 0.814579 0.126582 0.543770 -0.029931 -0.838701
0.716121 0.456818 0.545384 -0.117605 0.943947 0.308437
0.123443 0.492467 0.236931 -0.689403 0.074228 -0.720565
0.077996 0.402941 0.577694 -0.979425 0.132873 0.151894
0.520191 0.620675 0.218748 -0.084086 0.339845 0.936715
0.361676 0.781849 0.081313 -0.148175 -0.052583 -0.987562
0.371955 0.800943 0.179297 0.086394 0.367088 0.926165
0.404302 0.681632 0.204605 0.025386 0.315822 0.948479
0.396183 0.975000 0.077388 -0.458327 0.558853 -0.691101
0.375886 0.884061 0.057157 -0.134604 -0.022479 -0.990644
0.451815 0.143486 0.255706 -0.429869 0.844431 -0.319608
0.333904 0.456818 0.354163 0.049869 0.967001 0.249846
0.143561 0.102531 0.407748 -0.206948 0.495852 0.843388
0.443078 0.096662 0.618411 -0.940347 0.306475 0.147718
0.207984 0.819435 0.224059 0.208690 0.446398 0.870159
0.831715 0.411292 0.395589 0.990569 0.103425 -0.089864
0.846182 0.062006 0.407748 0.181984 0.465278 0.866255
0.077996 0.425492 0.298368 -0.971659 0.063692 -0.227643
0.533296 0.893064 0.055427 0.077379 -0.039492 -0.996219
0.606234 0.865054 0.165698 -0.072001 0.440050 0.895082
0.223104 0.604585 0.261477 0.222766 0.353805 0.908404
0.625544 0.975000 0.063078 0.248152 0.191978 -0.949508
0.669248 0.789561 0.107366 0.382729 -0.057917 -0.922044
0.297100 0.456818 0.432958 0.178849 0.952154 0.247822
0.077996 0.577343 0.383181 -0.959581 0.280492 0.022967
0.646911 0.514437 0.156321 0.269086 -0.143763 -0.952326
0.559112 0.456818 0.453491 -0.069659 0.955545 0.286499
0.160544 0.763886 0.224263 -0.422546 0.659747 0.621441
0.077996 0.629178 0.308293 -0.947206 0.316038 -0.054051
0.406814 0.496393 0.148994 -0.062142 -0.153311 -0.986222
0.465201 0.975000 0.123209 -0.027117 0.583235 0.811851
0.801560 0.588186 0.214291 0.929057 0.252871 -0.270017
0.514401 0.917601 0.154552 0.015561 0.448485 0.893655
0.456408 0.463590 0.156885 -0.004205 -0.163554 -0.986525
0.224255 0.124841 0.388575 -0.190626 0.571551 -0.798117
0.466632 0.117754 0.200805 0.885133 0.429278 -0.179612
0.819470 0.391682 0.596818 0.892297 0.251395 0.374974
0.077996 0.424904 0.363067 -0.986010 0.085917 -0.142840
0.043470 0.040810 0.387335 -0.142951 0.300306 -0.943070
0.694375 0.387687 0.220860 0.397669 -0.154476 -0.904431
0.162062 0.687800 0.283821 0.266606 0.420477 0.867248
0.457549 0.669674 0.108108 -0.029869 -0.090571 -0.995442
0.268415 0.567335 0.240543 0.143918 0.351759 0.924961
0.664474 0.796129 0.102326 0.359757 -0.058875 -0.931187
0.549253 0.456818 0.345055 -0.215174 0.931244 0.294081
0.828764 0.624733 0.543510 0.820756 0.541367 0.182432
0.292499 0.975000 0.130308 0.163246 0.498097 0.851616
0.831715 0.458003 0.491973 0.966631 0.200664 0.159241
0.302707 0.904854 0.052049 -0.224817 -0.010293 -0.974347
0.582618 0.456818 0.404191 -0.171518 0.940990 0.291753
0.463661 0.335323 0.361818 0.022607 0.000000 -0.999744
0.310417 0.456818 0.381714 0.116647 0.963256 0.241935
0.112418 0.638182 0.294691 -0.729408 0.653161 -0.203334
0.662495 0.468036 0.178664 0.324340 -0.148990 -0.934134
0.304737 0.956744 0.146248 0.166954 0.433955 0.885330
0.077996 0.481870 0.383526 -0.983197 0.159560 -0.088684
0.278730 0.975000 0.104375 0.081326 0.786391 0.612352
0.084399 0.638182 0.222462 -0.911454 0.330765 -0.244636
0.195262 0.069923 0.407748 -0.047371 0.094678 0.994380
0.077996 0.379720 0.582789 -0.985885 0.106569 0.129128
0.811067 0.556476 0.559124 0.695275 0.601883 0.392847
0.182552 0.677976 0.175879 -0.617788 -0.030976 -0.785734
0.683726 0.511873 0.183724 0.406740 -0.126439 -0.904752
0.469801 0.160309 0.428161 0.100156 0.000000 0.994972
0.077996 0.454768 0.414807 -0.988554 0.138758 -0.059224
0.310489 0.456818 0.455644 0.162827 0.949053 0.269788
0.419525 0.193952 0.396716 -0.994012 0.000000 -0.109271
0.572216 0.456818 0.277372 -0.062348 0.806699 0.587664
0.520177 0.469051 0.155754 0.064021 -0.159344 -0.985145
0.441424 0.327983 0.361818 -0.472471 0.000000 -0.881346
0.677053 0.537280 0.273792 -0.286283 0.663163 0.691561
0.749277 0.412246 0.643558 0.194026 0.716061 0.670530
0.831715 0.563592 0.533391 0.892702 0.417298 0.170135
0.161961 0.456818 0.487701 0.126439 0.910724 0.393185
0.369389 0.975000 0.118755 0.047771 0.606010 0.794021
0.422513 0.471480 0.260729 0.040302 0.563099 0.825406
0.597821 0.456818 0.467307 -0.094830 0.951567 0.292451
0.329300 0.480896 0.152466 -0.142632 -0.159790 -0.976792
0.466632 0.071362 0.150519 0.975119 0.187541 -0.118196
0.737235 0.821424 0.149362 0.655055 -0.008847 -0.755529
0.320534 0.717342 0.197031 0.102062 0.314931 0.943611
0.300770 0.620487 0.119352 -0.190813 -0.110958 -0.975335
0.443078 0.122289 0.324299 -0.990228 0.129058 -0.052849
0.598995 0.693677 0.102788 0.159361 -0.099782 -0.982165
0.127687 0.638182 0.532437 0.035450 0.877164 0.478880
0.341358 0.481265 0.152409 -0.129994 -0.159573 -0.978590
0.811968 0.371248 0.264668 0.851402 -0.033116 -0.523468
0.831715 0.396315 0.305443 0.953500 0.039237 -0.298827
0.456582 0.456818 0.291725 0.026394 0.844428 0.535018
0.259514 0.516172 0.156890 -0.253990 -0.142949 -0.956585
0.150836 0.573225 0.217084 -0.706672 0.353699 -0.612790
0.766337 0.638182 0.454776 0.066938 0.917966 0.390970
0.077996 0.524283 0.435931 -0.971298 0.232583 0.049845
0.264077 0.661536 0.218661 0.144457 0.292042 0.945433
0.263660 0.611697 0.231357 0.144803 0.308804 0.940039
0.537008 0.456818 0.649845 0.029116 0.919595 0.391788
0.461244 0.688714 0.103611 -0.024420 -0.085896 -0.996005
0.655676 0.711721 0.115926 0.315662 -0.086626 -0.944909
0.381347 0.456818 0.501087 0.133333 0.947899 0.289325
0.813529 0.091199 0.392591 0.296964 0.744923 -0.597413
0.564665 0.397716 0.673120 0.042385 0.450098 0.891973
0.726472 0.879116 0.228557 0.215051 0.497773 0.840223
0.640321 0.456818 0.421096 -0.213568 0.929929 0.299368
0.667960 0.574198 0.257099 -0.275110 0.561001 0.780764
0.742506 0.801672 0.256101 0.024222 0.476018 0.879102
0.308242 0.673686 0.206291 0.100233 0.289934 0.951783
0.344345 0.456818 0.592142 0.058238 0.903508 0.424595
0.739181 0.467722 0.336440 -0.419118 0.834742 0.357136
0.077996 0.416766 0.493182 -0.992283 0.120676 0.028498
0.513401 0.402650 0.171454 0.065095 -0.182596 -0.981031
0.400659 0.764986 0.085404 -0.104367 -0.057693 -0.992864
0.190150 0.691706 0.263518 0.289635 0.373646 0.881193
0.077996 0.539317 0.386915 -0.972432 0.231207 -0.030325
0.077996 0.459564 0.517622 -0.976287 0.181376 0.118178
0.693610 0.731296 0.138956 0.497274 -0.059226 -0.865570
0.602763 0.456818 0.473955 -0.090737 0.951802 0.292984
0.268620 0.707474 0.205767 0.146514 0.311694 0.938819
0.400887 0.125967 0.407748 -0.029752 0.087677 0.995705
0.608358 0.456818 0.291317 -0.141589 0.830238 0.539127
0.077996 0.573087 0.377340 -0.962237 0.272193 0.003457
0.261191 0.390362 0.185146 -0.231314 -0.187469 -0.954646
0.673466 0.969391 0.067794 0.405058 -0.006308 -0.914269
0.218120 0.435379 0.673120 -0.029829 0.682092 0.730657
0.160536 0.754532 0.201393 -0.800045 0.583765 -0.138369
0.785951 0.638182 0.243022 0.893272 0.388558 -0.226024
0.701475 0.908997 0.204887 0.155239 0.501009 0.851406
0.831715 0.619488 0.259031 0.975624 0.206043 -0.075525
0.160642 0.876731 0.150297 -0.857558 0.269494 -0.438140
0.466632 0.129521 0.431730 0.994961 0.093731 0.035609
0.077996 0.376607 0.589885 -0.984993 0.105223 0.136812
0.181154 0.472150 0.327828 0.243442 0.877253 0.413719
0.749277 0.462613 0.461981 -0.735152 0.621569 0.270564
0.712186 0.456818 0.659614 0.036635 0.950309 0.309146
0.443078 0.119331 0.559026 -0.951880 0.278614 0.127666
0.309859 0.691980 0.102453 -0.190734 -0.085579 -0.977904
0.566678 0.456818 0.375514 -0.195797 0.936886 0.289670
0.490431 0.823351 0.174544 0.007830 0.398324 0.917211
0.674875 0.649808 0.241424 -0.290796 0.349686 0.890594
0.107844 0.465814 0.579861 -0.746565 0.327736 0.578990
0.831715 0.454253 0.298708 0.971511 0.082761 -0.222076
0.717289 0.456818 0.444690 -0.266492 0.913134 0.308494
0.642855 0.456818 0.470427 -0.143203 0.943310 0.299433
0.784937 0.638182 0.349498 0.846978 0.513777 -0.136607
0.672256 0.862050 0.092368 0.398170 -0.036321 -0.916592
0.167164 0.975000 0.145512 -0.893317 0.390726 -0.222078
0.416039 0.651741 0.112248 -0.072814 -0.097969 -0.992522
0.378860 0.488036 0.150901 -0.091046 -0.156752 -0.983432
0.466632 0.090724 0.115817 0.810109 0.539862 -0.228631
0.831715 0.636507 0.264441 0.967813 0.240174 -0.075197
0.831715 0.527772 0.554084 0.903133 0.381963 0.196097
0.250443 0.129706 0.407748 -0.177818 0.472747 0.863070
0.165539 0.642664 0.196731 -0.685575 -0.029464 -0.727406
0.480500 0.736979 0.092237 0.002790 -0.075230 -0.997162
0.749277 0.436133 0.593573 -0.753619 0.465862 0.463714
0.389872 0.456818 0.306101 0.075540 0.892650 0.444377
0.436642 0.380207 0.673120 -0.020724 0.296671 0.954755
0.161005 0.848145 0.250541 0.012292 0.578506 0.815585
0.215679 0.514345 0.189933 -0.384437 -0.129781 -0.913983
0.448683 0.456818 0.647054 0.023469 0.899889 0.435488
0.198837 0.456818 0.450372 0.158851 0.932346 0.324804
0.727027 0.953561 0.110620 0.641025 0.022132 -0.767201
0.480177 0.583607 0.229178 -0.044415 0.371870 0.927222
0.366449 0.456818 0.435520 0.128399 0.960052 0.248624
0.160434 0.554942 0.428410 0.415942 0.849505 0.324551
0.831715 0.526514 0.292201 0.983239 0.136901 -0.120413
0.715118 0.686408 0.165238 0.557882 -0.059691 -0.827771
0.692842 0.610186 0.264224 -0.348107 0.440735 0.827390
0.873634 0.075410 0.390140 0.276398 0.636249 -0.720272
0.758986 0.375578 0.600502 0.439113 0.369624 0.818876
0.538445 0.870193 0.164608 -0.014150 0.428966 0.903210
0.647689 0.964613 0.050124 0.281128 -0.023019 -0.959394
0.697470 0.975000 0.127870 0.859199 0.496154 -0.124934
0.338842 0.975000 0.118043 0.079468 0.606149 0.791371
0.077996 0.544048 0.316139 -0.966681 0.207740 -0.149572
0.831715 0.411284 0.466559 0.988024 0.141918 0.060568
0.160487 0.824770 0.237367 -0.108847 0.605203 0.788594
0.831715 0.607607 0.462686 0.904962 0.413501 0.100308
0.600242 0.975000 0.132366 -0.081739 0.537542 0.839266
0.813699 0.638182 0.430198 0.868860 0.494863 0.013883
0.253320 0.724990 0.212660 0.179554 0.335109 0.924912
0.160610 0.844989 0.190332 -0.847210 0.511843 0.142306
0.339924 0.456818 0.421704 0.138980 0.959727 0.244148
0.443078 0.079025 0.102587 -0.894992 0.398240 -0.200985
0.443078 0.094871 0.193054 -0.955253 0.270637 -0.119358
0.749277 0.790180 0.200863 0.871202 0.486827 -0.063301
0.197129 0.493109 0.208715 -0.434907 -0.130772 -0.890929
0.773857 0.461222 0.580912 0.285391 0.532930 0.796579
0.831715 0.401552 0.374246 0.985025 0.083272 -0.150967
0.474854 0.741019 0.091266 -0.004764 -0.073456 -0.997287
0.077996 0.489068 0.305207 -0.971702 0.140304 -0.190024
0.462762 0.268391 0.428161 0.186181 0.000000 0.982516
0.160434 0.503290 0.362834 0.303919 0.894662 0.327433
0.496089 0.420019 0.673120 0.025821 0.635717 0.771491
0.077996 0.477809 0.372500 -0.982883 0.151050 -0.105471
0.118119 0.638182 0.471810 -0.257368 0.892686 0.369963
0.443078 0.099708 0.209748 -0.957197 0.265401 -0.115481
0.195951 0.613380 0.277829 0.271615 0.368071 0.889241
0.831715 0.621064 0.454427 0.900297 0.425871 0.089994
0.831715 0.464180 0.580215 0.923066 0.306535 0.232349
0.510244 0.975000 0.077448 -0.167469 0.592184 -0.788208
0.077996 0.445470 0.331431 -0.979514 0.098804 -0.175474
0.446213 0.201412 0.361818 -0.053580 0.000000 -0.998564
0.443078 0.146412 0.513415 -0.914274 0.377687 0.146480
0.638563 0.572370 0.136491 0.230274 -0.131904 -0.964145
0.317784 0.629780 0.216186 0.081654 0.284995 0.955045
0.759280 0.638182 0.357606 0.540439 0.841314 0.010776
0.077996 0.421652 0.276314 -0.964918 0.051426 -0.257466
0.466632 0.119559 0.483936 0.985610 0.156523 0.063818
0.636835 0.456818 0.580630 0.025880 0.956097 0.291904
0.771125 0.442643 0.585162 0.333972 0.491342 0.804391
0.308328 0.761142 0.187740 0.120450 0.335712 0.934232
0.749277 0.861908 0.190498 0.896830 0.439491 -0.050427
0.447153 0.123510 0.190783 -0.682553 0.671368 -0.288768
0.256939 0.602426 0.238625 0.159290 0.325125 0.932159
0.443078 0.133523 0.286759 -0.927864 0.347436 -0.135488
0.454631 0.456818 0.662484 0.011671 0.892610 0.450679
0.247106 0.456818 0.439487 0.170660 0.943546 0.283894
0.077996 0.557505 0.396970 -0.965395 0.259999 0.020329
0.831715 0.599837 0.249073 0.981153 0.169438 -0.092894
0.526734 0.412797 0.169086 0.078115 -0.178515 -0.980832
0.571282 0.561558 0.133989 0.120233 -0.132136 -0.983913
0.187282 0.456818 0.587956 0.047393 0.863550 0.502032
0.761207 0.638182 0.290193 0.780741 0.586482 -0.215599
0.286246 0.442849 0.673120 -0.005460 0.741315 0.671135
0.682566 0.838256 0.206783 -0.216660 0.444304 0.869283
0.480997 0.780652 0.183601 -0.000572 0.377432 0.926037
0.831715 0.458820 0.431251 0.985313 0.159336 0.061405
0.348945 0.775019 0.184796 0.096106 0.349819 0.931875
0.325780 0.895297 0.054370 -0.199826 -0.013165 -0.979743
0.623591 0.429860 0.673120 0.033754 0.773128 0.633351
0.691843 0.456818 0.646676 0.045023 0.951595 0.304040
0.663141 0.627129 0.141434 0.350321 -0.105647 -0.930652
0.160434 0.606555 0.466464 0.503734 0.769034 0.393496
0.501534 0.402521 0.673120 0.027196 0.479583 0.877075
0.380300 0.523719 0.246030 0.049366 0.413627 0.909107
0.466632 0.146384 0.451848 0.942954 0.312429 0.115001
0.274997 0.456818 0.542812 0.091857 0.911466 0.400988
0.419149 0.513297 0.248963 0.023428 0.457029 0.889143
0.504553 0.456818 0.591704 0.072453 0.938665 0.337133
0.629712 0.395454 0.173453 0.191270 -0.180328 -0.964830
0.077996 0.636180 0.400324 -0.918007 0.364029 0.157310
0.553205 0.143152 0.407748 0.077386 0.215487 0.973436
0.510745 0.855042 0.167822 0.003026 0.416541 0.909112
0.706058 0.456818 0.583999 -0.049167 0.951130 0.304852
0.445664 0.456818 0.395330 -0.021718 0.962844 0.269184
0.079873 0.638182 0.532632 -0.803562 0.411636 0.429935
0.425478 0.813319 0.176672 0.052630 0.382055 0.922640
0.163235 0.975000 0.204115 -0.356492 0.699525 0.619337
0.436429 0.409089 0.169734 -0.018661 -0.183082 -0.982920
0.745787 0.941850 0.228641 0.543055 0.474624 0.692693
0.160434 0.457073 0.385419 0.375804 0.900206 0.220000
0.408108 0.796471 0.180246 0.060655 0.370590 0.926814
0.517495 0.883166 0.161856 0.005570 0.431476 0.902107
0.105376 0.638182 0.282224 -0.787902 0.580041 -0.206794
0.718263 0.663109 0.268685 -0.401013 0.354064 0.844883
0.670309 0.109810 0.407748 0.107330 0.266983 0.957706
0.750991 0.107626 0.392845 0.282569 0.750960 -0.596837
0.171755 0.456818 0.455874 0.152488 0.925404 0.346951
0.519415 0.921754 0.048602 0.059439 -0.030145 -0.997777
0.160434 0.513264 0.375166 0.325802 0.886653 0.328175
0.747632 0.096387 0.387335 0.164620 0.404247 -0.899714
0.651128 0.518549 0.261088 -0.190657 0.669543 0.717887
0.657543 0.429347 0.184221 0.295316 -0.161439 -0.941661
0.547815 0.834556 0.172167 -0.035453 0.415347 0.908972
0.704638 0.455247 0.673120 0.026339 0.938339 0.344712
0.650574 0.647682 0.127392 0.289682 -0.106468 -0.951183
0.160451 0.658072 0.248678 -0.292074 0.801600 0.521662
0.773658 0.378895 0.599743 0.565026 0.354813 0.744885
0.297783 0.722050 0.196032 0.118530 0.313530 0.942152
0.394727 0.877070 0.163149 0.088260 0.409876 0.907861
0.480591 0.405879 0.170606 0.029395 -0.182793 -0.982712
0.671500 0.893486 0.187394 -0.093817 0.474976 0.874984
0.219860 0.123687 0.393442 -0.287629 0.867146 -0.406605
0.596099 0.823793 0.174450 -0.079362 0.419971 0.904061
0.680633 0.446948 0.196843 0.374897 -0.145674 -0.915550
0.824955 0.525860 0.229137 0.954953 0.125303 -0.269006
0.295182 0.533791 0.139859 -0.185159 -0.141446 -0.972476
0.077996 0.517829 0.512374 -0.946104 0.253046 0.202128
0.749277 0.892705 0.183782 0.910585 0.405161 -0.081727
0.465428 0.711389 0.098255 -0.018225 -0.080297 -0.996604
0.481338 0.863711 0.062243 0.006840 -0.041156 -0.999129
0.514725 0.456818 0.525668 0.087067 0.958441 0.271681
0.077996 0.385219 0.583824 -0.984191 0.113356 0.136080
0.831715 0.402353 0.494854 0.983134 0.149521 0.105312
0.123381 0.062308 0.407748 -0.085212 0.199558 0.976174
0.235407 0.456818 0.635253 0.013639 0.847044 0.531349
0.077996 0.539840 0.257452 -0.956386 0.181609 -0.228790
0.375340 0.456818 0.273639 0.082753 0.635054 0.768023
0.483294 0.861518 0.166448 0.024045 0.415584 0.909237
0.831715 0.519307 0.285821 0.981159 0.127665 -0.145015
0.077996 0.516668 0.380192 -0.977099 0.198486 -0.076685
0.292399 0.727883 0.093911 -0.213247 -0.073113 -0.974259
0.339098 0.454056 0.673120 -0.005926 0.836974 0.547211
0.643034 0.921809 0.056879 0.258193 -0.037054 -0.965382
0.411735 0.456818 0.464715 0.118064 0.959557 0.255561
0.433300 0.456818 0.596817 0.062313 0.921901 0.382382
0.399493 0.507513 0.250590 0.039646 0.452146 0.891062
0.826676 0.420843 0.590148 0.916812 0.268948 0.295166
0.277980 0.456818 0.439905 0.172441 0.948042 0.267359
0.749277 0.791188 0.225775 0.725472 0.591563 0.351772
0.435161 0.885181 0.161429 0.062450 0.420433 0.905172
0.397331 0.427244 0.165338 -0.063144 -0.177671 -0.982062
0.160434 0.504540 0.511912 0.737536 0.632464 0.236708
0.625064 0.456818 0.556807 0.005164 0.956507 0.291665
0.651755 0.093447 0.387335 0.059018 0.147642 -0.987278
0.160434 0.514171 0.409193 0.353534 0.903637 0.241772
0.494148 0.456818 0.441480 -0.010583 0.961318 0.275236
0.160664 0.944748 0.150586 -0.913249 0.314620 -0.258826
0.831715 0.460373 0.557577 0.936859 0.276233 0.214455
0.161077 0.686885 0.284698 0.265062 0.421933 0.867015
0.593436 0.456818 0.392409 -0.201807 0.934499 0.293232
0.593148 0.377097 0.177705 0.152626 -0.187150 -0.970402
0.422190 0.559021 0.236097 0.008250 0.385821 0.922537
0.279094 0.456818 0.368277 0.133309 0.962493 0.236298
0.749277 0.630466 0.387116 -0.548224 0.455746 0.701246
0.722847 0.438092 0.229630 0.499848 -0.125471 -0.856977
0.693417 0.575174 0.175788 0.458139 -0.103577 -0.882825
0.443078 0.071300 0.667330 -0.959107 0.245990 0.140009
0.816303 0.638182 0.510295 0.779629 0.603703 0.166500
0.749277 0.956312 0.152180 0.880771 0.210854 -0.424008
0.763789 0.472155 0.240802 0.773329 0.127513 -0.621050
0.831715 0.487957 0.542828 0.931661 0.305797 0.196206
0.539637 0.827438 0.070977 0.084401 -0.057826 -0.994752
0.443078 0.049923 0.762852 -0.847465 0.479831 0.227081
0.548613 0.665576 0.208011 -0.100180 0.339042 0.935422
0.176054 0.501945 0.322980 0.271117 0.816181 0.510239
0.690244 0.456818 0.363822 -0.351103 0.886404 0.301686
0.322637 0.456818 0.324442 0.108919 0.931727 0.346442
0.057400 0.081011 0.404916 -0.271154 0.634685 0.723637
0.077996 0.393823 0.267836 -0.959971 0.016400 -0.279618
0.290278 0.721721 0.095364 -0.214623 -0.075322 -0.973788
0.466632 0.089846 0.699678 0.817700 0.514955 0.257272
0.742610 0.456818 0.345511 -0.425082 0.851311 0.307530
0.443078 0.125180 0.332574 -0.989986 0.131012 -0.052562
0.363410 0.685135 0.104210 -0.133709 -0.087144 -0.987182
0.749277 0.600146 0.541783 -0.695429 0.542109 0.471695
0.253450 0.929650 0.064297 -0.375989 0.019216 -0.926425
0.627098 0.960733 0.145402 -0.052748 0.484904 0.872975
0.466632 0.053262 0.116834 0.979979 0.161213 -0.116842
0.416479 0.405776 0.673120 0.002212 0.494962 0.868912
0.335327 0.829228 0.070032 -0.181905 -0.036275 -0.982647
0.647232 0.975000 0.062105 0.327665 0.071828 -0.942060
0.166939 0.456818 0.562558 0.066183 0.873243 0.482770
0.588928 0.903169 0.157613 -0.043287 0.453303 0.890305
0.761708 0.420402 0.590249 0.319789 0.448456 0.834639
0.281394 0.456818 0.441470 0.171498 0.948173 0.267501
0.675123 0.585052 0.259012 -0.299385 0.530187 0.793265
0.293103 0.773713 0.185073 0.133614 0.339583 0.931038
0.414534 0.575797 0.231376 0.011605 0.366152 0.930483
0.160434 0.509959 0.399599 0.337893 0.907551 0.249359
0.077996 0.376771 0.367230 -0.986770 0.031029 -0.159127
0.679518 0.725822 0.228519 -0.276136 0.386685 0.879900
0.689199 0.878046 0.100935 0.478393 -0.021586 -0.877881
0.160434 0.549944 0.358505 0.355274 0.786288 0.505502
0.265904 0.456818 0.346747 0.118120 0.964631 0.235656
0.521506 0.631496 0.215703 -0.087036 0.328329 0.940545
0.277630 0.097603 0.387335 -0.062540 0.123361 -0.990389
0.077996 0.542945 0.290930 -0.962976 0.197456 -0.183541
0.365540 0.456818 0.344557 0.006063 0.963954 0.266001
0.557802 0.488681 0.151203 0.101932 -0.150832 -0.983290
0.565541 0.488904 0.255826 -0.068228 0.650786 0.756189
0.160434 0.617276 0.365717 0.417585 0.585611 0.694754
0.300349 0.968678 0.143717 0.172483 0.438953 0.881799
0.276845 0.491965 0.149712 -0.198396 -0.156029 -0.967623
0.205828 0.456818 0.396855 0.199692 0.947082 0.251314
0.443078 0.112932 0.221302 -0.924544 0.352363 -0.145116
0.517180 0.140937 0.387335 0.076063 0.236563 -0.968634
0.443078 0.110223 0.591155 -0.930899 0.333151 0.149794
0.297707 0.548016 0.136498 -0.184441 -0.136457 -0.973325
0.398533 0.456818 0.276413 0.066806 0.681198 0.729045
0.531294 0.456818 0.350665 -0.191548 0.939224 0.284899
0.404727 0.405602 0.170479 -0.052329 -0.185036 -0.981338
0.318218 0.146458 0.387335 -0.120016 0.359516 -0.925389
0.434255 0.898410 0.158622 0.066084 0.426990 0.901838
0.570101 0.671593 0.107941 0.121245 -0.102789 -0.987286
0.182013 0.866041 0.232180 0.053030 0.550405 0.833212
0.226724 0.809598 0.213153 0.248029 0.401191 0.881775
0.160434 0.593460 0.468564 0.489200 0.801589 0.343712
0.496143 0.456818 0.655497 0.020973 0.907063 0.420473
0.431150 0.962079 0.145117 0.082614 0.458265 0.884968
0.490884 0.158074 0.387335 0.099765 0.320533 -0.941969
0.536488 0.411248 0.169478 0.088733 -0.178592 -0.979914
0.604584 0.704637 0.199726 -0.131271 0.367485 0.920718
0.211560 0.449599 0.673120 -0.015287 0.763192 0.645991
0.460165 0.473816 0.260072 0.012847 0.592760 0.805277
0.466632 0.091548 0.561822 0.989933 0.127047 0.062382
0.807766 0.638182 0.209642 0.943952 0.269778 -0.190195
0.728582 0.613502 0.288071 -0.442444 0.424263 0.790091
0.734494 0.732477 0.168421 0.623164 -0.035776 -0.781272
0.749277 0.760093 0.242569 0.452935 0.638491 0.622237
0.129770 0.638182 0.422295 0.034753 0.983275 0.178778
0.386371 0.798064 0.179908 0.075889 0.367945 0.926745
0.389568 0.379163 0.176698 -0.065064 -0.194448 -0.978753
0.489824 0.176998 0.428161 0.503454 0.000000 0.864022
0.244465 0.456818 0.514195 0.112191 0.917495 0.381596
0.485569 0.716139 0.197286 -0.028918 0.349447 0.936510
0.053114 0.066547 0.407748 -0.187787 0.411669 0.891776
0.749277 0.415707 0.599631 -0.345334 0.562238 0.751420
0.406558 0.483036 0.152155 -0.060641 -0.158007 -0.985574
0.558034 0.397837 0.673120 0.040595 0.449890 0.892161
0.590385 0.506633 0.147038 0.143838 -0.148367 -0.978416
0.272800 0.640474 0.217081 0.122962 0.272626 0.954230
0.256591 0.782919 0.096509 -0.298218 -0.047275 -0.953326
0.328502 0.644863 0.212405 0.073855 0.281434 0.956734
0.365723 0.592059 0.226800 0.049177 0.337391 0.940079
0.278105 0.524073 0.245998 0.133235 0.388223 0.911883
0.749277 0.948983 0.201126 0.824172 0.454498 0.337893
0.502162 0.664250 0.109506 0.030410 -0.097378 -0.994783
0.535459 0.975000 0.070337 -0.007300 0.371154 -0.928543
0.638994 0.808048 0.080912 0.237004 -0.069384 -0.969028
0.583279 0.474401 0.154648 0.133813 -0.156229 -0.978615
0.629341 0.456818 0.561372 0.006820 0.956357 0.292120
0.699840 0.435730 0.673120 0.037952 0.842096 0.537991
0.443078 0.045825 0.738476 -0.938448 0.300305 0.170681
0.199671 0.811941 0.231413 0.194618 0.458580 0.867081
0.222918 0.456818 0.475739 0.140913 0.928237 0.344268
0.708088 0.374266 0.673120 0.061043 0.283998 0.956880
0.331424 0.649458 0.211430 0.073202 0.284198 0.955967
0.671220 0.504408 0.278997 -0.247208 0.727064 0.640520
0.831715 0.404763 0.466302 0.989340 0.136855 0.049768
0.490186 0.143604 0.406499 0.796700 0.000000 0.604375
0.139333 0.564205 0.219523 -0.736331 0.301825 -0.605573
0.636625 0.573938 0.134706 0.221075 -0.132276 -0.966245
0.178494 0.456818 0.465682 0.145308 0.923165 0.355883
0.570978 0.418886 0.167757 0.124437 -0.174226 -0.976812
0.250721 0.962952 0.058437 -0.418131 0.040649 -0.907477
0.758362 0.433581 0.587234 0.235446 0.472552 0.849270
0.667730 0.510557 0.274847 -0.239758 0.709935 0.662199
0.466632 0.130384 0.494183 0.950752 0.289097 0.111773
0.160434 0.578698 0.376602 0.401362 0.730690 0.552268
0.772053 0.638182 0.276171 0.847758 0.474526 -0.236921
0.723238 0.456818 0.519557 -0.163959 0.936464 0.310084
0.706108 0.516773 0.299707 -0.366799 0.738004 0.566400
0.160563 0.786541 0.202163 -0.792778 0.603980 0.081924
0.465518 0.140501 0.428161 -0.042001 0.000000 0.999118
0.461944 0.783314 0.183037 0.016245 0.374395 0.927127
0.498396 0.456818 0.287875 -0.003851 0.843924 0.536449
0.151774 0.561174 0.558049 0.230419 0.760879 0.606605
0.545877 0.841017 0.067779 0.093001 -0.054900 -0.994151
0.160536 0.754892 0.196054 -0.809900 0.535108 -0.240254
0.265778 0.376333 0.673120 -0.080963 0.243588 0.966494
0.749277 0.648050 0.256771 0.100487 0.741836 0.663009
0.240439 0.456818 0.446175 0.165116 0.940722 0.296275
0.794772 0.560169 0.220528 0.910886 0.259003 -0.321254
0.188463 0.373149 0.243296 -0.443548 -0.170289 -0.879924
0.160434 0.535497 0.502915 0.650320 0.715652 0.254807
0.719676 0.671877 0.267804 -0.401760 0.358280 0.842748
0.474722 0.417228 0.673120 0.024966 0.600335 0.799359
0.366348 0.656294 0.209980 0.047116 0.295569 0.954159
0.732291 0.531213 0.313797 -0.444251 0.691591 0.569511
0.117855 0.466321 0.579746 -0.646614 0.358027 0.673578
0.639102 0.707135 0.204461 -0.172730 0.374447 0.911018
0.052247 0.074044 0.387335 -0.224324 0.637270 -0.737269
0.439414 0.818269 0.072891 -0.050967 -0.048224 -0.997535
0.458986 0.075758 0.759335 0.437487 0.812366 0.385573
0.178710 0.456818 0.574519 0.057525 0.869385 0.490775
0.573252 0.392041 0.174117 0.130042 -0.183250 -0.974427
0.421155 0.975000 0.123477 0.019128 0.573626 0.818894
0.557248 0.953746 0.041126 0.110438 -0.026084 -0.993541
0.207035 0.651280 0.164181 -0.452709 -0.072344 -0.888719
0.749277 0.513789 0.563253 -0.867602 0.397084 0.299318
0.745169 0.941089 0.126806 0.704211 0.028960 -0.709400
0.249211 0.459309 0.177891 -0.277199 -0.160070 -0.947385
0.387018 0.884759 0.161518 0.095269 0.412507 0.905959
0.459206 0.459148 0.264199 0.020177 0.625346 0.780086
0.569381 0.877253 0.059262 0.124806 -0.047882 -0.991025
0.381652 0.415952 0.167970 -0.078432 -0.181856 -0.980192
0.094085 0.509462 0.569878 -0.816462 0.324621 0.477506
0.478029 0.456818 0.570901 0.086630 0.941614 0.325359
0.804289 0.638182 0.267775 0.923967 0.350592 -0.152874
0.341322 0.735454 0.193189 0.092153 0.327898 0.940208
0.160434 0.631064 0.432947 0.500263 0.656304 0.564803
0.769311 0.602901 0.548504 -0.349559 0.703359 0.618946
0.690172 0.456818 0.534738 -0.103082 0.946841 0.304739
0.447550 0.760350 0.187908 0.019459 0.360974 0.932373
0.516367 0.851146 0.065306 0.053791 -0.048751 -0.997361
0.104415 0.373061 0.601078 -0.870067 0.209580 0.446161
0.703668 0.456818 0.460030 -0.228909 0.923621 0.307450
0.807874 0.606455 0.547691 0.593717 0.704745 0.388374
0.232856 0.456818 0.506071 0.117704 0.918438 0.377646
0.466632 0.125687 0.208761 0.853017 0.484713 -0.193429
0.616160 0.448922 0.160763 0.175512 -0.165530 -0.970461
0.182142 0.697760 0.267786 0.305352 0.383110 0.871772
0.749277 0.516579 0.334529 -0.481074 0.725916 0.491543
0.314700 0.712829 0.197988 0.104963 0.311583 0.944404
0.118253 0.450037 0.246652 -0.732118 0.027041 -0.680641
0.628219 0.873945 0.163812 -0.086623 0.447924 0.889866
0.691598 0.387134 0.218972 0.388876 -0.156044 -0.907979
0.091443 0.570456 0.219107 -0.896992 0.198309 -0.395067
0.796792 0.638182 0.283539 0.903759 0.396474 -0.161330
0.570663 0.715461 0.197430 -0.099504 0.366239 0.925185
0.381123 0.661667 0.109809 -0.111722 -0.095183 -0.989171
0.749277 0.494550 0.495878 -0.764491 0.564471 0.311330
0.347348 0.412336 0.168739 -0.114423 -0.183505 -0.976337
0.463837 0.582905 0.128662 -0.011788 -0.121261 -0.992551
0.077996 0.440943 0.346138 -0.982486 0.098731 -0.158032
0.689057 0.861394 0.206375 -0.101020 0.469363 0.877208
0.169509 0.391382 0.673120 -0.098295 0.350187 0.931508
0.609129 0.815003 0.074097 0.174997 -0.068702 -0.982169
0.831715 0.481902 0.484337 0.961409 0.232003 0.147877
0.329608 0.619583 0.119640 -0.160741 -0.110985 -0.980737
0.211790 0.851848 0.113309 -0.574395 0.027874 -0.818104
0.329470 0.646538 0.113259 -0.164429 -0.101432 -0.981160
0.493088 0.456818 0.431273 -0.024483 0.960912 0.275769
0.161273 0.975000 0.163693 -0.850782 0.524193 0.037297
0.443078 0.078708 0.720162 -0.755989 0.604500 0.251118
0.089177 0.620591 0.207488 -0.906185 0.272557 -0.323329
0.749277 0.600124 0.311111 -0.500041 0.469786 0.727503
0.432707 0.452391 0.159475 -0.028370 -0.168127 -0.985357
0.530160 0.164264 0.407748 0.097705 0.303788 0.947716
0.077996 0.549040 0.439294 -0.958904 0.266393 0.097662
0.283194 0.499625 0.252810 0.133205 0.414774 0.900122
0.160434 0.604635 0.475101 0.506686 0.782013 0.362939
0.624399 0.456818 0.398181 -0.229081 0.926951 0.297125
0.487833 0.412982 0.168943 0.036292 -0.180073 -0.982984
0.139828 0.102664 0.401792 -0.294385 0.774705 0.559616
0.443078 0.145398 0.445306 -0.982738 0.171343 0.069765
0.518649 0.796995 0.180134 -0.025592 0.392744 0.919292
0.335544 0.153056 0.387335 -0.118368 0.362418 -0.924469
0.439550 0.190487 0.428161 -0.518132 0.000000 0.855300
0.389239 0.511393 0.145399 -0.083041 -0.148372 -0.985439
0.160434 0.553458 0.396876 0.392212 0.824124 0.408645
0.443078 0.109892 0.243659 -0.959980 0.258079 -0.108782
0.523055 0.392742 0.173824 0.076669 -0.185565 -0.979636
0.517028 0.471302 0.155214 0.060345 -0.158692 -0.985482
0.605052 0.456818 0.271643 -0.084955 0.785922 0.612461
0.162894 0.975000 0.206982 -0.327259 0.695641 0.639520
0.679738 0.646909 0.245410 -0.304902 0.348282 0.886417
0.205605 0.482353 0.204931 -0.409365 -0.137685 -0.901922
0.164323 0.840199 0.249927 0.036064 0.565039 0.824276
0.160434 0.499614 0.572239 0.889219 0.406629 0.209626
0.615730 0.818712 0.073236 0.183487 -0.068399 -0.980640
0.490186 0.241381 0.393466 0.999991 0.000000 0.004250
0.831715 0.524177 0.473680 0.948067 0.290472 0.129592
0.236502 0.945222 0.073081 -0.493646 0.048829 -0.868291
0.224499 0.669748 0.146927 -0.378747 -0.077138 -0.922280
0.282375 0.868754 0.164913 0.162417 0.386202 0.908002
0.282904 0.093758 0.407748 -0.039741 0.091263 0.995033
0.466622 0.158412 0.428161 0.027212 0.000000 0.999630
0.183580 0.522690 0.311925 0.278883 0.712668 0.643684
0.402118 0.929853 0.046385 -0.098498 -0.013499 -0.995046
0.285047 0.140811 0.398417 -0.299903 0.922195 0.244163
0.498809 0.567196 0.233796 -0.056258 0.397561 0.915849
0.473177 0.456818 0.398141 -0.050362 0.960360 0.274174
0.160434 0.439944 0.647511 0.054951 0.725148 0.686396
0.077996 0.496471 0.269839 -0.962968 0.136028 -0.232786
0.498443 0.456818 0.621776 0.048080 0.924536 0.378050
0.077996 0.420222 0.341513 -0.982116 0.072826 -0.173624
0.749277 0.765839 0.180899 0.840496 0.372699 -0.393270
0.160434 0.585257 0.438906 0.460712 0.792688 0.399238
0.132213 0.638182 0.304154 -0.604999 0.754742 -0.253656
0.466632 0.077076 0.644791 0.964424 0.239524 0.111867
0.077996 0.574443 0.342450 -0.963763 0.257809 -0.068519
0.077996 0.499371 0.397943 -0.980920 0.184611 -0.060948
0.469607 0.479899 0.153058 0.007964 -0.157436 -0.987497
0.163109 0.428922 0.249005 -0.546884 -0.135383 -0.826189
0.798629 0.638182 0.212135 0.927340 0.306459 -0.214763
0.675234 0.860839 0.196909 -0.182788 0.454550 0.871764
0.481425 0.456818 0.485388 0.068088 0.960810 0.268715
0.791106 0.638182 0.382708 0.839181 0.538261 -0.077789
0.459033 0.489991 0.150642 -0.004813 -0.154230 -0.988023
0.263268 0.531153 0.150584 -0.244714 -0.138721 -0.959620
0.490186 0.389079 0.375061 0.617951 0.000000 -0.786217
0.077996 0.544007 0.238130 -0.951069 0.179192 -0.251710
0.443078 0.087810 0.087446 -0.814950 0.516090 -0.263641
0.318928 0.126183 0.407748 -0.096256 0.284034 0.953970
0.255084 0.603089 0.139803 -0.279214 -0.110849 -0.953809
0.677243 0.945817 0.180276 0.129087 0.504901 0.853470
0.178128 0.909254 0.225707 -0.028682 0.593820 0.804086
0.312662 0.842440 0.170495 0.136132 0.378313 0.915613
0.375469 0.164563 0.393117 -0.210178 0.662734 -0.718755
0.358682 0.511658 0.249424 0.069373 0.421111 0.904352
0.160434 0.489369 0.503906 0.740981 0.630865 0.230125
0.116977 0.596561 0.549954 -0.388587 0.678634 0.623262
0.609762 0.975000 0.063407 0.212251 0.202978 -0.955902
0.433850 0.383194 0.428161 -0.179078 0.000000 0.983835
0.443078 0.049630 0.742503 -0.909098 0.369809 0.191787
0.077996 0.601398 0.361757 -0.952756 0.303317 0.015984
0.831715 0.510728 0.356511 0.987109 0.159590 -0.012132
0.088575 0.496781 0.572778 -0.867049 0.289383 0.405567
0.648882 0.763639 0.098657 0.283700 -0.076179 -0.955882
0.749277 0.518865 0.467814 -0.656129 0.657063 0.371164
0.647674 0.481598 0.269091 -0.159301 0.740983 0.652356
0.086447 0.581069 0.216680 -0.915113 0.211975 -0.342980
0.438856 0.923175 0.048060 -0.049227 -0.019882 -0.998590
0.862617 0.054908 0.387335 0.152545 0.325854 -0.933032
0.378873 0.381414 0.176138 -0.076789 -0.193839 -0.978023
0.077996 0.432331 0.392041 -0.989407 0.104761 -0.100498
0.586727 0.878397 0.059035 0.147459 -0.049514 -0.987828
0.076966 0.049762 0.407748 -0.095218 0.204040 0.974321
0.447518 0.152929 0.428161 -0.452186 0.000000 0.891924
0.182045 0.779747 0.250462 0.189263 0.467830 0.863316
0.699919 0.908396 0.101557 0.527392 -0.006606 -0.849597
0.308904 0.907086 0.051536 -0.218798 -0.009324 -0.975726
0.580091 0.144393 0.407748 0.099739 0.285126 0.953287
0.077996 0.511807 0.505713 -0.953437 0.243230 0.178318
0.519544 0.918351 0.154392 0.012213 0.449572 0.893160
0.156814 0.638182 0.251469 -0.646163 0.633858 -0.425085
0.633815 0.138407 0.403113 0.235586 0.717833 0.655145
0.586328 0.796793 0.078349 0.145228 -0.071153 -0.986836
0.749277 0.629509 0.365549 -0.534856 0.436735 0.723320
0.749277 0.579777 0.316469 -0.500874 0.537211 0.678624
0.457570 0.486615 0.151438 -0.005956 -0.155459 -0.987824
0.749277 0.662153 0.285823 -0.387355 0.396792 0.832173
0.443078 0.074977 0.650832 -0.965633 0.224982 0.130136
0.820283 0.073728 0.407748 0.184555 0.490708 0.851555
0.749277 0.430580 0.604509 -0.535852 0.612689 0.580926
0.077996 0.414062 0.316700 -0.976278 0.056858 -0.208921
0.475603 0.456818 0.403822 -0.044720 0.960609 0.274280
0.471146 0.456818 0.519567 0.125804 0.956384 0.263633
0.655343 0.109978 0.387335 0.105328 0.297554 -0.948877
0.088291 0.516864 0.568184 -0.851075 0.310224 0.423594
0.749277 0.816043 0.208520 0.850022 0.514220 0.114199
0.749277 0.478371 0.531051 -0.857421 0.447214 0.254616
0.160545 0.764852 0.224663 -0.406261 0.653045 0.639128
0.472554 0.819322 0.175399 0.021115 0.392600 0.919467
0.413433 0.550248 0.136264 -0.062157 -0.134169 -0.989007
0.602514 0.975000 0.084965 0.196901 0.841088 -0.503786
0.077996 0.425582 0.473372 -0.992213 0.124408 0.006065
0.164736 0.975000 0.137515 -0.898591 0.292212 -0.327332
0.453494 0.745134 0.090238 -0.033617 -0.069719 -0.997000
0.713620 0.475498 0.316529 -0.356186 0.816311 0.454717
0.448627 0.034924 0.025000 -0.867714 0.421486 -0.263479
0.749277 0.465668 0.371223 -0.486851 0.815641 0.312580
0.365679 0.872393 0.164141 0.106999 0.402685 0.909063
0.627481 0.968746 0.037755 0.201260 -0.030183 -0.979073
0.749277 0.812137 0.205422 0.861382 0.504572 0.058555
0.263359 0.630413 0.127238 -0.257948 -0.103631 -0.960585
0.466632 0.077425 0.078955 0.786488 0.567359 -0.244008
0.537734 0.456818 0.300213 -0.082727 0.865554 0.493937
0.419525 0.257354 0.428046 -0.700911 0.000000 0.713249
0.566067 0.456818 0.469171 -0.054500 0.956422 0.286855
0.217275 0.456818 0.566585 0.067497 0.884738 0.461175
0.490186 0.204113 0.407898 0.885053 0.000000 0.465490
0.160434 0.387112 0.622580 -0.230134 0.430454 0.872782
0.265020 0.650874 0.121203 -0.255681 -0.096868 -0.961896
0.219576 0.397484 0.214440 -0.357139 -0.172758 -0.917936
0.831715 0.602746 0.452409 0.913958 0.395045 0.092842
0.246226 0.391735 0.673120 -0.071990 0.363434 0.928834
0.721788 0.665837 0.174957 0.569778 -0.061903 -0.819464
0.831715 0.521873 0.313328 0.985855 0.144964 -0.084117
0.443122 0.153971 0.289781 -0.830380 0.516875 -0.208106
0.353464 0.613347 0.121176 -0.134787 -0.112877 -0.984424
0.438163 0.327638 0.428161 -0.193107 0.000000 0.981178
0.446063 0.371811 0.428161 0.065602 0.000000 0.997846
0.461132 0.087748 0.719776 0.579148 0.737638 0.347100
0.645892 0.456818 0.393137 -0.260964 0.917747 0.299397
0.139907 0.638182 0.280395 -0.645098 0.688172 -0.332066
0.160473 0.682598 0.230626 -0.587096 0.789132 0.180525
0.192310 0.860017 0.226318 0.096342 0.522596 0.847120
0.227375 0.456818 0.662744 -0.008938 0.825106 0.564907
0.253400 0.449955 0.176968 -0.263250 -0.164558 -0.950589
0.322391 0.661704 0.109651 -0.173804 -0.096146 -0.980076
0.378155 0.456818 0.276577 0.081600 0.664516 0.742805
0.373626 0.975000 0.128264 0.086713 0.528754 0.844334
0.404041 0.975000 0.036957 -0.100114 0.004784 -0.994964
0.493040 0.142275 0.387335 0.060109 0.190566 -0.979832
0.690923 0.640560 0.158499 0.472550 -0.086345 -0.877064
0.831715 0.409968 0.560339 0.954119 0.195941 0.226415
0.273986 0.975000 0.061764 -0.286781 0.189890 -0.938988
0.549336 0.945406 0.043080 0.099814 -0.027375 -0.994629
0.197716 0.605061 0.278946 0.269751 0.375237 0.886810
0.720506 0.456818 0.419831 -0.305470 0.901128 0.307664
0.881978 0.061428 0.407748 0.219672 0.601893 0.767769
0.577219 0.500782 0.252484 -0.082058 0.634098 0.768887
0.543034 0.719304 0.096580 0.086515 -0.087191 -0.992428
0.527052 0.399869 0.673120 0.032628 0.462095 0.886230
0.077996 0.409739 0.556238 -0.983969 0.133362 0.118408
0.160434 0.549866 0.363326 0.359695 0.793051 0.491620
0.166638 0.391931 0.255129 -0.505599 -0.155006 -0.848730
0.831715 0.474851 0.385985 0.988954 0.148032 -0.007521
0.222810 0.456818 0.370201 0.197833 0.954548 0.222936
0.609897 0.456818 0.520066 -0.030773 0.956046 0.291597
0.315179 0.456818 0.436158 0.177636 0.953873 0.242018
0.155264 0.085896 0.407748 -0.134448 0.330268 0.934263
0.429249 0.474881 0.154143 -0.035073 -0.160350 -0.986437
0.224181 0.842364 0.106437 -0.492233 0.007600 -0.870431
0.077996 0.574557 0.480741 -0.921980 0.313151 0.227795
0.160434 0.619961 0.535540 0.596856 0.749084 0.287464
0.695760 0.949682 0.192295 0.263968 0.507001 0.820531
0.077996 0.453820 0.552117 -0.965559 0.186789 0.181125
0.077996 0.495580 0.512025 -0.960271 0.224976 0.165124
0.383535 0.655307 0.210189 0.032561 0.299130 0.953657
0.728791 0.423477 0.673120 0.048381 0.764967 0.642249
0.574944 0.456818 0.519687 0.009450 0.958514 0.284888
0.458306 0.045448 0.025000 0.601999 0.690586 -0.400858
0.534025 0.975000 0.120038 -0.124347 0.618717 0.775711
0.160603 0.835028 0.195078 -0.808772 0.543221 0.225387
0.300090 0.695355 0.201694 0.110776 0.299946 0.947502
0.749277 0.550054 0.463928 -0.590788 0.686295 0.424228
0.077996 0.469883 0.436112 -0.986295 0.163328 -0.023363
0.159201 0.625305 0.204529 -0.718785 0.476373 -0.506376
0.384869 0.456818 0.662993 0.004981 0.873196 0.487344
0.220222 0.456818 0.553667 0.078251 0.892632 0.443942
0.831715 0.557309 0.348169 0.978723 0.204695 0.014155
0.305600 0.852482 0.168364 0.143168 0.382167 0.912936
0.410297 0.386672 0.673120 -0.022245 0.344499 0.938523
0.670368 0.456818 0.448946 -0.207074 0.930112 0.303334
0.530740 0.915426 0.050128 0.074452 -0.033195 -0.996672
0.077996 0.549833 0.495483 -0.932542 0.287304 0.218683
0.680791 0.456818 0.589810 -0.011477 0.953944 0.299765
0.450133 0.045406 0.025000 -0.625288 0.671699 -0.397285
0.731799 0.912695 0.123794 0.659480 0.014027 -0.751592
0.803355 0.090665 0.387335 0.209169 0.485235 -0.848996
0.831715 0.381011 0.447291 0.993725 0.108064 -0.028871
0.558656 0.826497 0.071248 0.109610 -0.060228 -0.992148
0.280251 0.887329 0.160973 0.167988 0.395133 0.903134
0.458437 0.076412 0.757175 0.401071 0.828948 0.389855
0.228075 0.456818 0.457010 0.155899 0.935460 0.317192
0.227536 0.456818 0.464326 0.150188 0.933025 0.326967
0.179609 0.928119 0.118957 -0.787980 0.106227 -0.606468
0.338308 0.961882 0.038642 -0.181900 0.002950 -0.983313
0.293200 0.744972 0.191170 0.126924 0.324690 0.937265
0.453996 0.235231 0.361818 0.036541 0.000000 -0.999332
0.089675 0.605892 0.210956 -0.901095 0.244178 -0.358337
0.287477 0.902400 0.052591 -0.239861 -0.011592 -0.970738
0.500654 0.456818 0.516438 0.090036 0.958753 0.269603
0.749277 0.585998 0.534807 -0.703655 0.548001 0.452288
0.270651 0.593758 0.231558 0.134860 0.321418 0.937285
0.160434 0.518024 0.393518 0.344801 0.891540 0.293715
0.831715 0.573740 0.545769 0.877658 0.445218 0.177474
0.482808 0.719994 0.196468 -0.025160 0.350606 0.936185
0.338422 0.975000 0.103346 -0.042166 0.818889 0.572401
0.373111 0.713622 0.097492 -0.127130 -0.076765 -0.988911
0.749277 0.532154 0.501721 -0.717433 0.585397 0.377625
0.689969 0.946071 0.085364 0.482401 -0.002480 -0.875947
0.437857 0.718760 0.196730 0.011690 0.340186 0.940285
0.749277 0.716982 0.242233 0.478389 0.701460 0.528297
