0.045858 0.348172 0.312423 -0.729049 -0.684461 0.000000
0.420962 0.641235 0.109574 0.996030 0.044405 0.077156
0.346990 0.342415 0.153829 0.001283 -0.999644 -0.026643
0.251497 0.588927 0.116745 0.000000 0.145935 0.989294
0.289110 0.764145 0.040232 0.000848 -0.118829 -0.992914
0.171853 0.620919 0.065595 -0.009312 -0.148473 -0.988873
0.349202 0.342415 0.475629 0.002104 -0.999984 0.005216
0.230658 0.408377 0.490594 0.000000 0.999624 0.027424
0.392668 0.771230 0.097380 -0.151099 0.139981 0.978557
0.235123 0.133753 0.315136 -0.212971 0.952973 -0.215607
0.535074 0.032388 0.645080 -0.593723 -0.795259 -0.122704
0.232467 0.103518 0.420714 0.297153 0.786869 0.540868
0.231076 0.409350 0.379127 0.000000 0.999962 0.008725
0.187699 0.515871 0.127503 -0.000023 0.114863 0.993381
0.191893 0.124979 0.345799 -0.587896 0.755242 0.289807
0.450491 0.552092 0.297368 0.010161 -0.999939 -0.004390
0.434783 0.357098 0.180780 0.998385 -0.053416 -0.019328
0.348321 0.342415 0.131846 0.002396 -0.997522 -0.070310
0.083332 0.055363 0.316992 -0.024373 -0.977379 -0.210086
0.097820 0.414005 0.292613 0.061038 0.998097 0.008712
0.250186 0.415381 0.116217 0.000000 -0.987689 0.156428
0.210106 0.342415 0.475397 0.000000 -0.999998 0.001793
0.070218 0.406284 0.544099 -0.409941 0.384339 0.827183
0.051580 0.563437 0.285905 0.893428 0.449201 -0.002178
0.280004 0.566931 0.075155 0.000674 -0.160105 -0.987100
0.238151 0.169852 0.349481 -0.114551 0.062263 0.991464
0.236066 0.414082 0.108012 0.000000 -0.998594 0.053019
0.327402 0.445913 0.136395 -0.023124 0.054499 0.998246
0.232821 0.495941 0.085866 0.000000 -0.193105 -0.981178
0.274335 0.406219 0.540108 -0.002407 0.962029 0.272936
0.265265 0.342415 0.504846 0.000000 -0.998624 0.052449
0.212202 0.686748 0.053938 0.000000 -0.140100 -0.990137
0.446332 0.541967 0.458699 0.450162 0.767019 0.457204
0.393779 0.566130 0.130897 -0.112924 0.148379 0.982462
0.025000 0.562946 0.338839 -0.924429 0.381241 0.009318
0.311549 0.342415 0.476355 0.000023 -0.999998 0.002171
0.390832 0.414914 0.268002 -0.016454 0.999826 0.008728
0.281542 0.822728 0.076249 0.000000 0.136711 0.990611
0.145713 0.101777 0.311029 -0.532168 0.753100 -0.386829
0.436175 0.399884 0.140160 -0.652736 -0.346487 -0.673708
0.389162 0.425027 0.106732 0.332492 -0.285628 -0.898813
0.278513 0.745710 0.043497 0.000598 -0.131009 -0.991381
0.405555 0.415261 0.374227 0.007076 0.999937 0.008721
0.622573 0.053166 0.387352 0.222405 0.853875 0.470568
0.324564 0.619982 0.065761 0.022901 -0.154320 -0.987756
0.251375 0.413189 0.102371 0.000000 -0.893075 -0.449907
0.400119 0.383998 0.107452 0.337903 -0.004713 -0.941169
0.223670 0.487096 0.087122 0.000000 -0.197493 -0.980304
0.069813 0.342415 0.180815 -0.107487 -0.994176 -0.007785
0.347451 0.557067 0.076902 0.060976 -0.167365 -0.984008
0.383961 0.353169 0.550184 0.163835 -0.151181 0.974835
0.294360 0.683108 0.054583 0.001860 -0.133833 -0.991002
0.153907 0.410987 0.191529 0.026360 0.999640 0.005060
0.221695 0.411271 0.158970 0.000000 0.999843 -0.017737
0.135174 0.342415 0.262344 -0.001406 -0.999999 0.000000
0.370595 0.342415 0.471219 0.006439 -0.999976 0.002448
0.417003 0.342732 0.222581 0.158304 -0.987390 0.000000
0.062155 0.692464 0.086026 -0.999555 0.027951 0.010417
0.205986 0.942057 0.025705 0.000000 0.082325 -0.996606
0.198530 0.408685 0.455280 0.000916 0.999943 0.010677
0.277473 0.509678 0.083915 0.002062 -0.185751 -0.982595
0.253606 0.118423 0.281375 0.246191 0.570949 -0.783203
0.343446 0.774482 0.038402 0.101605 -0.124956 -0.986946
0.359009 0.675262 0.101781 -0.142728 0.137035 0.980230
0.211361 0.886041 0.027452 0.000000 -0.013966 -0.999902
0.227907 0.342415 0.159070 0.000000 -0.999337 -0.036395
0.203199 0.470934 0.089417 -0.000979 -0.218637 -0.975806
0.027129 0.562410 0.191393 -0.250935 0.966291 -0.057564
0.032843 0.054887 0.326964 -0.905716 -0.375494 0.196678
0.270198 0.410198 0.281875 -0.001570 0.999961 0.008725
0.235033 0.297305 0.315045 -0.439354 0.065473 -0.895925
0.025000 0.560965 0.350966 -0.998302 0.056027 0.015946
0.364316 0.342415 0.476798 0.005422 -0.999979 0.003509
0.181240 0.345022 0.545364 -0.000057 -0.879859 0.475234
0.280869 0.833804 0.075019 0.000000 0.138363 0.990382
0.436111 0.437677 0.138783 -0.643804 -0.253097 -0.722121
0.390642 0.823158 0.088161 -0.165423 0.136890 0.976676
0.399595 0.741066 0.058329 0.300134 -0.118669 -0.946487
0.074633 0.855505 0.076605 -0.945020 0.159338 0.285565
0.125512 0.974628 0.050533 -0.048835 0.998452 -0.026628
0.283166 0.629187 0.064131 0.000786 -0.152181 -0.988352
0.234415 0.855594 0.073794 0.000000 0.146201 0.989255
0.142990 0.837634 0.028961 -0.077604 -0.094984 -0.992449
0.330248 0.668233 0.103008 -0.022669 0.141211 0.989720
0.431645 0.554240 0.156718 -0.993746 0.010092 -0.111205
0.434075 0.514333 0.138492 -0.785059 -0.056919 -0.616800
0.186643 0.071040 0.178597 -0.323877 0.841728 -0.431970
0.195334 0.066046 0.150407 0.739676 0.507672 -0.441756
0.423048 0.402328 0.116255 0.711450 0.045015 -0.701293
0.256242 0.259700 0.328341 0.989579 0.131522 0.058612
0.439882 0.386803 0.403055 -0.486873 0.533956 -0.691264
0.422614 0.612596 0.081154 0.532738 -0.123175 -0.837268
0.362336 0.412580 0.253543 -0.066845 0.997725 0.008709
0.134399 0.342415 0.402671 -0.001315 -0.999999 0.000000
0.063591 0.415540 0.401948 -0.139739 0.990149 0.008787
0.183656 0.409458 0.366770 0.003011 0.999957 0.008721
0.259041 0.974506 0.047738 0.000000 0.983974 -0.178313
0.271091 0.807819 0.078831 0.000000 0.134443 0.990921
0.124572 0.062834 0.311623 -0.131184 -0.961424 -0.241776
0.179211 0.383072 0.107461 0.000003 -0.000610 -1.000000
0.105973 0.413491 0.270811 0.074869 0.997155 0.008704
0.069326 0.714367 0.060387 -0.386273 -0.117528 -0.914866
0.312514 0.342415 0.240446 0.000000 -1.000000 0.000000
0.195349 0.410106 0.292467 0.003585 0.999956 0.008723
0.287758 0.770276 0.039147 0.000810 -0.118511 -0.992952
0.192226 0.066225 0.223201 -0.577100 -0.814369 -0.061313
0.281303 0.764110 0.086402 0.000000 0.141425 0.989949
0.115859 0.739775 0.045385 -0.169769 -0.136656 -0.975963
0.309212 0.930463 0.026066 0.014294 0.055958 -0.998331
0.045858 0.369338 0.483219 -0.998443 0.000016 0.055789
0.059899 0.382545 0.113638 -0.562272 -0.003982 -0.826942
0.208744 0.082770 0.354539 -0.486391 -0.821111 0.298665
0.240758 0.078149 0.315269 -0.030998 -0.882031 -0.470171
0.218893 0.342415 0.442349 0.000000 -1.000000 0.000063
0.040115 0.554037 0.219968 0.147957 0.988740 -0.022389
0.186055 0.908318 0.070832 0.001731 0.193249 0.981148
0.334404 0.077540 0.241729 -0.217240 -0.507538 -0.833794
0.227831 0.305874 0.329192 -0.985807 0.071590 0.151854
0.070765 0.482148 0.148029 -0.044711 0.021249 0.998774
0.161314 0.530344 0.080981 -0.020453 -0.175106 -0.984337
0.452596 0.550981 0.228148 0.600240 0.798651 -0.043230
0.262521 0.617215 0.111845 0.000000 0.147171 0.989111
0.212794 0.342415 0.431729 0.000000 -1.000000 0.000000
0.156791 0.794697 0.081104 0.022966 0.137806 0.990193
0.385205 0.657689 0.064233 0.238553 -0.133592 -0.961897
0.193193 0.068196 0.227679 -0.588582 -0.804651 -0.078154
0.261824 0.342415 0.348186 0.000000 -1.000000 0.000000
0.099991 0.416650 0.128068 -0.303923 -0.938139 0.165907
0.241894 0.410006 0.303913 0.000000 0.999962 0.008720
0.365700 0.813349 0.034477 0.228113 -0.095922 -0.968898
0.401885 0.883195 0.065236 0.985459 0.162417 0.049920
0.114411 0.342415 0.139622 -0.004550 -0.997848 -0.065409
0.240174 0.133753 0.354989 -0.101152 0.901614 0.420547
0.189270 0.751657 0.088559 -0.000020 0.134927 0.990856
0.319174 0.343781 0.537918 0.001631 -0.969618 0.244620
0.122984 0.342415 0.328650 -0.004003 -0.999992 0.000000
0.228612 0.410890 0.202572 0.000000 0.999978 0.006556
0.158616 0.410410 0.257583 0.019507 0.999772 0.008727
0.045858 0.371388 0.329031 -1.000000 0.000000 0.000000
0.286121 0.100181 0.384343 0.188981 0.497719 0.846500
0.452596 0.353108 0.279562 0.855781 0.477858 0.198218
0.028956 0.550564 0.448383 -0.996944 0.056562 0.053880
0.434076 0.551466 0.299790 -0.588191 0.808254 -0.027492
0.180412 0.832706 0.029115 -0.004873 -0.112408 -0.993650
0.288845 0.122053 0.292562 0.411299 0.834053 -0.367680
0.280652 0.414898 0.113163 -0.000342 -0.989097 0.147265
0.206335 0.613700 0.112454 -0.000007 0.143777 0.989610
0.188356 0.409083 0.114257 0.003523 0.901380 -0.433016
0.191712 0.627777 0.064381 -0.001105 -0.154146 -0.988047
0.191667 0.082991 0.433553 -0.761977 0.532139 0.369078
0.115809 0.639093 0.062377 -0.164957 -0.153429 -0.974294
0.434783 0.396153 0.453514 0.999454 -0.000111 0.033034
0.238317 0.112701 0.405175 0.185837 0.838650 0.511986
0.171885 0.840844 0.028861 -0.009609 -0.093060 -0.995614
0.175326 0.585417 0.071882 -0.007268 -0.156252 -0.987690
0.400949 0.574624 0.082057 0.259264 -0.154036 -0.953444
0.394519 0.643741 0.118723 -0.122789 0.146018 0.981632
0.400589 0.342415 0.463164 0.054979 -0.998482 0.003405
0.362117 0.413554 0.109725 0.082364 -0.982471 -0.167235
0.253833 0.408601 0.464963 0.000000 0.999928 0.011986
0.292071 0.710470 0.095693 0.000012 0.139318 0.990248
0.406873 0.417238 0.160835 0.042367 0.998782 -0.025295
0.123958 0.936089 0.069272 0.129071 0.219101 0.967127
0.047149 0.414208 0.427449 0.996829 0.048221 0.063301
0.413988 0.403507 0.539579 0.693330 0.102460 0.713299
0.132077 0.763292 0.040383 -0.104997 -0.130345 -0.985893
0.101630 0.699721 0.057911 -0.216301 -0.132792 -0.967254
0.245569 0.078192 0.300542 0.036008 -0.967924 -0.248649
0.054984 0.539201 0.135242 -0.586905 0.088846 0.804766
0.392145 0.415695 0.126374 -0.037185 0.991246 -0.126684
0.333096 0.083459 0.284202 0.929500 0.075482 0.361016
0.084005 0.416548 0.138264 0.004189 0.997146 -0.075386
0.047148 0.503321 0.153135 0.798180 0.039823 0.601101
0.250123 0.407320 0.533838 0.000000 0.987810 0.155663
0.182344 0.874656 0.072724 0.003776 0.157576 0.987500
0.397323 0.416482 0.152642 -0.022711 0.998917 -0.040597
0.304624 0.095066 0.259059 -0.065529 -0.059297 -0.996087
0.242214 0.890106 0.071856 0.000000 0.158537 0.987353
0.089444 0.607897 0.074992 -0.225181 -0.148217 -0.962977
0.427269 0.344688 0.170345 0.332097 -0.943011 -0.021007
0.533483 0.047405 0.630842 -0.640642 0.178501 -0.746803
0.207115 0.342415 0.257860 0.000000 -1.000000 0.000000
0.310896 0.409399 0.373502 -0.012567 0.999883 0.008723
0.100311 0.494362 0.090945 -0.248675 -0.227218 -0.941559
0.050485 0.557273 0.162632 0.967392 0.199687 -0.155815
0.103353 0.342415 0.366397 -0.008883 -0.999961 0.000000
0.134824 0.855173 0.028414 -0.123852 -0.075167 -0.989450
0.044744 0.553980 0.183525 0.355078 0.934333 -0.030669
0.350490 0.896840 0.071477 -0.076536 0.157437 0.984559
0.326084 0.081866 0.407598 0.121684 0.573520 0.810104
0.164322 0.812754 0.031625 -0.013730 -0.112498 -0.993557
0.450504 0.542977 0.375305 0.143576 -0.989622 0.005863
0.293921 0.762151 0.086741 -0.000911 0.138412 0.990374
0.393090 0.342415 0.202485 0.038501 -0.999258 -0.000811
0.434074 0.434880 0.139926 -0.764097 -0.238046 -0.599574
0.278596 0.342415 0.325580 0.000000 -1.000000 0.000000
0.434783 0.401912 0.177770 0.999374 0.030316 -0.018231
0.433015 0.411923 0.467860 0.495287 0.867423 0.047621
0.258468 0.723643 0.047405 0.000036 -0.142581 -0.989783
0.239949 0.411405 0.143593 0.000000 0.998137 -0.061005
0.359824 0.903831 0.071851 -0.100840 0.161465 0.981713
0.251969 0.646296 0.106808 0.000000 0.141387 0.989954
0.051578 0.556190 0.375982 0.998188 -0.058476 0.014190
0.310904 0.724685 0.093231 -0.007527 0.133007 0.991086
0.305241 0.408993 0.420048 -0.009101 0.999920 0.008728
0.456744 0.553800 0.391806 0.953879 -0.299917 0.012832
0.178554 0.342415 0.256057 0.000000 -1.000000 0.000000
0.047148 0.507806 0.152935 0.795483 0.019415 0.605665
0.133012 0.389252 0.107440 -0.007178 -0.004208 -0.999965
0.153391 0.574802 0.073762 -0.021806 -0.156547 -0.987430
0.307812 0.911138 0.026669 0.013374 0.021620 -0.999677
0.146645 0.631543 0.063714 -0.033612 -0.145744 -0.988751
0.061163 0.679187 0.101067 -0.997022 0.028559 0.071629
0.405027 0.567515 0.084349 0.271965 -0.155252 -0.949701
0.149998 0.461342 0.090779 -0.041582 -0.219892 -0.974638
0.040023 0.356098 0.251459 0.343334 0.905735 0.248529
0.225377 0.074603 0.377744 -0.180869 -0.955937 0.231237
0.141593 0.092840 0.309348 -0.587756 0.640560 -0.494192
0.198729 0.076267 0.319473 -0.349089 -0.930717 -0.109096
0.069799 0.567650 0.085348 -0.297980 -0.151799 -0.942425
0.154587 0.603232 0.114267 0.014288 0.137220 0.990438
0.077852 0.386909 0.107419 -0.271884 -0.004143 -0.962321
0.429338 0.345082 0.242995 0.419772 -0.907630 0.000000
0.390524 0.342415 0.503655 0.055663 -0.998016 0.029407
0.101960 0.058738 0.327555 -0.138343 -0.980743 0.137858
0.124756 0.342415 0.333457 -0.003678 -0.999993 0.000000
0.285705 0.406686 0.537451 -0.004233 0.970220 0.242187
0.116797 0.342415 0.178932 -0.005251 -0.999978 -0.004035
0.261802 0.913800 0.070524 0.000000 0.194642 0.980874
0.245139 0.310426 0.339508 0.310068 0.093297 0.946126
0.146771 0.490325 0.086663 -0.037979 -0.200416 -0.978974
0.205770 0.110587 0.368300 -0.766623 0.404479 0.498684
0.055809 0.529022 0.110129 -0.995470 -0.093921 -0.014785
0.065350 0.342415 0.451800 -0.112408 -0.993658 0.002936
0.176938 0.117465 0.340818 -0.596324 0.784552 0.169931
0.362725 0.342415 0.376462 0.004444 -0.999990 0.000000
0.145037 0.475229 0.088807 -0.046496 -0.210638 -0.976458
0.434076 0.414443 0.432748 -0.951504 -0.128586 0.279476
0.042849 0.564600 0.285661 -0.000000 0.999988 0.004949
0.387428 0.932249 0.078776 0.150079 0.179637 0.972217
0.274447 0.552697 0.122823 0.000012 0.142125 0.989849
0.279478 0.075174 0.363223 0.144752 -0.966186 0.213381
0.407159 0.342415 0.300677 0.093345 -0.995634 0.000000
0.434077 0.550697 0.390333 -0.985946 0.144341 0.084124
0.425933 0.344433 0.204643 0.367929 -0.929823 -0.007533
0.203281 0.342415 0.211937 0.000000 -1.000000 -0.000277
0.206418 0.653517 0.059823 -0.000142 -0.149440 -0.988771
0.204678 0.077345 0.324252 -0.371558 -0.926919 -0.052589
0.420000 0.654388 0.098469 0.999966 -0.004151 0.007145
0.028628 0.461505 0.152611 -0.946135 -0.040675 0.321207
0.355870 0.862472 0.028187 0.207007 -0.025923 -0.977996
0.256299 0.408087 0.523869 0.000000 0.997665 0.068294
0.401946 0.881455 0.048118 0.957489 0.133312 -0.255817
0.268230 0.342415 0.522639 0.000000 -0.995304 0.096799
0.232930 0.106929 0.299738 -0.286145 -0.129483 -0.949397
0.055021 0.344374 0.206034 -0.308198 -0.951318 -0.002913
0.233483 0.082175 0.354235 -0.207588 -0.334132 0.919382
0.228571 0.077417 0.362452 -0.198075 -0.942480 0.269255
0.185297 0.083235 0.304905 -0.614076 -0.607530 -0.503804
0.434954 0.552092 0.226556 -0.027959 -0.999609 0.000615
0.252712 0.371570 0.107461 0.000000 0.000000 -1.000000
0.279623 0.409163 0.400554 -0.000976 0.999961 0.008728
0.060758 0.671497 0.085841 -0.999941 0.010538 -0.002510
0.150710 0.411154 0.172403 0.024680 0.999694 -0.001595
0.090781 0.342415 0.371366 -0.029670 -0.999560 0.000000
0.455916 0.557550 0.440901 0.966530 0.246935 0.069585
0.395169 0.495916 0.094844 0.252340 -0.204269 -0.945832
0.452331 0.553259 0.164798 0.382933 0.918921 -0.094582
0.352701 0.411854 0.241638 -0.062664 0.997997 0.008712
0.104291 0.072526 0.341029 -0.359572 -0.000151 0.933117
0.451725 0.371517 0.141194 0.644916 -0.655753 -0.392519
0.126698 0.946344 0.025571 -0.224653 0.051629 -0.973070
0.250281 0.565228 0.120850 0.000000 0.147492 0.989063
0.452596 0.440870 0.439592 0.667350 0.474135 -0.574318
0.216802 0.103455 0.417535 -0.341988 0.833780 0.433424
0.210921 0.031321 0.583255 -0.436629 -0.304557 -0.846522
0.087810 0.883810 0.083484 -0.010865 0.175049 0.984500
0.432148 0.562134 0.187184 -0.302357 0.951414 -0.058239
0.261058 0.078192 0.309432 0.187637 -0.970899 -0.148819
0.234193 0.656351 0.105066 0.000000 0.134965 0.990850
0.139751 0.568246 0.120322 0.043742 0.140099 0.989171
0.444032 0.492911 0.468010 0.080604 0.002267 0.996744
0.274583 0.410156 0.286721 -0.002230 0.999959 0.008724
0.405034 0.834518 0.083779 0.360542 0.172551 0.916644
0.207424 0.081818 0.459769 -0.017453 0.865906 0.499902
0.227836 0.122071 0.382161 -0.246795 0.843707 0.476709
0.198469 0.064058 0.430210 -0.267584 -0.961510 0.062421
0.162636 0.592722 0.070588 -0.015586 -0.153598 -0.988011
0.368404 0.413027 0.103786 0.167719 -0.275261 -0.946627
0.434783 0.388797 0.302245 1.000000 0.000000 0.000000
0.393653 0.656248 0.067590 0.261390 -0.134799 -0.955774
0.416825 0.700697 0.083319 0.998823 0.048382 -0.003389
0.098527 0.353981 0.550632 -0.242573 -0.099795 0.964987
0.028667 0.453944 0.460324 -0.311763 -0.328899 0.891420
0.322353 0.601388 0.114587 -0.016517 0.143659 0.989489
0.144409 0.411518 0.130692 0.050002 0.997270 -0.054343
0.045858 0.381239 0.199582 -0.999963 -0.000023 -0.008604
0.218708 0.589817 0.071103 0.000000 -0.154383 -0.988011
0.135783 0.644937 0.061342 -0.078823 -0.149341 -0.985639
0.314509 0.091874 0.400863 0.128790 0.673328 0.728040
0.205366 0.119698 0.379824 -0.572262 0.719130 0.394169
0.262714 0.409075 0.410626 -0.000145 0.999962 0.008728
0.047149 0.545829 0.256735 0.986840 0.161158 -0.013261
0.192240 0.411407 0.128996 0.004370 0.994548 -0.104191
0.296438 0.683412 0.054529 0.003380 -0.134228 -0.990945
0.064148 0.465758 0.106520 -0.622589 -0.209129 -0.754088
0.135993 0.621164 0.065552 -0.076253 -0.152822 -0.985308
0.389825 0.419373 0.107981 0.349934 -0.294028 -0.889434
0.452596 0.548712 0.272080 0.718525 0.693654 -0.050648
0.220994 0.351124 0.107461 0.000000 -0.345975 -0.938244
0.404222 0.862486 0.060684 0.989470 0.144169 0.012827
0.249696 0.133753 0.340469 0.063264 0.981777 0.179196
0.063677 0.715002 0.082240 -0.999139 0.040213 0.010154
0.219558 0.891020 0.027296 0.000000 0.014504 -0.999895
0.105284 0.534586 0.081996 -0.209159 -0.176243 -0.961868
0.325163 0.739030 0.044680 0.023739 -0.141006 -0.989724
0.357315 0.342415 0.499472 0.006029 -0.999759 0.021111
0.260075 0.750321 0.042680 0.000092 -0.139157 -0.990270
0.205493 0.545856 0.078778 -0.000848 -0.164180 -0.986430
0.229187 0.409907 0.315216 0.000000 0.999962 0.008719
0.384574 0.502618 0.135243 -0.148487 0.103808 0.983451
0.194425 0.082044 0.350190 -0.477995 -0.776976 0.409669
0.452595 0.485743 0.153769 0.808962 0.109364 0.577598
0.264826 0.570454 0.119944 0.000004 0.148668 0.988887
0.215122 0.688922 0.099425 -0.000003 0.141242 0.989975
0.440153 0.549677 0.161033 -0.074508 -0.995177 -0.063807
0.626500 0.035432 0.406067 0.503653 -0.194810 0.841655
0.202295 0.711753 0.049510 -0.000001 -0.142737 -0.989761
0.436874 0.438927 0.156263 -0.716158 0.212528 0.664793
0.039695 0.059574 0.331958 -0.533260 -0.094308 0.840678
0.436721 0.394753 0.409005 -0.616256 0.475243 -0.627991
0.134689 0.342415 0.343506 -0.001686 -0.999999 0.000000
0.059221 0.648513 0.088592 -0.999915 0.007389 -0.010752
0.434783 0.367650 0.186952 0.999977 0.000000 -0.006825
0.301206 0.409445 0.368264 -0.005998 0.999944 0.008723
0.047148 0.346492 0.232381 0.808084 -0.587521 -0.042664
0.444548 0.550053 0.415874 -0.016647 -0.997876 0.062984
0.377563 0.342415 0.362595 0.008710 -0.999962 0.000000
0.444070 0.427240 0.156689 0.109846 0.408287 0.906220
0.314660 0.698605 0.097748 -0.009836 0.134468 0.990869
0.156646 0.643315 0.061629 -0.019186 -0.142407 -0.989622
0.323172 0.102837 0.274741 0.459067 0.833041 -0.308708
0.212118 0.085000 0.454634 0.088139 0.855056 0.510991
0.346557 0.830628 0.075197 -0.090866 0.134326 0.986762
0.257167 0.342415 0.317551 0.000000 -1.000000 0.000000
0.105401 0.694272 0.102867 0.180493 0.132757 0.974576
0.201935 0.366441 0.551947 0.000000 0.000000 1.000000
0.239192 0.754071 0.042016 0.000000 -0.125127 -0.992141
0.040993 0.542832 0.283031 0.076429 -0.996979 0.013801
0.378479 0.735054 0.097404 -0.172097 0.135289 0.975746
0.164213 0.078947 0.347120 -0.457113 -0.606520 0.650524
0.335638 0.342415 0.468394 0.000099 -0.999991 0.004170
0.033760 0.564600 0.283052 -0.005044 0.999986 0.001314
0.047149 0.551534 0.225099 0.568081 0.821978 -0.040461
0.067604 0.342415 0.398489 -0.069777 -0.997563 0.000079
0.308962 0.843456 0.028780 0.013512 -0.090856 -0.995772
0.161903 0.380170 0.551947 -0.003508 0.001980 0.999992
0.201112 0.342415 0.312414 0.000000 -1.000000 0.000000
0.327628 0.410596 0.236266 -0.032359 0.999438 0.008724
0.278040 0.555547 0.077171 0.000611 -0.161667 -0.986845
0.255082 0.415422 0.116470 0.000000 -0.987689 0.156429
0.393812 0.478927 0.142305 -0.114600 0.099763 0.988390
0.072017 0.833504 0.066859 -0.992250 0.121466 0.026203
0.357564 0.411247 0.359217 -0.064346 0.997890 0.008705
0.261198 0.230208 0.332171 0.961658 0.086743 0.260171
0.173758 0.410618 0.233743 0.010855 0.999903 0.008728
0.390922 0.342415 0.328176 0.051716 -0.998662 0.000000
0.239400 0.342415 0.252766 0.000000 -1.000000 0.000000
0.375615 0.924724 0.035658 0.331301 0.044405 -0.942480
0.380949 0.850435 0.039331 0.284150 -0.066270 -0.956487
0.189132 0.408204 0.510433 0.002689 0.998931 0.046139
0.262928 0.342415 0.413491 0.000000 -1.000000 0.000000
0.156232 0.360075 0.551947 -0.002590 -0.012455 0.999919
0.193150 0.054522 0.145789 0.587110 -0.722168 -0.365753
0.434783 0.374233 0.430015 0.999998 0.000000 0.001768
0.285853 0.052577 0.747536 -0.551995 0.352061 -0.755880
0.119264 0.342415 0.318042 -0.004744 -0.999989 0.000000
0.434349 0.346036 0.282918 0.547607 -0.836736 0.000000
0.032108 0.542926 0.342957 -0.186373 -0.982461 0.005977
0.206105 0.110548 0.351377 -0.802228 0.119700 0.584894
0.250179 0.133753 0.290623 0.049595 0.819650 -0.570714
0.382599 0.904673 0.079420 -0.002596 0.167619 0.985848
0.196167 0.045097 0.592180 -0.949716 0.234317 -0.207692
0.227387 0.447137 0.136240 0.000000 -0.080194 0.996779
0.109713 0.478225 0.132263 0.161671 0.080439 0.983561
0.220096 0.450638 0.135795 -0.000001 -0.103158 0.994665
0.246829 0.074794 0.383608 0.091692 -0.951841 0.292561
0.446555 0.552092 0.245591 0.002764 -0.999995 -0.001279
0.233176 0.799906 0.080202 0.000000 0.135701 0.990750
0.119077 0.940010 0.026971 -0.249247 0.040712 -0.967584
0.277585 0.342415 0.133637 0.000000 -0.996856 -0.079232
0.171411 0.114688 0.314505 -0.570342 0.778233 -0.262799
0.377258 0.921360 0.036628 0.341150 0.032950 -0.939431
0.411904 0.559477 0.137278 0.119292 0.155579 0.980594
0.206285 0.724716 0.047215 0.000000 -0.137096 -0.990558
0.208432 0.411368 0.147804 0.000510 0.999522 -0.030897
0.171517 0.709569 0.095849 0.007255 0.133020 0.991087
0.225332 0.050007 0.580323 0.771529 0.515576 0.372726
0.390158 0.413392 0.435736 -0.020349 0.999751 0.009189
0.136033 0.408718 0.521167 0.042854 0.995644 0.082803
0.082527 0.561529 0.083447 -0.226549 -0.156838 -0.961289
0.246783 0.849639 0.074129 0.000000 0.139748 0.990187
0.126361 0.497586 0.129813 0.097960 0.093738 0.990766
0.045858 0.361674 0.193718 -0.999986 0.000000 -0.005365
0.457026 0.561676 0.330092 0.997635 0.068719 -0.001235
0.287369 0.746580 0.043343 0.000817 -0.124038 -0.992277
0.055706 0.561967 0.089575 -0.700861 -0.130760 -0.701210
0.185199 0.762119 0.040591 -0.001978 -0.135953 -0.990713
0.290948 0.764648 0.086309 0.000006 0.139370 0.990240
0.210512 0.062052 0.470483 0.758403 -0.463879 0.457867
0.045858 0.374457 0.311038 -1.000000 0.000000 0.000000
0.400754 0.034939 0.384740 0.167501 -0.212514 0.962695
0.223268 0.122182 0.380444 -0.323159 0.824610 0.464313
0.200010 0.342415 0.477276 0.000000 -0.999993 0.003823
0.126758 0.411924 0.245253 0.059945 0.998164 0.008713
0.268439 0.080590 0.280115 0.129416 -0.888769 -0.439706
0.098056 0.543677 0.128662 0.167997 0.132200 0.976883
0.306467 0.564777 0.075537 0.009097 -0.160164 -0.987049
0.376703 0.782112 0.089432 -0.160066 0.135868 0.977711
0.406017 0.636277 0.123045 0.014490 0.161089 0.986833
0.078383 0.344593 0.116619 -0.133254 -0.923026 -0.360924
0.045858 0.391719 0.184219 -0.999920 -0.000071 -0.012685
0.177725 0.410407 0.257986 0.005529 0.999947 0.008728
0.128906 0.589737 0.116592 0.087598 0.142210 0.985953
0.254811 0.410318 0.268174 0.000000 0.999962 0.008727
0.180722 0.342415 0.339218 0.000000 -1.000000 0.000000
0.378330 0.904755 0.037507 0.336379 0.004509 -0.941716
0.220316 0.410789 0.214186 0.000023 0.999967 0.008127
0.181057 0.100467 0.348832 -0.679451 0.009778 0.733656
0.028357 0.560122 0.156430 -0.246017 0.964358 -0.097415
0.227215 0.929385 0.069649 0.000000 0.177379 0.984143
0.179961 0.436855 0.094256 -0.007226 -0.377106 -0.926142
0.440630 0.542992 0.385088 -0.111743 -0.993729 0.003979
0.107403 0.413743 0.227840 0.070702 0.997459 0.008707
0.446155 0.345884 0.180837 0.295333 -0.886814 -0.355443
0.410293 0.797006 0.062374 0.995407 0.094391 -0.015981
0.215688 0.790463 0.081837 -0.000004 0.140212 0.990121
0.452596 0.374881 0.397560 0.811983 0.347663 -0.468844
0.346431 0.342415 0.233303 0.001567 -0.999999 0.000000
0.605854 0.045221 0.393358 -0.973595 0.219351 -0.063225
0.330807 0.408779 0.444522 -0.041643 0.999091 0.009141
0.207189 0.688192 0.053682 0.000000 -0.143675 -0.989625
0.254430 0.705187 0.096608 0.000000 0.137337 0.990524
0.095785 0.518765 0.087499 -0.240985 -0.179260 -0.953830
0.350421 0.342415 0.187020 0.001748 -0.999993 -0.003201
0.111159 0.725106 0.095651 0.179950 0.131250 0.974880
0.078956 0.415326 0.328331 0.007221 0.999936 0.008725
0.317541 0.410930 0.198066 -0.021704 0.999747 0.005945
0.245023 0.096991 0.392250 0.518694 -0.167600 0.838372
0.045858 0.376591 0.267786 -1.000000 0.000000 0.000000
0.090546 0.414989 0.252057 0.050139 0.998704 0.008718
0.413708 0.631073 0.122271 0.344195 0.154987 0.926018
0.369447 0.414112 0.148175 -0.070350 0.997076 -0.029826
0.430557 0.414680 0.205573 0.418803 0.908060 0.005609
0.434076 0.546396 0.311846 -0.996091 0.077795 -0.041837
0.202319 0.408367 0.491723 0.002400 0.999742 0.022576
0.046610 0.345976 0.356447 -0.615964 -0.787774 0.000000
0.425373 0.414028 0.393469 0.259956 0.965584 0.008422
0.457026 0.557602 0.275733 0.999951 -0.001549 -0.009757
0.282258 0.409161 0.400785 -0.001106 0.999961 0.008728
0.184548 0.680735 0.055003 -0.002032 -0.146877 -0.989153
0.143199 0.408655 0.458689 0.040383 0.999122 0.011149
0.209285 0.596767 0.069872 -0.000342 -0.156087 -0.987743
0.359937 0.952047 0.069183 -0.080580 0.177603 0.980798
0.272145 0.342415 0.167696 0.000000 -0.999936 -0.011327
0.344986 0.410154 0.360296 -0.059629 0.998183 0.008707
0.135564 0.366087 0.551947 -0.028100 0.000000 0.999605
0.262517 0.137787 0.333550 0.961131 0.085158 0.262633
0.349362 0.342415 0.294039 0.002085 -0.999998 0.000000
0.294968 0.411412 0.142862 -0.002994 0.999304 -0.037191
0.172071 0.717019 0.094558 0.007063 0.132522 0.991155
0.302239 0.793635 0.035010 0.008660 -0.117163 -0.993075
0.126458 0.485688 0.131325 0.098777 0.083909 0.991566
0.211654 0.342415 0.130069 0.000000 -0.993477 -0.114032
0.175888 0.618766 0.065976 -0.006665 -0.149282 -0.988772
0.395017 0.833764 0.043469 0.380645 -0.075452 -0.921638
0.364731 0.386792 0.107420 0.021783 -0.004434 -0.999753
0.396594 0.414192 0.407931 -0.038033 0.999238 0.008718
0.255479 0.235590 0.312444 0.717312 0.092995 -0.690518
0.455721 0.555470 0.451988 0.992954 0.081053 0.086441
0.067369 0.446628 0.108547 -0.475200 -0.203810 -0.855948
0.047150 0.527298 0.462746 0.839472 0.350341 0.415390
0.429544 0.408424 0.123733 0.783306 0.257044 -0.566003
0.419314 0.343172 0.370308 0.181025 -0.983478 0.000000
0.608358 0.044824 0.390046 -0.711753 0.072394 -0.698690
0.440392 0.344352 0.291518 -0.173759 -0.979283 -0.103983
0.173202 0.542569 0.079245 -0.010190 -0.168002 -0.985734
0.285613 0.411519 0.130502 -0.001534 0.997617 -0.068972
0.184666 0.408534 0.472629 0.004568 0.999910 0.012626
0.090587 0.675445 0.065022 -0.235188 -0.132874 -0.962825
0.434783 0.393211 0.307399 1.000000 0.000000 0.000000
0.193956 0.408892 0.431630 0.001103 0.999961 0.008729
0.257160 0.509514 0.128311 0.000000 0.110360 0.993892
0.210518 0.073326 0.273839 -0.342799 -0.913321 -0.219849
0.435106 0.343996 0.317264 -0.576082 -0.810424 -0.106505
0.396827 0.677305 0.066201 0.269413 -0.131736 -0.953972
0.120830 0.342415 0.305021 -0.004393 -0.999990 0.000000
0.171173 0.841798 0.074570 0.013077 0.139131 0.990188
0.127212 0.412675 0.102459 -0.164258 -0.518877 -0.838920
0.092404 0.365237 0.107461 -0.103078 0.000000 -0.994673
0.396887 0.342415 0.501976 0.075830 -0.996668 0.030057
0.234832 0.342415 0.503234 0.000000 -0.999691 0.024868
0.281193 0.938316 0.025821 0.000159 0.092954 -0.995670
0.102169 0.819052 0.039004 -0.217213 -0.110131 -0.969892
0.434076 0.543735 0.394605 -0.390257 -0.920579 -0.015264
0.036929 0.541810 0.177125 -0.021936 -0.996646 0.078835
0.343817 0.494120 0.087966 0.075156 -0.230936 -0.970062
0.140664 0.410556 0.122275 0.049516 0.980625 -0.189534
0.423326 0.530000 0.134838 0.892552 -0.004594 0.450921
0.089973 0.342415 0.302210 -0.043857 -0.999038 0.000000
0.417564 0.574902 0.132821 0.420181 0.140930 0.896430
0.242628 0.394331 0.551876 0.000000 0.067239 0.997737
0.097098 0.409471 0.543136 -0.013121 0.921006 0.389327
0.204575 0.409445 0.368304 0.002105 0.999960 0.008723
0.122305 0.412129 0.265669 0.056493 0.998365 0.008714
0.363125 0.413382 0.169370 -0.064233 0.997930 -0.003013
0.127356 0.862611 0.073400 0.153085 0.146944 0.977227
0.315277 0.945009 0.068771 -0.007289 0.216235 0.976314
0.361584 0.810093 0.033095 0.220270 -0.095239 -0.970778
0.367080 0.938853 0.030724 0.278928 0.097297 -0.955370
0.335299 0.411416 0.142394 -0.037186 0.996557 -0.074102
0.252180 0.342415 0.332672 0.000000 -1.000000 0.000000
0.120451 0.362070 0.107461 -0.021377 0.000000 -0.999771
0.434783 0.361777 0.407271 1.000000 0.000000 0.000573
0.080895 0.342415 0.243647 -0.061633 -0.998099 0.000000
0.320874 0.478496 0.088343 0.029356 -0.245441 -0.968967
0.267803 0.408494 0.110526 -0.000804 0.862928 -0.505327
0.237021 0.409680 0.341253 0.000000 0.999962 0.008720
0.159437 0.448263 0.092636 -0.035568 -0.246995 -0.968364
0.437177 0.530621 0.443100 -0.326529 -0.590962 -0.737660
0.289513 0.577739 0.118683 0.000022 0.140860 0.990029
0.202810 0.455758 0.135144 -0.000019 0.009067 0.999959
0.388579 0.412692 0.500240 -0.049704 0.997349 0.053140
0.261483 0.089544 0.346367 0.723887 -0.275477 0.632535
0.270523 0.441142 0.137002 0.000009 0.016060 0.999871
0.434783 0.384202 0.263130 1.000000 0.000000 0.000000
0.341744 0.071592 0.416711 0.103662 0.506241 0.856139
0.206833 0.075289 0.286426 -0.376613 -0.895181 -0.238356
0.434783 0.346549 0.361659 0.562426 -0.826848 0.000000
0.027479 0.552091 0.332691 -0.193192 -0.981108 -0.010177
0.430511 0.563607 0.362359 -0.809784 0.586592 0.012630
0.030410 0.554087 0.252470 -0.283813 0.958806 -0.011897
0.183047 0.356917 0.551947 0.000000 -0.058263 0.998301
0.294711 0.112760 0.269170 0.217281 0.813740 -0.539089
0.407057 0.417253 0.160831 0.043233 0.998744 -0.025320
0.280641 0.973958 0.060096 0.000000 0.832804 0.553568
0.099512 0.346247 0.550861 -0.083347 -0.791515 0.605440
0.096607 0.966368 0.038124 -0.480890 0.065362 -0.874341
0.380993 0.492920 0.091687 0.183293 -0.205930 -0.961247
0.323105 0.064522 0.403220 -0.029605 -0.974223 0.223638
0.328158 0.410992 0.190905 -0.035296 0.999367 0.004517
0.163331 0.408777 0.444796 0.015771 0.999833 0.009204
0.135273 0.814939 0.077597 0.117815 0.131790 0.984251
0.101611 0.342415 0.477265 -0.010532 -0.999925 0.006278
0.421431 0.632394 0.095118 0.999658 0.026148 -0.000736
0.130120 0.342415 0.505869 -0.002206 -0.999616 0.027605
0.038281 0.417129 0.157056 0.061803 0.461058 0.885215
0.240927 0.727074 0.092817 0.000000 0.132881 0.991132
0.351781 0.412434 0.166058 -0.058955 0.998229 -0.008006
0.324724 0.410228 0.278424 -0.030656 0.999492 0.008721
0.305249 0.033127 0.742239 0.814890 -0.466626 0.343824
0.183445 0.357353 0.551947 0.000000 -0.051946 0.998650
0.295095 0.508845 0.084033 0.002643 -0.184794 -0.982774
0.056924 0.588794 0.128866 -0.390887 0.150972 0.907973
0.100625 0.875375 0.037164 -0.261484 -0.035960 -0.964538
0.434075 0.552810 0.199070 -0.405408 0.913831 -0.023610
0.443402 0.554006 0.437592 -0.030467 0.999379 0.017724
0.100234 0.413198 0.361135 0.068121 0.997639 0.008703
0.041296 0.554289 0.381334 0.101199 0.994854 -0.004895
0.259547 0.428247 0.138641 0.000001 0.041553 0.999136
0.282301 0.094688 0.272049 0.094783 -0.405886 -0.908996
0.083394 0.711198 0.108747 0.100997 0.145867 0.984135
0.045858 0.372867 0.302707 -1.000000 0.000000 0.000000
0.216408 0.083255 0.457118 0.384023 0.740473 0.551568
0.166318 0.370973 0.107461 0.000000 0.000000 -1.000000
0.221279 0.547156 0.078593 0.000000 -0.161790 -0.986825
0.169490 0.434562 0.137838 0.006485 -0.011557 0.999912
0.315098 0.651505 0.105906 -0.010923 0.137949 0.990379
0.394276 0.462376 0.144613 -0.108864 0.078980 0.990914
0.365195 0.392118 0.107368 0.009288 -0.004067 -0.999949
0.045858 0.375149 0.350985 -1.000000 0.000000 0.000000
0.288231 0.075522 0.306254 0.270181 -0.955365 -0.119498
0.434075 0.352280 0.317432 -0.818661 0.470589 0.329152
0.040477 0.542973 0.373601 0.026602 -0.999632 0.005377
0.403463 0.027575 0.381531 -0.200247 -0.883022 0.424468
0.126434 0.793994 0.081222 0.152703 0.129968 0.979689
0.155556 0.599387 0.114933 0.013789 0.137881 0.990353
0.211892 0.926252 0.026197 0.000000 0.065330 -0.997864
0.064290 0.540293 0.091466 -0.468926 -0.155904 -0.869369
0.400401 0.465384 0.102019 0.364116 -0.253742 -0.896122
0.411836 0.773621 0.058152 0.986494 0.034739 -0.160073
0.188471 0.492904 0.130423 -0.000026 0.095191 0.995459
0.045858 0.393229 0.291365 -1.000000 0.000000 0.000000
0.434783 0.403943 0.305630 0.996797 0.079969 0.000698
0.041679 0.554071 0.242181 0.200803 0.979412 -0.020741
0.314932 0.068631 0.375876 0.132677 -0.981438 0.138476
0.427167 0.378687 0.524511 0.897421 0.001321 0.441174
0.364499 0.803875 0.081571 -0.142814 0.135722 0.980400
0.131345 0.409319 0.109353 0.045653 0.891859 -0.450003
0.230691 0.104083 0.233435 0.332331 0.710711 -0.620037
0.178534 0.365891 0.107461 0.000000 0.000000 -1.000000
0.282455 0.621771 0.111056 0.000013 0.142838 0.989746
0.119299 0.342415 0.453987 -0.004328 -0.999988 0.002335
0.047148 0.347629 0.291258 0.914953 -0.347342 0.205463
0.069514 0.342415 0.300460 -0.095579 -0.995422 0.000000
0.318129 0.488683 0.086897 0.021087 -0.208785 -0.977734
0.131742 0.647040 0.060970 -0.096548 -0.149773 -0.983995
0.434783 0.347283 0.426167 0.627462 -0.778646 0.001328
0.141992 0.432414 0.094887 -0.068176 -0.239506 -0.968498
0.256222 0.130912 0.287225 0.150930 0.755804 -0.637166
0.036992 0.552092 0.236304 -0.014089 -0.999894 0.003642
0.418759 0.415406 0.379956 0.124840 0.992139 0.008652
0.346376 0.342415 0.273134 0.001558 -0.999999 0.000000
0.217452 0.113226 0.397296 -0.376074 0.814995 0.440854
0.452597 0.543887 0.396150 0.350718 -0.936343 -0.016084
0.452596 0.394757 0.421332 0.924800 -0.198710 0.324437
0.069438 0.592448 0.081194 -0.321796 -0.145957 -0.935491
0.434076 0.552322 0.325779 -0.543809 0.838980 -0.019583
0.159948 0.342415 0.206205 0.000000 -1.000000 -0.000515
0.214875 0.098120 0.226094 -0.178377 0.845457 -0.503372
0.228072 0.128793 0.346076 -0.534340 0.088548 0.840619
0.374995 0.409737 0.538464 -0.042913 0.945558 0.322612
0.452597 0.457221 0.456309 0.937262 -0.029522 0.347374
0.116227 0.583056 0.117741 0.133683 0.144206 0.980476
0.418306 0.490157 0.121556 0.980619 -0.193012 0.033659
0.209260 0.027416 0.584078 -0.446670 -0.419284 -0.790372
0.360574 0.586473 0.071695 0.092358 -0.162436 -0.982387
0.062930 0.703189 0.076553 -0.998733 0.039782 -0.030814
0.303853 0.409934 0.312083 -0.006064 0.999944 0.008718
0.103572 0.071215 0.313214 -0.568739 0.568254 -0.594662
0.413236 0.415843 0.383798 0.017948 0.999801 0.008719
0.116016 0.584172 0.117548 0.134637 0.144241 0.980341
0.423701 0.528718 0.108940 0.994105 -0.097223 -0.047999
0.184891 0.951700 0.025404 -0.002383 0.072390 -0.997374
0.284723 0.342415 0.452658 0.000000 -1.000000 0.000493
0.444490 0.551972 0.378208 0.011395 -0.999918 -0.005837
0.415404 0.723424 0.097766 0.924168 0.120941 0.362334
0.197989 0.408852 0.436168 0.000938 0.999961 0.008729
0.074575 0.342415 0.150166 -0.089653 -0.994054 -0.061805
0.434074 0.347869 0.169073 -0.850596 -0.392661 -0.349720
0.346424 0.824250 0.075985 -0.091257 0.133654 0.986817
0.046914 0.393579 0.493067 -0.991289 -0.000558 0.131701
0.056274 0.414935 0.311456 -0.357173 0.934003 0.008148
0.455976 0.552310 0.308402 0.438472 -0.898745 0.000157
0.231830 0.250564 0.309558 -0.436128 0.111075 -0.893003
0.350548 0.059777 0.410016 -0.021087 -0.987844 0.154012
0.220479 0.410254 0.275418 0.000056 0.999962 0.008725
0.365574 0.342415 0.475269 0.005602 -0.999979 0.003273
0.096887 0.436151 0.102904 -0.290544 -0.320500 -0.901590
0.255018 0.259693 0.320928 0.896845 0.131723 -0.422277
0.175586 0.410321 0.267740 0.006949 0.999938 0.008727
0.246989 0.411337 0.151346 0.000000 0.998630 -0.052330
0.057328 0.344505 0.507632 -0.343457 -0.931999 0.115824
0.439998 0.552092 0.260459 -0.014185 -0.999899 0.001179
0.194175 0.811319 0.031879 0.000000 -0.129167 -0.991623
0.272356 0.796278 0.034542 0.000410 -0.124575 -0.992210
0.132246 0.477838 0.132327 0.075413 0.035006 0.996538
0.250356 0.845211 0.074378 0.000000 0.136823 0.990596
0.321418 0.342415 0.297962 0.000000 -1.000000 0.000000
0.285062 0.342462 0.530007 0.000000 -0.996233 0.086718
0.212083 0.344204 0.540460 0.000000 -0.963790 0.266661
0.045858 0.411400 0.150319 -0.765241 0.626845 -0.146532
0.071033 0.737968 0.055960 -0.345982 -0.113699 -0.931326
0.296220 0.659799 0.104469 -0.000981 0.138254 0.990396
0.276102 0.391879 0.551855 -0.000720 0.031839 0.999493
0.261545 0.210759 0.334283 0.939540 0.063888 0.336426
0.230400 0.078192 0.343886 -0.182274 -0.975259 0.125086
0.183180 0.938652 0.069128 0.003324 0.214898 0.976631
0.314233 0.892771 0.027242 0.017696 -0.017182 -0.999696
0.321787 0.805140 0.079295 -0.012684 0.128999 0.991564
0.445234 0.564600 0.299778 0.000000 0.999996 0.002725
0.452199 0.489528 0.154419 0.773822 0.153031 0.614639
0.127710 0.933664 0.025966 -0.212702 0.033150 -0.976555
0.025732 0.556612 0.418259 -0.994000 0.002712 0.109342
0.411896 0.479310 0.147671 0.110446 0.103747 0.988452
0.204527 0.622159 0.110989 -0.000008 0.144372 0.989523
0.101432 0.361297 0.551306 -0.117183 0.000000 0.993110
0.185572 0.692380 0.052941 -0.001509 -0.146040 -0.989278
0.252314 0.384380 0.551947 0.000000 0.006327 0.999980
0.395032 0.382133 0.547588 0.322354 0.006189 0.946599
0.233874 0.113204 0.402679 -0.064401 0.870985 0.487071
0.220108 0.870296 0.027943 0.000000 -0.024535 -0.999699
0.452107 0.543003 0.391909 0.183008 -0.983097 0.005206
0.439346 0.541426 0.173374 -0.131704 -0.985956 0.102691
0.409222 0.342415 0.258078 0.067177 -0.997741 0.000000
0.361685 0.408030 0.107492 -0.027403 0.702662 -0.710996
0.047780 0.409393 0.499658 -0.742828 0.658195 0.122418
0.260405 0.410945 0.196350 -0.000034 0.999984 0.005715
0.113020 0.673955 0.102616 0.170686 0.135996 0.975895
0.181877 0.410289 0.271403 0.002653 0.999958 0.008727
0.427521 0.391020 0.524005 0.883803 0.000560 0.467859
0.239228 0.646499 0.061065 0.000000 -0.142390 -0.989811
0.434075 0.348109 0.276220 -0.841071 -0.514295 0.167630
0.181681 0.410897 0.201746 0.004777 0.999968 0.006444
0.096680 0.413186 0.397843 0.039410 0.999185 0.008716
0.434076 0.474257 0.464879 -0.796078 -0.032326 0.604330
0.400324 0.540782 0.137300 -0.085999 0.142967 0.985984
0.089847 0.877882 0.042731 -0.360471 -0.037725 -0.932007
0.402056 0.457740 0.148614 -0.082581 0.092020 0.992327
0.420996 0.343493 0.237706 0.226594 -0.973989 0.000000
0.342041 0.535262 0.125033 -0.066817 0.128079 0.989511
0.339267 0.342415 0.397412 0.000280 -1.000000 0.000000
0.277957 0.959032 0.025175 0.000034 0.125357 -0.992112
0.232950 0.409874 0.319052 0.000000 0.999962 0.008719
0.052095 0.374548 0.122557 -0.877139 -0.000217 -0.480236
0.191065 0.434285 0.094621 -0.001696 -0.361062 -0.932540
0.424680 0.584910 0.107861 0.999842 -0.017019 0.005219
0.609065 0.033003 0.389714 -0.664006 -0.284145 -0.691634
0.443724 0.499801 0.450804 0.043464 0.060049 -0.997249
0.379272 0.705269 0.102327 -0.179360 0.134902 0.974490
0.028627 0.405381 0.151161 -0.986448 -0.064378 0.150914
0.068325 0.440638 0.146166 -0.810906 -0.413272 0.414291
0.263108 0.189683 0.322003 0.973906 0.047734 -0.221876
0.039177 0.425357 0.139231 -0.026273 -0.464896 -0.884975
0.413985 0.418076 0.129498 0.005926 0.995790 -0.091470
0.448408 0.360089 0.383269 0.471512 0.765411 -0.437976
0.328164 0.342415 0.433438 0.000000 -1.000000 0.000000
0.186660 0.409682 0.341070 0.002127 0.999960 0.008718
0.435515 0.379841 0.140891 -0.683609 -0.379154 -0.623636
0.218079 0.044040 0.579715 -0.299346 0.113923 -0.947319
0.073848 0.807659 0.088246 -0.599348 0.166741 0.782930
0.093406 0.342415 0.423286 -0.040209 -0.999191 0.000524
0.262807 0.117238 0.370776 0.205967 0.658948 0.723439
0.111156 0.449263 0.096868 -0.227670 -0.349779 -0.908747
0.394200 0.442359 0.104764 0.348237 -0.272356 -0.896969
0.222008 0.081677 0.347767 -0.601601 -0.338955 0.723316
0.197605 0.342415 0.486059 0.000000 -0.999978 0.006624
0.120869 0.446043 0.095780 -0.176444 -0.310410 -0.934084
0.041093 0.475718 0.137396 0.091048 -0.265166 -0.959894
0.111300 0.342415 0.378557 -0.005323 -0.999986 0.000000
0.365458 0.368183 0.107461 0.037179 0.000000 -0.999309
0.246873 0.308980 0.338846 0.439984 0.086379 0.893841
0.354715 0.855580 0.028402 0.199827 -0.042019 -0.978930
0.347540 0.342966 0.126380 0.002429 -0.990858 -0.134886
0.434783 0.361828 0.424148 0.999999 0.000000 0.001460
0.147203 0.670246 0.056860 -0.035416 -0.138177 -0.989774
0.385227 0.342415 0.252134 0.034091 -0.999419 0.000000
0.112223 0.964908 0.070445 0.084923 0.235324 0.968200
0.150468 0.864345 0.073303 0.047873 0.151124 0.987355
0.207673 0.116195 0.387906 -0.530940 0.745131 0.403587
0.347931 0.541290 0.079795 0.065065 -0.174101 -0.982576
0.200429 0.481944 0.131816 -0.000021 0.082119 0.996623
0.119198 0.805668 0.033607 -0.160108 -0.126616 -0.978945
0.233128 0.409502 0.361696 0.000000 0.999962 0.008722
0.207036 0.089356 0.291727 -0.605156 -0.707079 -0.365823
0.073777 0.342415 0.241553 -0.072026 -0.997403 0.000000
0.312540 0.395041 0.551882 0.000752 0.068328 0.997663
0.290833 0.029666 0.763004 -0.249042 -0.916494 -0.313076
0.452597 0.528525 0.459669 0.891807 0.401834 0.207870
0.344567 0.564448 0.075595 0.054867 -0.166457 -0.984521
0.323240 0.863371 0.028159 0.023352 -0.070564 -0.997234
0.118464 0.736049 0.045208 -0.160130 -0.138639 -0.977311
0.274846 0.903008 0.026922 0.000372 0.009872 -0.999951
0.434783 0.410434 0.257116 0.829683 0.558214 0.004873
0.071236 0.417113 0.200211 -0.034451 0.999388 0.006106
0.304952 0.892826 0.071703 -0.005976 0.159743 0.987140
0.092729 0.790835 0.092145 0.070900 0.146826 0.986618
0.028627 0.398222 0.147485 -0.953519 -0.262214 -0.148477
0.045858 0.403330 0.348748 -0.995908 0.090366 0.000788
0.266971 0.342415 0.197788 0.000000 -1.000000 -0.000866
0.634968 0.051621 0.401876 0.673439 0.281379 0.683597
0.241827 0.133753 0.321807 -0.089219 0.988786 -0.119756
0.154262 0.752449 0.042304 -0.019995 -0.119145 -0.992676
0.309353 0.752483 0.042298 0.013252 -0.127380 -0.991765
0.362978 0.056941 0.419541 0.029572 -0.997514 0.063964
0.312989 0.918071 0.070284 -0.007660 0.188842 0.981978
0.234660 0.169973 0.305252 -0.283605 0.061864 -0.956944
0.066206 0.753796 0.094713 -0.864389 0.106966 0.491315
0.040371 0.364931 0.404337 0.236184 -0.574556 0.783647
0.554199 0.048163 0.634570 0.653203 0.748291 -0.115700
0.169955 0.495289 0.130119 0.006508 0.094320 0.995521
0.071567 0.342415 0.226158 -0.064973 -0.997887 0.000000
0.210998 0.073273 0.469382 0.620812 0.469079 0.628138
0.409338 0.677231 0.113881 0.226908 0.168138 0.959293
0.269393 0.437860 0.094114 0.001845 -0.334197 -0.942502
0.353371 0.809159 0.078599 -0.114096 0.136259 0.984081
0.368854 0.738899 0.093275 -0.161414 0.135022 0.977607
0.412572 0.762992 0.062808 0.997335 0.052474 -0.050687
0.219929 0.067052 0.419806 -0.099780 -0.986369 0.130842
0.434783 0.398507 0.257051 1.000000 0.000000 0.000000
0.028628 0.355805 0.270830 -0.613195 0.709724 0.346819
0.200406 0.342415 0.147049 0.000000 -0.999116 -0.042027
0.298073 0.071134 0.375579 0.100978 -0.974795 0.198944
0.117961 0.342415 0.233524 -0.003414 -0.999994 0.000000
0.406248 0.430977 0.153854 -0.066948 0.078004 0.994703
0.609662 0.034542 0.414355 0.080815 -0.220649 0.972000
0.171626 0.393650 0.107367 0.000084 0.005201 -0.999986
0.184636 0.072680 0.466082 -0.707108 0.639881 0.300915
0.401519 0.486225 0.098354 0.334413 -0.228971 -0.914188
0.079456 0.441180 0.149848 -0.059728 -0.020688 0.998000
0.393918 0.931181 0.079400 0.282148 0.183483 0.941662
0.284416 0.664521 0.057874 0.000801 -0.144371 -0.989523
0.196275 0.060583 0.204500 -0.499680 -0.866033 -0.017512
0.176952 0.342415 0.220992 0.000000 -1.000000 0.000000
0.094970 0.711959 0.104374 0.160629 0.135232 0.977707
0.302931 0.033587 0.759747 0.471098 -0.746989 -0.469121
0.293562 0.570469 0.074529 0.001093 -0.158057 -0.987429
0.071554 0.471371 0.102872 -0.326705 -0.195124 -0.924765
0.073396 0.570463 0.135700 0.187483 0.137641 0.972577
0.269888 0.522447 0.126668 0.000009 0.118089 0.993003
0.437548 0.554049 0.433443 -0.336402 0.941616 0.013895
0.326755 0.064891 0.259441 -0.036662 -0.914208 -0.403583
0.194435 0.442312 0.136853 -0.000028 0.026034 0.999661
0.232592 0.691783 0.098929 0.000000 0.135551 0.990770
0.254268 0.737386 0.091031 0.000000 0.134647 0.990894
0.390393 0.453301 0.144063 -0.110899 0.038223 0.993096
0.342660 0.342415 0.358743 0.000902 -1.000000 0.000000
0.247481 0.114536 0.267489 0.304366 0.614536 -0.727810
0.155325 0.480724 0.131971 0.013291 0.014236 0.999810
0.344148 0.408819 0.505046 -0.050959 0.997913 0.039656
0.357624 0.342415 0.370320 0.003543 -0.999994 0.000000
0.285040 0.354057 0.107461 0.000000 -0.095487 -0.995431
0.376958 0.825578 0.037863 0.250230 -0.096709 -0.963344
0.279001 0.041657 0.750923 -0.696605 0.008187 -0.717408
0.373300 0.413454 0.122483 -0.062687 0.980682 -0.185292
0.349965 0.723348 0.047457 0.106153 -0.134183 -0.985255
0.277095 0.084471 0.379091 0.152900 -0.671501 0.725058
0.263404 0.722571 0.047594 0.000190 -0.142305 -0.989823
0.071968 0.054336 0.319114 -0.045842 -0.987964 -0.147735
0.152230 0.409632 0.346861 0.024016 0.999674 0.008717
0.325953 0.077497 0.290590 0.859317 -0.387761 0.333489
0.188417 0.579252 0.072973 -0.001589 -0.160432 -0.987046
0.047148 0.514112 0.144152 0.969594 -0.169682 -0.176340
0.257582 0.463442 0.090481 0.000000 -0.336683 -0.941618
0.204230 0.086350 0.375424 -0.757678 -0.483091 0.438801
0.192603 0.417788 0.131411 -0.000022 -0.945266 0.326301
0.293289 0.410399 0.258796 -0.004677 0.999951 0.008728
0.045858 0.351089 0.201452 -0.940055 -0.340990 -0.004718
0.430645 0.556219 0.213570 -0.999261 -0.024562 -0.029570
0.254114 0.468615 0.133510 0.000000 0.074755 0.997202
0.134942 0.755751 0.041719 -0.092885 -0.129989 -0.987155
0.094311 0.498327 0.136068 0.175940 0.094260 0.979878
0.070309 0.414712 0.487914 -0.086131 0.995851 0.029369
0.409657 0.342415 0.186113 0.068152 -0.997674 -0.001635
0.083409 0.568634 0.082198 -0.226581 -0.155463 -0.961505
0.047148 0.349963 0.269003 0.954526 -0.054399 0.293124
0.381396 0.054336 0.426383 0.343018 -0.892071 -0.294192
0.182899 0.699688 0.097560 0.001731 0.137574 0.990490
0.332709 0.941503 0.068968 -0.026055 0.210579 0.977230
0.080865 0.344950 0.539521 -0.164251 -0.908866 0.383385
0.174450 0.342415 0.383724 0.000000 -1.000000 0.000000
0.114093 0.907003 0.030209 -0.241056 -0.002248 -0.970509
0.046699 0.412119 0.425223 -0.518095 0.855280 0.008553
0.184217 0.342415 0.466255 0.000000 -0.999990 0.004387
0.069403 0.417506 0.173344 0.013266 0.999912 0.000232
0.168567 0.624152 0.110644 0.007827 0.139819 0.990146
0.415517 0.415024 0.487579 0.010978 0.999644 0.024330
0.300099 0.635728 0.108638 -0.002360 0.137111 0.990553
0.407600 0.063170 0.215159 0.805129 0.018402 0.592815
0.221327 0.090517 0.208202 0.528029 0.588612 -0.612145
0.172167 0.409912 0.314599 0.014103 0.999863 0.008720
0.069232 0.796297 0.050894 -0.837251 0.000538 -0.546818
