0.063814 0.144434 0.042738 0.847167 -0.011887 -0.531194
0.045454 0.952451 0.277526 -0.992306 0.119860 0.031014
0.347753 0.437705 0.337633 -0.120028 0.185144 -0.975354
0.074825 0.443555 0.354103 -0.021479 -0.999149 0.035220
0.294011 0.462746 0.068158 0.038638 0.997338 -0.061840
0.047937 0.688162 0.393069 -0.561375 0.002137 0.827559
0.195279 0.462109 0.378227 -0.004377 0.999720 0.023260
0.268348 0.441113 0.345184 0.052870 -0.998003 0.034576
0.219705 0.456000 0.025000 -0.476796 0.144064 -0.867128
0.195046 0.441237 0.032129 -0.066719 -0.994093 -0.085598
0.269166 0.442590 0.061944 -0.038124 -0.995405 -0.087835
0.116291 0.215346 0.050798 -0.007574 0.997136 -0.075245
0.037505 0.495195 0.359860 -0.972941 -0.226999 -0.043090
0.045821 0.798956 0.175677 -0.933555 -0.358048 0.016635
0.075592 0.798792 0.300179 0.935904 -0.351561 0.022101
0.067375 0.665679 0.349730 0.880634 -0.397550 0.257757
0.029559 0.463709 0.269908 -0.125098 0.987882 -0.091872
0.033254 0.283407 0.355371 -0.933122 0.009342 -0.359438
0.342704 0.375517 0.389734 -0.511042 0.073096 0.856442
0.045454 0.811203 0.193949 -0.989112 -0.147160 0.000876
0.064304 0.615094 0.099695 0.022746 -0.006557 0.999720
0.038727 0.315203 0.033991 -0.450687 0.010743 -0.892618
0.062650 0.091415 0.041055 0.801591 -0.039444 -0.596571
0.047721 0.336147 0.031787 0.073444 0.012013 -0.997227
0.291220 0.462109 0.385347 0.090101 0.991329 0.095647
0.072124 0.497087 0.094141 0.491329 -0.065896 0.868478
0.046394 0.964498 0.220798 -0.874381 0.479866 -0.072018
0.363903 0.462314 0.028855 0.078140 0.995549 -0.052683
0.078478 0.468784 0.364938 0.991779 -0.127786 0.006724
0.339422 0.242402 0.338891 -0.645205 -0.009828 -0.763946
0.026799 0.442733 0.191487 -0.387526 -0.900702 -0.196368
0.291364 0.215310 0.070675 0.036272 0.999211 -0.016194
0.370306 0.346754 0.077736 0.917434 0.008071 0.397805
0.025229 0.293726 0.058531 -0.997634 0.016894 -0.066644
0.329462 0.137354 0.364484 -0.998566 -0.030161 0.044239
0.333124 0.386273 0.078787 -0.908616 0.123206 0.399045
0.061754 0.120116 0.394620 0.532679 -0.018415 0.846117
0.035453 0.464914 0.168878 -0.096673 0.990485 -0.097952
0.239895 0.463773 0.044142 0.021877 0.997123 -0.072578
0.080501 0.485502 0.084546 0.709162 -0.661202 0.244746
0.060803 0.813541 0.349730 0.096335 -0.603880 0.791232
0.264824 0.442932 0.093676 -0.031585 -0.996513 -0.077230
0.066966 0.850923 0.164821 0.219294 0.975656 0.002478
0.281131 0.209937 0.046842 0.020115 -0.988914 -0.147122
0.026125 0.455265 0.362454 -0.496550 0.837598 -0.227744
0.203448 0.443380 0.193754 -0.024626 -0.999040 -0.036222
0.028757 0.400942 0.046882 -0.888854 0.147249 -0.433885
0.104971 0.443588 0.319852 -0.021541 -0.999581 0.019344
0.043244 0.628411 0.051688 -0.944338 -0.026646 -0.327897
0.371268 0.141899 0.374287 0.959238 -0.033831 0.280566
0.071359 0.362076 0.353261 0.917493 0.067566 -0.391972
0.248585 0.462109 0.178892 -0.002672 0.998459 -0.055424
0.053412 0.656259 0.095800 -0.572932 -0.005531 0.819584
0.055714 0.047330 0.342835 0.153338 -0.283973 -0.946492
0.188104 0.464515 0.040056 0.000981 0.996669 -0.081543
0.289434 0.208646 0.368666 0.000646 -0.999174 0.040622
0.119354 0.443526 0.293568 -0.024218 -0.999672 0.008325
0.084509 0.967261 0.075852 0.968212 0.056865 0.243582
0.093597 0.463963 0.182672 -0.075836 0.993275 -0.087489
0.265389 0.216048 0.362297 0.001757 0.999672 -0.025536
0.029433 0.066651 0.075013 -0.878392 -0.146311 0.454996
0.079034 0.483298 0.361318 0.990856 -0.112099 -0.075094
0.343115 0.210079 0.390119 -0.458998 0.003825 0.888429
0.257956 0.441384 0.334577 0.044964 -0.998559 0.029288
0.334091 0.210291 0.381039 -0.859359 -0.001162 0.511371
0.067523 0.960208 0.036749 0.288517 0.121702 -0.949709
0.061618 0.746447 0.033755 -0.147596 -0.008048 -0.989015
0.045722 0.927311 0.048783 -0.867814 0.140880 -0.476499
0.370764 0.340412 0.375878 0.934575 0.004880 0.355733
0.352788 0.440217 0.327776 0.080539 -0.996365 0.027748
0.333076 0.054730 0.373670 -0.915968 -0.202720 0.346275
0.051128 0.441752 0.393637 -0.154539 0.445800 0.881692
0.364818 0.174289 0.385810 0.733037 -0.026261 0.679681
0.139042 0.441780 0.134112 -0.057827 -0.997316 -0.044909
0.097238 0.440810 0.100843 -0.077982 -0.995759 -0.048806
0.330510 0.328261 0.354324 -0.968266 0.024995 -0.248669
0.087489 0.842103 0.071291 0.993123 0.006309 0.116907
0.045454 0.660590 0.304448 -0.933717 -0.332178 0.133529
0.042182 0.919835 0.073808 -0.980334 0.147884 0.130674
0.041394 0.303858 0.343429 -0.612440 0.008851 -0.790468
0.080499 0.522893 0.368555 0.994423 -0.046219 0.094801
0.046000 0.975000 0.055351 -0.883057 0.326598 -0.336964
0.042953 0.315034 0.089252 -0.248174 0.036817 0.968016
0.076049 0.827387 0.283453 0.990028 0.110981 0.086759
0.083773 0.492027 0.055534 0.949265 -0.122329 -0.289710
0.352491 0.086395 0.334892 0.043459 -0.091769 -0.994832
0.044083 0.537526 0.082221 -0.916900 -0.070269 0.392882
0.262041 0.463144 0.070436 0.024508 0.997447 -0.067075
0.353227 0.462109 0.248221 0.114951 0.991624 0.058892
0.332789 0.419075 0.374202 -0.921964 0.285249 0.261946
0.342382 0.325937 0.136701 -0.046526 0.998602 -0.025083
0.067614 0.403117 0.061850 0.997913 0.024049 0.059928
0.360013 0.439504 0.376931 0.100589 -0.993599 0.051413
0.238137 0.441702 0.330085 0.035430 -0.999014 0.026763
0.068540 0.955089 0.349730 0.874617 0.359849 0.324892
0.045801 0.962884 0.271439 -0.943657 0.330844 -0.007339
0.052281 0.549096 0.395590 -0.315205 -0.023779 0.948726
0.033557 0.462316 0.375432 -0.150454 0.985058 -0.083809
0.073182 0.232863 0.377959 0.967187 -0.015981 0.253564
0.073086 0.848713 0.101880 0.558392 0.829423 -0.016001
0.352808 0.428283 0.336884 0.187093 0.134512 -0.973089
0.072896 0.164835 0.357809 0.957054 0.002488 -0.289898
0.329943 0.148911 0.057751 -0.989382 -0.029367 -0.142343
0.048404 0.257749 0.089679 0.084992 0.019411 0.996193
0.035545 0.464100 0.232829 -0.113087 0.989177 -0.093493
0.358773 0.304486 0.090833 0.420432 0.027243 0.906915
0.071202 0.462295 0.337533 -0.125151 0.988877 -0.080367
0.100535 0.208846 0.361990 -0.003661 -0.999947 -0.009569
0.124229 0.463982 0.149080 -0.054227 0.994926 -0.084749
0.046721 0.702621 0.262685 -0.842549 0.537603 -0.033082
0.336718 0.462109 0.369803 0.129373 0.984528 0.118186
0.363818 0.330923 0.339736 0.695144 0.015838 -0.718696
0.071784 0.835180 0.035164 0.434678 0.006395 -0.900563
0.038403 0.258393 0.346512 -0.751658 -0.003080 -0.659546
0.076049 0.692713 0.229312 0.980512 0.190139 0.049425
0.253290 0.462109 0.305538 0.033538 0.999199 0.021809
0.376728 0.462109 0.265616 0.141357 0.986270 0.085376
0.076049 0.688405 0.193684 0.993441 0.114344 0.000993
0.045454 0.680090 0.301749 -0.995900 -0.037345 0.082390
0.047513 0.464678 0.174806 -0.093154 0.991054 -0.095579
0.045661 0.692507 0.086547 -0.872723 -0.000305 0.488215
0.335842 0.094535 0.042997 -0.807684 -0.053519 -0.587182
0.068778 0.705298 0.095678 0.600281 0.797413 -0.061605
0.037889 0.463554 0.273333 -0.122517 0.988351 -0.090283
0.076049 0.658132 0.249431 0.948926 -0.314585 -0.023998
0.073802 0.306936 0.360828 0.982732 0.011414 -0.184682
0.233671 0.208756 0.059483 0.000649 -0.999997 0.002534
0.075318 0.798296 0.206378 0.899057 -0.431328 -0.075180
0.076049 0.680688 0.106694 0.993159 -0.041048 -0.109317
0.201443 0.443470 0.228055 -0.015407 -0.999616 -0.023030
0.053342 0.647872 0.249466 -0.230469 -0.971997 0.045899
0.294214 0.457641 0.025000 -0.190721 0.818098 -0.542532
0.341253 0.025000 0.069424 -0.758449 -0.636234 0.141284
0.331536 0.103412 0.375497 -0.936331 -0.037090 0.349154
0.364882 0.442232 0.154980 0.024251 -0.998177 -0.055264
0.090038 0.462397 0.309704 -0.110126 0.990754 -0.079239
0.074039 0.361101 0.363176 0.992971 0.016690 -0.117173
0.344016 0.353452 0.335952 -0.390198 0.021393 -0.920483
0.068036 0.440818 0.132152 -0.078681 -0.996306 -0.034410
0.045454 0.802151 0.259615 -0.945944 -0.311760 0.089423
0.203831 0.462256 0.201403 -0.034043 0.997111 -0.067904
0.045454 0.671978 0.220309 -0.991927 -0.124993 0.021375
0.341219 0.062121 0.386751 -0.529430 -0.095337 0.842980
0.137802 0.451166 0.399496 0.124282 -0.921808 0.367183
0.171430 0.462109 0.397873 -0.022585 0.999587 0.017798
0.062244 0.091785 0.081270 0.808728 -0.113027 0.577220
0.044319 0.679440 0.337243 -0.725100 -0.020507 -0.688338
0.331422 0.302340 0.051857 -0.943905 0.015739 -0.329841
0.045454 0.674764 0.302207 -0.987910 -0.120685 0.097307
0.309848 0.442943 0.398979 0.663507 -0.650315 0.369930
0.076049 0.689194 0.310576 0.977824 0.169124 0.123518
0.045454 0.804960 0.141045 -0.975813 -0.215784 -0.035011
0.080232 0.653577 0.351214 0.959060 0.008138 -0.283085
0.053737 0.819547 0.349730 -0.926664 -0.135901 0.350463
0.045454 0.923105 0.284096 -0.938109 -0.326971 0.114196
0.049837 0.244394 0.396983 -0.171132 0.015634 0.985124
0.033912 0.253789 0.083985 -0.701979 0.014216 0.712056
0.076049 0.801431 0.086872 0.916000 -0.359464 -0.178129
0.204623 0.462109 0.358111 -0.000363 0.999837 0.018065
0.115248 0.443498 0.295681 -0.024877 -0.999644 0.009630
0.218142 0.441975 0.329332 0.027144 -0.999293 0.026029
0.044432 0.945349 0.079420 -0.929260 0.256336 0.266021
0.045454 0.679694 0.321780 -0.993164 -0.052916 0.104041
0.038110 0.794556 0.346621 -0.917150 0.010565 -0.398403
0.220229 0.215951 0.368328 0.000815 0.999860 0.016712
0.071591 0.709436 0.222904 0.298183 0.953600 0.041634
0.343571 0.319791 0.189732 -0.088843 -0.996018 -0.007484
0.339648 0.462109 0.260987 0.105252 0.992821 0.056822
0.186857 0.462182 0.225023 -0.047374 0.996484 -0.069110
0.143132 0.443042 0.323211 -0.005089 -0.999752 0.021680
0.075562 0.441437 0.173492 -0.066376 -0.997539 -0.022599
0.356008 0.209571 0.092002 0.285930 0.007001 0.958225
0.109455 0.462109 0.326567 -0.099198 0.992769 -0.067592
0.042181 0.025000 0.080335 -0.269769 -0.322149 0.907439
0.081945 0.648660 0.361591 0.998749 -0.005336 -0.049729
0.323944 0.443455 0.073167 -0.019620 -0.995489 -0.092822
0.076513 0.462109 0.372409 -0.119340 0.990779 -0.064154
0.031293 0.249168 0.081206 -0.804194 0.011349 0.594258
0.035390 0.813984 0.369844 -0.991682 0.022570 0.126718
0.031754 0.326226 0.360109 -0.973668 0.024692 -0.226628
0.362401 0.044203 0.084554 0.601852 -0.272958 0.750512
0.081745 0.866272 0.359504 0.997277 0.012326 -0.072707
0.335611 0.052271 0.079555 -0.817519 -0.203177 0.538872
0.045454 0.666873 0.183452 -0.982680 -0.185301 -0.002075
0.072069 0.709437 0.268962 0.278210 0.958601 0.060692
0.036058 0.086899 0.386119 -0.837229 -0.068554 0.542538
0.045454 0.951373 0.240749 -0.993009 0.117989 -0.003462
0.046925 0.927277 0.336337 -0.583469 0.116413 -0.803749
0.179655 0.210759 0.380276 -0.009093 -0.907667 0.419594
0.060146 0.465092 0.128941 -0.076031 0.992407 -0.096682
0.072058 0.792390 0.233716 0.575490 -0.815167 -0.065683
0.161416 0.442162 0.373966 0.020180 -0.998719 0.046407
0.367670 0.149649 0.382175 0.843291 -0.058032 0.534315
0.337127 0.439596 0.393596 0.097281 -0.993509 0.058967
0.227574 0.441846 0.329680 0.031050 -0.999170 0.026372
0.146481 0.463302 0.179271 -0.052629 0.995486 -0.078985
0.082517 0.796240 0.087233 0.857804 -0.005969 0.513942
0.066048 0.071571 0.347452 0.724664 -0.114211 -0.679572
0.370530 0.179750 0.077030 0.935359 -0.041345 0.351274
0.087218 0.577589 0.074109 0.988567 -0.010634 0.150405
0.347605 0.410670 0.090525 -0.259975 0.270648 0.926910
0.180291 0.443328 0.025226 -0.498533 -0.789309 -0.358409
0.065071 0.089129 0.391680 0.687916 -0.065150 0.722860
0.358446 0.053767 0.039283 0.416695 -0.222852 -0.881307
0.047553 0.366739 0.089832 0.008635 0.048431 0.998789
0.050502 0.911750 0.243495 -0.392073 -0.917728 0.063671
0.067369 0.850923 0.175050 0.222770 0.974837 0.008107
0.276847 0.442297 0.030530 -0.043611 -0.994148 -0.098831
0.079653 0.623379 0.041516 0.757424 -0.020478 -0.652602
0.362279 0.440254 0.314889 0.079807 -0.996574 0.021728
0.326298 0.209448 0.375000 0.009809 -0.991929 0.126418
0.338533 0.184990 0.040223 -0.693642 -0.027046 -0.719812
0.365940 0.351892 0.384653 0.758232 0.026493 0.651447
0.040268 0.292064 0.344590 -0.667212 0.006083 -0.744843
0.073894 0.166904 0.374935 0.986769 -0.007587 0.161954
0.052437 0.789359 0.301087 -0.216374 -0.973795 0.070042
0.367926 0.440768 0.268166 0.065604 -0.997846 -0.000663
0.354678 0.319378 0.200332 0.001724 -0.999996 -0.002354
0.069669 0.799618 0.034272 0.317727 -0.000067 -0.948182
0.083746 0.741083 0.085002 0.897616 -0.022292 0.440214
0.067375 0.948298 0.096720 0.139931 0.276445 0.950788
0.324474 0.440838 0.308152 0.062303 -0.997899 0.017799
0.074167 0.917489 0.279396 0.832048 -0.554567 -0.012264
0.297779 0.443522 0.106009 -0.019075 -0.996733 -0.078487
0.269502 0.462452 0.117038 0.015683 0.997912 -0.062655
0.072456 0.463585 0.234657 -0.098136 0.991332 -0.087352
0.046951 0.311354 0.031649 0.022271 0.004683 -0.999741
0.079602 0.440614 0.103768 -0.082319 -0.995584 -0.045127
0.359530 0.319380 0.247222 0.036629 -0.999297 0.008016
0.074950 0.506513 0.093089 0.580805 -0.135650 0.802661
0.176812 0.442209 0.128600 -0.048324 -0.997449 -0.052547
0.045454 0.945392 0.284080 -0.998305 0.010305 0.057287
0.095121 0.464290 0.155315 -0.068124 0.993688 -0.089125
0.333439 0.045250 0.053778 -0.925549 -0.289534 -0.243987
0.372501 0.353368 0.357544 0.990934 0.016625 -0.133315
0.042272 0.612860 0.054918 -0.968535 -0.028809 -0.247204
0.043846 0.786167 0.049702 -0.919496 0.008729 -0.393001
0.267284 0.442690 0.220941 0.008468 -0.999645 -0.025274
0.031385 0.329660 0.373928 -0.990763 0.031156 0.131976
0.335019 0.038446 0.050355 -0.876109 -0.329595 -0.351852
0.071653 0.601415 0.035086 0.388085 -0.033321 -0.921021
0.110467 0.443065 0.266280 -0.033499 -0.999438 0.001132
0.328009 0.442722 0.154642 0.009332 -0.998383 -0.056078
0.371893 0.261615 0.054677 0.972283 0.013977 -0.233387
0.042694 0.182853 0.394095 -0.552377 -0.006117 0.833572
0.051880 0.910638 0.297015 -0.237240 -0.968894 0.070438
0.045454 0.933608 0.109689 -0.991337 -0.097186 -0.088345
0.382957 0.453013 0.171509 0.760000 0.585402 0.282320
0.382957 0.456988 0.032726 0.163643 0.979059 -0.121097
0.376118 0.462109 0.091380 0.097352 0.995117 -0.016281
0.082091 0.703339 0.363110 0.999932 -0.002871 -0.011262
0.055012 0.966632 0.093364 -0.554330 0.382974 0.738951
0.368609 0.321166 0.212076 0.451544 -0.892230 -0.005764
0.361707 0.349968 0.388766 0.566385 0.034578 0.823415
0.206658 0.462291 0.195716 -0.031368 0.997204 -0.067823
0.060631 0.116962 0.083160 0.744555 -0.050301 0.665663
0.275369 0.440951 0.350730 0.057635 -0.997638 0.037367
0.076049 0.694923 0.146145 0.981272 0.190439 -0.028968
0.057093 0.319358 0.224251 0.021683 -0.999764 0.001626
0.045454 0.691375 0.184207 -0.981360 0.179297 -0.069172
0.076119 0.820856 0.385348 0.837108 0.003324 0.547028
0.357310 0.228182 0.035749 0.351551 -0.016295 -0.936027
0.085463 0.901922 0.079499 0.948369 0.018130 0.316652
0.081578 0.539761 0.362079 0.998301 -0.028707 -0.050700
0.065026 0.044686 0.348626 0.705859 -0.209843 -0.676556
0.055792 0.789359 0.227526 -0.168275 -0.985379 0.026691
0.372848 0.322139 0.066015 0.997416 0.006631 0.071543
0.064044 0.310497 0.393179 0.613878 0.023428 0.789053
0.331572 0.051357 0.364215 -0.969686 -0.232760 0.074371
0.035449 0.787809 0.370454 -0.989631 0.016817 0.142643
0.292777 0.443080 0.163209 -0.001762 -0.998615 -0.052580
0.361466 0.355470 0.038091 0.591967 0.009227 -0.805910
0.121945 0.441549 0.133670 -0.062847 -0.997123 -0.042373
0.271454 0.443093 0.184512 -0.002767 -0.999083 -0.042723
0.224486 0.444813 0.025000 -0.433171 -0.819433 -0.375356
0.045454 0.810387 0.247287 -0.981096 -0.185004 0.056775
0.054805 0.342158 0.033873 0.473310 0.008701 -0.880853
0.327739 0.443015 0.034240 -0.028078 -0.994017 -0.105556
0.211841 0.462300 0.189555 -0.027569 0.997347 -0.067379
0.076049 0.664268 0.222887 0.970521 -0.238513 -0.034658
0.081327 0.627007 0.355145 0.981448 -0.009233 -0.191505
0.367713 0.443467 0.028162 -0.018087 -0.993361 -0.113611
0.067060 0.910638 0.253678 0.251426 -0.967778 -0.013848
0.350063 0.310777 0.092657 -0.085989 0.033859 0.995721
0.035398 0.624928 0.357160 -0.991487 -0.024146 -0.127945
0.036527 0.549210 0.375336 -0.958367 -0.036228 0.283231
0.049532 0.464595 0.179204 -0.093442 0.991087 -0.094945
0.051913 0.323605 0.100384 0.501899 0.793766 -0.343560
0.248787 0.443173 0.201967 -0.005673 -0.999381 -0.034733
0.344480 0.400160 0.389566 -0.432262 0.215794 0.875547
0.048000 0.328498 0.031837 0.088028 0.010054 -0.996067
0.058081 0.326364 0.189627 0.042350 0.999099 -0.002820
0.066867 0.707933 0.332764 0.460415 -0.013598 -0.887599
0.077653 0.841687 0.093606 0.675783 0.024496 0.736693
0.044256 0.152210 0.394975 -0.465594 -0.013492 0.884896
0.262252 0.462109 0.234529 0.024337 0.999613 -0.013474
0.359120 0.269933 0.036769 0.460105 -0.004584 -0.887853
0.133331 0.464239 0.119256 -0.042666 0.995443 -0.085286
0.035352 0.593764 0.357642 -0.992958 -0.031026 -0.114329
0.049021 0.914433 0.129850 -0.662322 -0.749220 -0.000130
0.028475 0.440421 0.052195 -0.896254 0.315924 -0.311321
0.043022 0.441394 0.204235 -0.068145 -0.997645 -0.007845
0.070348 0.465427 0.091833 -0.062166 0.993286 -0.097557
0.073574 0.231464 0.359947 0.975673 0.004865 -0.219178
0.065485 0.291987 0.391695 0.683887 0.016039 0.729412
0.052024 0.975000 0.341351 -0.524067 0.496871 -0.691718
0.063507 0.443451 0.374299 -0.018863 -0.998823 0.044689
0.027841 0.319901 0.046558 -0.916097 0.020143 -0.400449
0.075333 0.701121 0.207224 0.902092 0.427537 0.058668
0.045454 0.674192 0.326101 -0.982342 -0.140788 0.123220
0.049184 0.326494 0.209931 -0.018423 0.999830 -0.000884
0.081954 0.962201 0.083452 0.897766 0.131839 0.420280
0.339325 0.325293 0.188947 -0.181786 0.982149 -0.048356
0.038492 0.468194 0.361878 -0.951264 -0.307478 0.023521
0.369200 0.405962 0.049959 0.939191 0.151660 -0.308091
0.065863 0.850923 0.308431 0.083207 0.994992 0.055389
0.042712 0.520063 0.341231 -0.818060 -0.165396 -0.550837
0.063217 0.907176 0.034163 -0.015980 0.054702 -0.998375
0.035365 0.600458 0.369578 -0.989277 -0.025991 0.143717
0.069990 0.967703 0.095423 0.287581 0.336166 0.896822
0.041979 0.274453 0.089077 -0.294719 0.025542 0.955242
0.156403 0.214414 0.075211 -0.026141 0.940109 0.339869
0.076049 0.827364 0.323041 0.983883 0.125178 0.127691
0.072055 0.235568 0.381514 0.934201 -0.025209 0.355856
0.382957 0.447661 0.043138 0.092119 -0.985791 -0.140465
0.074165 0.320876 0.372246 0.993578 0.006157 0.112979
0.372425 0.215752 0.356792 0.985268 -0.001523 -0.171009
0.091718 0.215406 0.070874 -0.028375 0.998199 0.052850
0.056071 0.610822 0.035577 -0.469811 -0.038535 -0.881926
0.069841 0.321834 0.220475 0.691261 -0.722600 -0.002834
0.185566 0.463293 0.138917 -0.025616 0.996836 -0.075246
0.026125 0.461340 0.225100 -0.392012 0.799435 -0.455225
0.048723 0.914974 0.278203 -0.621142 -0.775555 0.112680
0.338271 0.442988 0.122784 0.002160 -0.997462 -0.071173
0.086262 0.463237 0.247589 -0.095685 0.991845 -0.084192
0.035471 0.655448 0.370686 -0.986739 -0.013191 0.161781
0.056597 0.883361 0.330672 -0.074156 0.019599 -0.997054
0.035009 0.441752 0.372251 -0.911820 0.406293 0.059255
0.068076 0.464506 0.166692 -0.082440 0.992268 -0.092781
0.064718 0.026221 0.067131 0.979701 -0.125884 0.156008
0.364948 0.320100 0.138215 0.050212 -0.997051 -0.058037
0.043958 0.404196 0.343377 -0.463810 0.127373 -0.876730
0.332659 0.210325 0.349403 0.031107 -0.951057 -0.307446
0.057378 0.319457 0.107220 0.024107 -0.999697 -0.004916
0.242226 0.215291 0.354355 0.001557 0.994710 -0.102709
0.331511 0.118336 0.051577 -0.948951 -0.041737 -0.312650
0.058373 0.441752 0.067324 0.514647 0.715928 0.471790
0.327178 0.462561 0.047958 0.057822 0.996664 -0.057603
0.294103 0.462607 0.079040 0.035887 0.997487 -0.061088
0.342067 0.443337 0.044775 -0.021379 -0.994297 -0.104486
0.382957 0.445775 0.313264 0.854295 -0.300645 0.424019
0.060160 0.515466 0.036106 -0.280209 -0.195605 -0.939799
0.291323 0.440562 0.364895 0.068996 -0.996626 0.044448
0.138447 0.462506 0.250362 -0.074436 0.994371 -0.075401
0.330758 0.388102 0.055730 -0.964566 0.105225 -0.241952
0.057587 0.850923 0.151893 -0.044703 0.998242 -0.038908
0.040897 0.841615 0.341560 -0.832103 0.019338 -0.554284
0.076049 0.835621 0.109738 0.983967 0.165012 -0.067673
0.070837 0.971333 0.339511 0.608947 0.453320 -0.650910
0.365283 0.047857 0.081714 0.584565 -0.758774 0.287309
0.026833 0.407053 0.067562 -0.967076 0.211919 0.140908
0.255888 0.443577 0.154301 -0.019248 -0.998199 -0.056812
0.080859 0.543166 0.372839 0.982316 -0.020887 0.186060
0.072927 0.849147 0.132726 0.516991 0.855775 0.019248
0.370535 0.421084 0.355452 0.986572 0.085352 -0.139248
0.061081 0.670573 0.033857 -0.192547 -0.024411 -0.980984
0.046733 0.844143 0.171830 -0.813103 0.567233 -0.130801
0.067264 0.286332 0.389863 0.759619 0.006510 0.650336
0.244709 0.461229 0.399496 0.061298 0.994399 0.086104
0.027560 0.375422 0.073795 -0.940069 0.063799 0.334964
0.031216 0.180674 0.081073 -0.800530 -0.011116 0.599190
0.118770 0.215986 0.059971 -0.002263 0.999994 -0.002664
0.045454 0.660031 0.121905 -0.965408 -0.256922 -0.044481
0.047866 0.968499 0.318134 -0.663267 0.748340 0.008006
0.064828 0.460509 0.025000 -0.516243 0.334744 -0.788314
0.168340 0.443522 0.241866 -0.022874 -0.999617 -0.015593
0.087880 0.872499 0.067230 0.999456 0.008884 0.031762
0.247442 0.462109 0.242484 0.012059 0.999740 -0.019330
0.033197 0.435268 0.371249 -0.942634 0.333272 0.019251
0.382957 0.456901 0.143496 0.429882 0.892109 0.139079
0.244413 0.443265 0.199259 -0.008385 -0.999313 -0.036112
0.063896 0.103870 0.078707 0.866861 -0.069438 0.493691
0.063678 0.325770 0.237470 0.107814 0.994171 0.000691
0.287158 0.462109 0.219854 0.044633 0.998994 -0.004385
0.028897 0.378538 0.076622 -0.901563 0.083091 0.424594
0.084725 0.619991 0.083214 0.928083 -0.046370 0.369476
0.069447 0.709435 0.147144 0.297291 0.954775 0.004796
0.331952 0.399581 0.074160 -0.948343 0.187242 0.256097
0.232359 0.460848 0.399496 0.053688 0.995063 0.083465
0.076474 0.577911 0.038068 0.622083 -0.031451 -0.782319
0.352078 0.306784 0.334285 0.067663 0.004353 -0.997699
0.072581 0.850087 0.247768 0.366437 0.928318 0.062850
0.035084 0.154050 0.036397 -0.657760 -0.037209 -0.752308
0.372249 0.085411 0.067500 0.996220 -0.030042 0.081505
0.077925 0.813704 0.382069 0.893559 -0.004932 0.448918
0.261628 0.442679 0.076918 -0.036618 -0.995961 -0.081980
0.062116 0.294090 0.039958 0.794998 0.033654 -0.605678
0.076718 0.764244 0.094621 0.645257 0.012114 0.763870
0.036884 0.551549 0.376524 -0.949288 -0.035322 0.312418
0.058082 0.647872 0.283571 -0.039981 -0.998401 0.039967
0.040941 0.591425 0.070001 -0.995512 -0.028693 0.090176
0.072864 0.682305 0.086558 0.984806 -0.018884 -0.172631
0.288064 0.441568 0.397941 0.337950 -0.919500 0.200773
0.136110 0.463183 0.199481 -0.062248 0.994905 -0.079310
0.299126 0.462109 0.119575 0.030951 0.998053 -0.054144
0.305714 0.462109 0.188904 0.054678 0.998461 -0.009307
0.333221 0.285815 0.047454 -0.886293 0.008489 -0.463048
0.167385 0.442810 0.186286 -0.036843 -0.998778 -0.032937
0.044753 0.140339 0.341416 -0.472024 -0.042561 -0.880558
0.338390 0.152625 0.386622 -0.681530 -0.017937 0.731570
0.050187 0.649553 0.214907 -0.460340 -0.885874 0.057579
0.052687 0.326612 0.224857 0.005143 0.999987 0.000671
0.325752 0.458281 0.025000 -0.056437 0.938033 -0.341919
0.053327 0.319321 0.232314 -0.006863 -0.999976 -0.000684
0.051535 0.972202 0.145256 -0.208735 0.975970 -0.062546
0.270394 0.442348 0.041372 -0.042811 -0.994609 -0.094449
0.334087 0.199252 0.045960 -0.864186 -0.019399 -0.502798
0.347557 0.034147 0.387805 -0.115338 -0.109089 0.987318
0.329754 0.383386 0.064168 -0.995546 0.093322 -0.013404
0.364638 0.310921 0.040997 0.727265 0.018532 -0.686106
0.035312 0.591248 0.369022 -0.990758 -0.028235 0.132669
0.352441 0.384327 0.391698 0.038828 0.109642 0.993212
0.039242 0.915864 0.346293 -0.886466 0.107691 -0.450089
0.364083 0.367367 0.386567 0.676592 0.034259 0.735561
0.042597 0.815720 0.079116 -0.960962 0.025343 0.275517
0.284086 0.208926 0.371254 0.001912 -0.997447 0.071379
0.326776 0.462109 0.248118 0.089765 0.995150 0.040226
0.046852 0.464078 0.053871 -0.893262 -0.360345 -0.268766
0.031107 0.309641 0.365491 -0.996239 0.021636 -0.083906
0.031953 0.254671 0.081967 -0.780274 0.013451 0.625293
0.107501 0.443056 0.268687 -0.033758 -0.999427 0.002353
0.340817 0.156432 0.337753 -0.592386 -0.037147 -0.804798
0.046323 0.656558 0.206630 -0.896551 -0.439730 0.053236
0.028667 0.464354 0.149799 -0.192603 0.951185 -0.241147
0.068902 0.464078 0.359585 0.464897 -0.752247 -0.466899
0.074454 0.462109 0.382832 -0.118845 0.991122 -0.059605
0.071591 0.742944 0.336149 0.682140 -0.007573 -0.731182
0.033114 0.427619 0.372935 -0.949396 0.305810 0.071599
0.041571 0.732081 0.075706 -0.979831 0.004817 0.199770
0.382957 0.453137 0.240975 0.739830 0.581124 0.339038
0.060728 0.412075 0.393311 0.446850 0.214418 0.868533
0.367574 0.067573 0.347117 0.856787 -0.104901 -0.504887
0.062939 0.789359 0.308283 0.153832 -0.987701 0.027959
0.284792 0.442571 0.212050 0.012344 -0.999496 -0.029239
0.047376 0.919972 0.045293 -0.811259 0.115594 -0.573147
0.045454 0.812535 0.213980 -0.990513 -0.136307 0.017466
0.032104 0.142467 0.359006 -0.971636 -0.032834 -0.234190
0.092364 0.465106 0.093996 -0.053447 0.994157 -0.093788
0.035357 0.882467 0.369496 -0.992976 0.037891 0.112087
0.330977 0.153405 0.053264 -0.962851 -0.030019 -0.268361
0.336620 0.462109 0.092134 0.059913 0.997250 -0.043627
0.333424 0.059542 0.075990 -0.897981 -0.178173 0.402348
0.244736 0.442783 0.025637 -0.217866 -0.954355 -0.204307
0.026378 0.107448 0.070418 -0.961267 -0.036722 0.273163
0.031966 0.466191 0.071943 -0.073168 0.991756 -0.105197
0.027529 0.089827 0.073269 -0.929536 -0.058753 0.364020
0.081770 0.571653 0.359765 0.995144 -0.013424 -0.097510
0.175153 0.464561 0.050017 -0.007073 0.996522 -0.083035
0.039932 0.751146 0.383772 -0.873569 0.013657 0.486509
0.045454 0.695800 0.235344 -0.974317 0.223324 -0.028861
0.054713 0.824513 0.086558 -0.900551 0.127633 -0.415593
0.048626 0.319207 0.165008 -0.034108 -0.999414 -0.002906
0.045519 0.490601 0.340454 -0.730968 -0.293562 -0.616041
0.212784 0.215744 0.359184 -0.001996 0.998892 -0.047023
0.372680 0.328558 0.059730 0.995800 0.011982 -0.090767
0.217981 0.464270 0.027961 0.016750 0.996863 -0.077350
0.026942 0.056415 0.061346 -0.975622 -0.210802 0.061018
0.320719 0.441172 0.285523 0.052807 -0.998581 0.006832
0.100987 0.465748 0.034366 -0.034418 0.994745 -0.096424
0.326653 0.443221 0.116457 -0.004733 -0.997218 -0.074395
0.064958 0.462109 0.382044 -0.127872 0.989550 -0.066629
0.045454 0.664860 0.154747 -0.979116 -0.201732 -0.025222
0.330105 0.082764 0.361465 -0.994772 -0.099280 -0.023897
0.092876 0.215918 0.061405 -0.003425 0.999959 0.008334
0.031548 0.177359 0.361128 -0.983720 -0.020978 -0.178482
0.360415 0.318637 0.337084 0.534704 0.003332 -0.845033
0.041017 0.355954 0.032701 -0.314058 0.020887 -0.949174
0.043981 0.325966 0.306956 0.019129 0.999062 0.038849
0.245678 0.462109 0.182047 -0.004675 0.998440 -0.055644
0.081307 0.441632 0.182935 -0.062406 -0.997840 -0.020529
0.199352 0.445912 0.399496 0.498266 -0.799361 0.335787
0.056045 0.442132 0.249246 -0.053327 -0.998568 0.004274
0.371794 0.382860 0.355136 0.982289 0.044101 -0.182111
0.370528 0.141891 0.077033 0.937048 -0.050805 0.345484
0.056663 0.972202 0.120090 -0.048332 0.997330 -0.054750
0.071745 0.702777 0.390771 0.688313 -0.000541 0.725414
0.047931 0.494904 0.085260 -0.803367 -0.198259 0.561511
0.107582 0.442775 0.246224 -0.039272 -0.999217 -0.004726
0.086970 0.709784 0.057209 0.979240 0.002203 -0.202691
0.075649 0.813292 0.349730 0.989705 -0.078297 0.119803
0.085377 0.926628 0.055749 0.978582 0.089907 -0.185186
0.231880 0.215819 0.369660 0.007757 0.999911 0.010896
0.120436 0.442767 0.368869 0.001972 -0.999065 0.043183
0.047401 0.326251 0.326769 0.021818 0.999359 0.028382
0.026125 0.448510 0.351471 -0.377760 -0.918155 -0.119536
0.051793 0.183642 0.339337 -0.065441 -0.028898 -0.997438
0.083799 0.805751 0.084906 0.895506 -0.007479 0.444986
0.281035 0.442490 0.041539 -0.039712 -0.994584 -0.096049
0.075681 0.769701 0.037474 0.611367 -0.005346 -0.791329
0.035272 0.363466 0.385573 -0.879693 0.047360 0.473179
0.255130 0.462109 0.230117 0.016370 0.999643 -0.021097
0.104823 0.463876 0.177784 -0.069843 0.993846 -0.085978
0.349775 0.086187 0.035347 -0.120669 -0.099385 -0.987705
0.044389 0.374449 0.089414 -0.178505 0.064583 0.981817
0.229653 0.443043 0.139423 -0.030460 -0.997887 -0.057398
0.071137 0.818226 0.391430 0.648902 0.021459 0.760570
0.341913 0.462109 0.136799 0.076220 0.996992 -0.014048
0.064342 0.789359 0.208384 0.120719 -0.992468 -0.020814
0.081669 0.600157 0.368377 0.995683 -0.009651 0.092320
0.038880 0.325186 0.243324 -0.211160 0.977313 -0.016483
0.040309 0.441627 0.225603 -0.063663 -0.997971 -0.000703
0.056096 0.092129 0.034766 0.498588 -0.051937 -0.865282
0.306814 0.462109 0.339059 0.093459 0.992447 0.079459
0.082060 0.209508 0.048670 -0.060808 -0.996533 -0.056777
0.048605 0.859484 0.041839 -0.764454 0.022299 -0.644292
0.256110 0.208731 0.058543 0.002758 -0.999981 -0.005540
0.079971 0.603514 0.091092 0.785815 -0.047729 0.616618
0.201275 0.443229 0.184027 -0.027647 -0.998859 -0.038944
0.075894 0.793683 0.385758 0.831302 -0.003998 0.555806
0.058013 0.439481 0.036368 -0.104914 -0.992495 -0.062827
0.039220 0.441642 0.227923 -0.063404 -0.997988 0.000197
0.026125 0.459787 0.284028 -0.373071 0.872035 -0.316816
0.314041 0.462962 0.030183 0.056808 0.996519 -0.061019
0.076049 0.681298 0.248925 0.998836 0.029752 0.037961
0.038650 0.923623 0.378869 -0.927911 0.173674 0.329876
0.330989 0.402515 0.369717 -0.972537 0.190098 0.134295
0.041917 0.562963 0.076857 -0.968595 -0.033308 0.246401
0.035263 0.772362 0.368509 -0.994674 0.012760 0.102280
0.289238 0.462869 0.063530 0.037803 0.997300 -0.062958
0.069335 0.106219 0.349766 0.832502 -0.025468 -0.553436
0.231573 0.464031 0.032536 0.021332 0.996973 -0.074759
0.048382 0.915592 0.200927 -0.709517 -0.701348 0.068530
0.026125 0.455399 0.323767 -0.535881 0.794465 -0.285757
0.077626 0.465901 0.046860 -0.047498 0.993910 -0.099429
0.256396 0.208659 0.065211 -0.000419 -0.999067 0.043192
0.372469 0.102921 0.057640 0.984405 -0.017968 -0.174994
0.034168 0.463067 0.315595 -0.134899 0.986951 -0.087923
0.181999 0.441512 0.067695 -0.061772 -0.995457 -0.072451
0.251429 0.442042 0.289072 0.026252 -0.999629 0.007264
0.033777 0.412611 0.358248 -0.921643 0.207385 -0.327973
0.205999 0.463777 0.079382 -0.001566 0.997115 -0.075884
0.254283 0.442729 0.088606 -0.035862 -0.996372 -0.077178
0.372793 0.196360 0.060842 0.996843 -0.002630 -0.079356
0.329980 0.106016 0.369615 -0.982648 -0.038299 0.181482
0.217941 0.462109 0.368032 0.015042 0.999327 0.033443
0.047611 0.916989 0.118277 -0.818319 -0.574173 -0.026045
0.339673 0.084398 0.087525 -0.611907 -0.076576 0.787214
0.104498 0.441478 0.146363 -0.064739 -0.997265 -0.035654
0.205140 0.442812 0.146763 -0.035708 -0.998046 -0.051266
0.237955 0.443067 0.132627 -0.029742 -0.997705 -0.060827
0.331104 0.066715 0.359453 -0.981897 -0.175655 -0.070872
0.369891 0.323973 0.114553 0.532994 0.845317 -0.036824
0.045454 0.662889 0.186632 -0.969160 -0.246159 0.011573
0.040272 0.306368 0.033121 -0.366742 0.006845 -0.930298
0.340113 0.426880 0.041609 -0.582307 0.205990 -0.786439
0.045801 0.657503 0.115736 -0.944068 -0.326915 -0.043158
0.106351 0.462109 0.316064 -0.104558 0.991631 -0.075735
0.370647 0.140000 0.050747 0.931111 -0.007978 -0.364649
0.053312 0.465884 0.336413 -0.367048 -0.404486 -0.837656
0.046089 0.963668 0.278961 -0.920124 0.391604 -0.004326
0.042062 0.135463 0.393740 -0.575326 -0.021153 0.817651
0.063732 0.319924 0.250447 0.017605 -0.998952 0.042238
0.027322 0.442040 0.081160 -0.537985 -0.783303 -0.311460
0.041719 0.442646 0.305101 -0.043666 -0.998756 0.024057
0.038556 0.941347 0.376706 -0.931378 0.241239 0.272652
0.373319 0.462109 0.266885 0.138481 0.986817 0.083753
0.045454 0.922286 0.155975 -0.959803 -0.280502 -0.009848
0.371898 0.406038 0.064377 0.998355 0.025351 0.051430
0.047457 0.237001 0.340114 -0.304945 -0.014076 -0.952266
0.063646 0.319925 0.270183 0.014497 -0.998844 0.045826
0.073666 0.236390 0.360236 0.977631 0.003487 -0.210298
0.212855 0.462109 0.369700 0.010530 0.999470 0.030794
0.057970 0.779337 0.098502 -0.363115 0.026430 0.931369
0.123835 0.208739 0.365754 -0.003016 -0.999879 0.015236
0.255505 0.442987 0.107796 -0.030797 -0.996975 -0.071354
0.042166 0.260581 0.089111 -0.281231 0.021437 0.959401
0.208036 0.215984 0.063245 -0.000115 0.999930 0.011851
0.031811 0.097536 0.359932 -0.978576 -0.046223 -0.200633
0.025898 0.181471 0.052682 -0.978812 -0.020084 -0.203775
0.043255 0.613525 0.338397 -0.769427 -0.035150 -0.637767
0.361338 0.319555 0.162957 0.043652 -0.999039 0.003988
0.061550 0.100809 0.394734 0.525502 -0.022752 0.850488
0.306081 0.442829 0.169158 0.005680 -0.998758 -0.049492
0.372608 0.197395 0.367981 0.993150 -0.004653 0.116750
0.026125 0.445722 0.111655 -0.809678 -0.337095 -0.480404
0.095685 0.462317 0.310150 -0.107877 0.991077 -0.078282
0.363028 0.108279 0.387655 0.664252 -0.031723 0.746836
0.344446 0.229759 0.390868 -0.389717 0.011653 0.920861
0.149609 0.464449 0.085674 -0.027096 0.996023 -0.084874
0.190653 0.443544 0.233483 -0.017807 -0.999629 -0.020613
0.037643 0.320962 0.194836 -0.319280 -0.947648 -0.004930
0.081791 0.463635 0.220908 -0.090674 0.992093 -0.086779
0.026125 0.454802 0.055973 -0.694012 0.182817 -0.696365
0.331992 0.462109 0.312635 0.110839 0.990480 0.081638
0.087040 0.622797 0.057441 0.978501 -0.008519 -0.206066
0.331181 0.420683 0.365680 -0.963294 0.268041 0.014787
0.045454 0.958103 0.273839 -0.979227 0.202447 0.011372
0.045454 0.802309 0.182962 -0.961488 -0.274525 0.013305
0.340813 0.462109 0.203408 0.091938 0.995476 0.023987
0.217554 0.463008 0.127828 -0.009167 0.997459 -0.070651
0.072085 0.808111 0.035342 0.446018 0.002477 -0.895021
0.218703 0.462109 0.245021 -0.014961 0.999159 -0.038181
0.369719 0.269857 0.048352 0.908089 0.035073 -0.417305
0.334497 0.080981 0.380295 -0.844997 -0.091433 0.526897
0.051210 0.441468 0.201527 -0.066464 -0.997739 -0.009976
0.121840 0.441241 0.109329 -0.068848 -0.996374 -0.049997
0.333161 0.026357 0.068095 -0.924462 -0.325902 0.197885
0.106739 0.443318 0.339443 -0.013910 -0.999489 0.028792
0.360848 0.235245 0.089663 0.542967 0.008566 0.839710
0.045454 0.930348 0.282176 -0.970552 -0.221211 0.095361
0.025367 0.166370 0.064426 -0.994401 -0.020389 0.103685
0.264354 0.462109 0.229557 0.025114 0.999574 -0.014887
0.062406 0.048807 0.076387 0.759433 -0.586904 0.280724
0.026125 0.459138 0.153371 -0.537593 0.593940 -0.598522
0.034828 0.743734 0.363109 -0.999922 0.004481 -0.011675
0.099905 0.462946 0.256129 -0.092162 0.992415 -0.081358
0.293855 0.462109 0.195659 0.044986 0.998893 -0.013765
0.047300 0.545185 0.089118 -0.810182 -0.047176 0.584277
0.329774 0.212572 0.067986 -0.993442 -0.005737 0.114193
0.036684 0.508038 0.364538 -0.982622 -0.174186 0.064139
0.036846 0.852041 0.376400 -0.960258 0.033707 0.277070
0.041233 0.754784 0.073050 -0.990262 0.009235 0.138910
0.353509 0.319204 0.307351 -0.002636 -0.999979 0.005921
0.075707 0.700105 0.291174 0.917403 0.373654 0.136948
0.068323 0.375852 0.063758 0.995225 0.012253 0.096838
0.351424 0.030791 0.088614 0.097699 -0.067083 0.992953
0.045454 0.833999 0.179235 -0.977278 0.197375 -0.077273
0.223059 0.441362 0.372894 0.044492 -0.997902 0.047041
0.041341 0.817831 0.058784 -0.984080 0.019016 -0.176704
0.083632 0.495777 0.054480 0.940973 -0.119665 -0.316624
0.298715 0.441208 0.305780 0.051140 -0.998560 0.016184
0.151744 0.210293 0.045576 -0.026791 -0.937501 -0.346950
0.334686 0.238171 0.082478 -0.840199 0.007922 0.542221
0.073110 0.634783 0.337796 0.731195 -0.020066 -0.681873
0.087361 0.862155 0.072622 0.988987 0.007300 0.147819
0.045454 0.930005 0.175492 -0.984339 -0.175944 -0.010979
0.382957 0.443705 0.392661 0.839413 -0.312182 0.444892
0.075905 0.962334 0.286304 0.935422 0.329966 0.126914
0.330710 0.442434 0.174711 0.017534 -0.998770 -0.046386
0.037454 0.600261 0.378418 -0.935136 -0.023510 0.353508
0.075595 0.938803 0.093326 0.596375 0.194735 0.778727
0.315918 0.462109 0.299469 0.092262 0.993761 0.062657
0.026125 0.451150 0.034246 -0.756075 -0.025474 -0.653989
0.032965 0.443034 0.345141 -0.036304 -0.998619 0.037973
0.356057 0.025000 0.050393 0.166962 -0.640453 -0.749629
0.236586 0.440960 0.390705 0.056168 -0.996860 0.055816
0.331508 0.315822 0.375406 -0.947863 0.029796 0.317281
0.068424 0.365611 0.057659 0.997841 0.014650 -0.064024
0.346729 0.165106 0.391644 -0.247901 -0.006284 0.968765
0.050632 0.439665 0.058744 -0.101584 -0.993323 -0.054682
0.185154 0.464064 0.078633 -0.010214 0.996789 -0.079424
0.062078 0.025000 0.058239 0.822701 -0.500701 -0.269188
0.341101 0.349925 0.038008 -0.547474 0.022564 -0.836518
0.082057 0.675002 0.364328 0.999913 -0.005150 0.012162
0.086457 0.442296 0.230333 -0.049258 -0.998765 -0.006424
0.158914 0.212272 0.042793 -0.020198 0.084877 -0.996187
0.365733 0.097163 0.341710 0.747091 -0.032821 -0.663911
0.044127 0.270908 0.394902 -0.494618 0.022044 0.868831
0.057280 0.647871 0.197766 -0.142841 -0.989717 0.007476
0.371399 0.250932 0.074289 0.958817 -0.021487 0.283211
0.320201 0.441944 0.224698 0.031051 -0.999264 -0.022502
0.042996 0.588930 0.052514 -0.952087 -0.035252 -0.303789
0.075022 0.797759 0.181116 0.870253 -0.481438 -0.104296
0.371908 0.075209 0.365453 0.998059 -0.047204 0.040630
0.102041 0.208779 0.370094 -0.004536 -0.998930 0.046031
0.068662 0.241978 0.060019 0.999816 -0.000604 -0.019185
0.076049 0.662227 0.233778 0.964262 -0.263355 -0.029046
0.063881 0.464880 0.141674 -0.077746 0.992418 -0.095194
0.070592 0.255409 0.384734 0.885872 -0.021673 0.463424
0.365773 0.433650 0.345511 0.339980 0.900507 -0.271111
0.027812 0.158289 0.074941 -0.917626 -0.019004 0.396990
0.366589 0.307411 0.383984 0.787784 0.005627 0.615926
0.050507 0.459430 0.025000 -0.557377 0.279375 -0.781844
0.070707 0.661418 0.086558 0.850574 -0.462163 -0.250857
0.283938 0.442191 0.243170 0.023038 -0.999633 -0.014261
0.169981 0.442820 0.184279 -0.036591 -0.998753 -0.033975
0.037170 0.731956 0.349610 -0.947968 -0.002735 -0.318353
0.074533 0.844784 0.203201 0.797066 0.599843 0.069812
0.382957 0.460462 0.359414 0.252351 0.949580 0.186056
0.056403 0.265609 0.086815 0.532613 0.016164 0.846205
0.367573 0.376259 0.044933 0.841905 0.121126 -0.525855
0.058516 0.059894 0.082476 0.637757 -0.176389 0.749769
0.033384 0.045337 0.369611 -0.961970 -0.258693 0.087700
0.063905 0.789359 0.164172 0.067041 -0.997050 -0.037374
0.045454 0.658683 0.289389 -0.927906 -0.351976 0.122894
0.041357 0.588337 0.074336 -0.982477 -0.028225 0.184234
0.329643 0.235347 0.366281 -0.996988 0.000882 0.077548
0.075328 0.919590 0.316699 0.924541 -0.379312 0.036686
0.280805 0.443478 0.144104 -0.013315 -0.997991 -0.061942
0.331311 0.264218 0.075199 -0.951846 0.013367 0.306285
0.070108 0.647870 0.128151 0.243320 -0.966921 -0.076541
0.026125 0.447598 0.290166 -0.573049 -0.773294 -0.271349
0.302198 0.462543 0.075562 0.040207 0.997391 -0.059957
0.298931 0.215890 0.361004 0.003279 0.999036 -0.043768
0.031997 0.344965 0.377327 -0.974363 0.037310 0.221866
0.256677 0.462109 0.372958 0.053794 0.996501 0.063971
0.049145 0.918780 0.345000 -0.764372 -0.616066 0.190260
0.259710 0.462835 0.097151 0.016648 0.997703 -0.065656
0.037706 0.307335 0.347230 -0.773141 0.012632 -0.634108
0.058517 0.109229 0.036250 0.620070 -0.035480 -0.783743
0.251125 0.463015 0.092040 0.014321 0.997620 -0.067448
0.053820 0.955559 0.093146 -0.609376 0.333917 0.719139
0.341772 0.441320 0.251657 0.049271 -0.998744 -0.009106
0.036902 0.960234 0.364192 -0.960613 0.274729 -0.041795
0.043949 0.234236 0.394802 -0.497671 0.010300 0.867305
0.372590 0.349823 0.068567 0.989882 0.008405 0.141643
0.362634 0.441752 0.359692 0.313325 0.932487 0.179712
0.056702 0.789359 0.254892 -0.113305 -0.992974 0.034138
0.365994 0.266864 0.085011 0.769756 -0.003421 0.638329
0.256072 0.441471 0.329636 0.042464 -0.998736 0.026878
0.061030 0.647870 0.120689 -0.072063 -0.996500 -0.042352
0.155585 0.447492 0.025000 -0.612085 -0.565676 -0.552596
0.045478 0.962006 0.116290 -0.935918 0.315307 -0.156971
0.041111 0.770304 0.061182 -0.992743 0.008997 -0.119917
0.364145 0.170694 0.340073 0.689048 -0.022088 -0.724379
0.073704 0.653883 0.135148 0.723999 -0.675788 -0.138331
0.075611 0.657337 0.290761 0.935332 -0.353537 0.012837
0.185596 0.463271 0.140618 -0.026044 0.996834 -0.075125
0.071093 0.662683 0.335608 0.651567 -0.019288 -0.758346
0.087011 0.597038 0.057344 0.977418 -0.010652 -0.211049
0.052417 0.910638 0.214645 -0.288288 -0.956888 0.035438
0.078330 0.463003 0.274342 -0.105909 0.990853 -0.083626
0.038482 0.917413 0.378956 -0.930959 0.149678 0.333035
0.027877 0.240002 0.075145 -0.920092 0.006798 0.391643
0.076049 0.799737 0.244259 0.948551 -0.315313 -0.028770
0.035336 0.323071 0.251948 -0.990580 0.135036 0.022710
0.305145 0.216152 0.364748 0.003574 0.999937 -0.010623
0.067094 0.947898 0.036164 0.248942 0.108542 -0.962417
0.045454 0.832993 0.087675 -0.961988 0.215430 -0.167833
0.070129 0.686675 0.349730 0.940441 0.192672 0.280086
0.342342 0.442999 0.117649 0.001973 -0.997289 -0.073560
0.068458 0.915599 0.097855 0.206462 0.143363 0.967895
0.056800 0.647871 0.152969 -0.196493 -0.980460 -0.009371
0.372771 0.258571 0.066778 0.996556 0.000985 0.082912
0.030310 0.126645 0.042078 -0.849610 -0.042631 -0.525686
0.068731 0.241257 0.060707 0.999998 -0.001519 -0.001467
0.081266 0.806167 0.372437 0.979547 0.002938 0.201192
0.332398 0.042518 0.358515 -0.953912 -0.287579 -0.085727
0.344293 0.110849 0.091196 -0.373469 -0.022935 0.927359
0.045454 0.670493 0.247439 -0.985584 -0.160745 0.052772
0.197189 0.442436 0.314650 0.013545 -0.999736 0.018574
0.252482 0.440725 0.392699 0.063222 -0.996367 0.057056
0.091492 0.462191 0.324465 -0.113322 0.990494 -0.077967
0.030989 0.303036 0.366667 -0.998424 0.019991 -0.052437
0.328562 0.462109 0.121884 0.059699 0.997700 -0.032112
0.045454 0.925072 0.305596 -0.942108 -0.308666 0.130989
0.048676 0.749004 0.393506 -0.534886 0.016826 0.844757
0.325495 0.439983 0.375030 0.086186 -0.995028 0.049905
0.151015 0.464911 0.047762 -0.016716 0.996049 -0.087214
0.045884 0.326311 0.164478 -0.038629 0.999253 -0.001007
0.076049 0.961246 0.174834 0.967966 0.250889 0.009783
0.036855 0.950681 0.360476 -0.963382 0.239736 -0.120088
0.366716 0.073038 0.381526 0.801893 -0.393451 0.449627
0.050747 0.889765 0.093440 -0.712543 0.049365 0.699890
0.076049 0.808159 0.268699 0.983375 -0.180760 0.017329
0.067199 0.362567 0.050651 0.967143 0.037088 -0.251512
0.101166 0.440627 0.082157 -0.081426 -0.995145 -0.055276
0.049708 0.465394 0.116060 -0.077092 0.992069 -0.099275
0.036387 0.243131 0.035310 -0.583390 -0.010216 -0.812128
0.052701 0.930978 0.039504 -0.584935 0.125832 -0.801260
0.190137 0.208825 0.361774 -0.001042 -0.999964 -0.008459
0.049737 0.325811 0.339706 -0.153905 0.011052 -0.988024
0.075424 0.523412 0.384041 0.823063 -0.375612 0.426009
0.045412 0.517235 0.082909 -0.887269 -0.127933 0.443156
0.043467 0.494639 0.071410 -0.963088 -0.213079 0.164495
0.260941 0.214708 0.046649 0.003054 0.974092 -0.226130
0.033298 0.100623 0.083352 -0.707237 -0.035469 0.706086
0.071371 0.462367 0.331671 -0.123574 0.989044 -0.080751
0.186055 0.462109 0.248552 -0.045337 0.997223 -0.059074
0.361748 0.326030 0.128105 0.066048 0.997785 -0.007960
0.057638 0.959382 0.086558 -0.525435 0.727568 -0.441092
0.037953 0.055476 0.350649 -0.819997 -0.258838 -0.510498
0.056160 0.724898 0.396331 -0.132573 0.013532 0.991081
0.364439 0.253187 0.340376 0.712838 -0.003467 -0.701320
0.066842 0.972202 0.259158 0.146797 0.988373 0.039605
0.075967 0.588826 0.341461 0.829268 -0.016842 -0.558598
0.069616 0.925534 0.335966 0.647590 0.056782 -0.759871
0.073412 0.916120 0.109767 0.671971 -0.725968 -0.146375
0.071002 0.648989 0.181406 0.383371 -0.921053 -0.068463
0.285244 0.209550 0.376173 0.006470 -0.990888 0.134536
0.062141 0.423715 0.344708 0.612724 0.097255 -0.784290
0.035456 0.110094 0.036013 -0.646387 -0.051053 -0.761300
0.120884 0.209321 0.049785 -0.013649 -0.998940 -0.043967
0.041991 0.870128 0.077100 -0.974850 0.036808 0.219800
0.227682 0.442726 0.259610 0.006282 -0.999953 -0.007368
0.076049 0.664420 0.196551 0.966711 -0.248591 -0.060603
0.051158 0.587942 0.093886 -0.663362 -0.023087 0.747943
0.081194 0.498215 0.048402 0.859554 -0.136432 -0.492498
0.072638 0.280023 0.379677 0.950710 -0.013959 0.309766
0.049174 0.651389 0.137488 -0.641004 -0.767480 0.009367
0.041098 0.631456 0.061316 -0.994504 -0.022307 -0.102291
0.032381 0.119684 0.378541 -0.956931 -0.032669 0.288471
0.088261 0.464233 0.167067 -0.074050 0.993235 -0.089444
0.365626 0.328142 0.384977 0.748634 0.021402 0.662638
0.355587 0.229946 0.391663 0.257655 0.011396 0.966170
0.270450 0.442081 0.266048 0.025732 -0.999663 -0.003481
0.064910 0.443070 0.314484 -0.034699 -0.999124 0.023388
0.370444 0.327176 0.376887 0.923963 0.001954 0.382478
0.049286 0.972202 0.132208 -0.257544 0.963398 -0.074405
0.116058 0.443517 0.399412 0.202589 -0.964853 0.167383
0.072549 0.439656 0.035036 -0.101090 -0.992717 -0.065522
0.065653 0.569013 0.033513 0.047240 -0.044928 -0.997873
0.181834 0.463411 0.133564 -0.025815 0.996756 -0.076236
0.043579 0.462299 0.366190 -0.143957 0.986110 -0.082840
0.297329 0.462109 0.150880 0.037070 0.998615 -0.037333
0.045454 0.922022 0.229288 -0.945994 -0.318026 0.062892
0.243516 0.442162 0.054793 -0.047251 -0.995167 -0.086080
0.042609 0.817332 0.079153 -0.960740 0.025725 0.276253
0.046230 0.441752 0.383624 -0.554683 0.596450 0.580150
0.043468 0.842904 0.082007 -0.938806 0.032690 0.342892
0.265713 0.216027 0.063021 0.003232 0.999989 0.003491
0.350590 0.326489 0.172660 -0.012941 0.999914 -0.002144
0.163833 0.440980 0.044472 -0.072663 -0.994390 -0.076870
0.076049 0.952028 0.250789 0.986993 0.148263 0.062145
0.064194 0.726509 0.331403 0.322915 -0.012855 -0.946341
0.068703 0.242724 0.061166 0.999943 -0.001374 0.010585
0.038267 0.805824 0.346335 -0.912775 0.012993 -0.408255
0.343111 0.434676 0.039834 -0.411608 0.211278 -0.886533
0.055084 0.618452 0.330958 -0.212174 -0.036396 -0.976554
0.212126 0.462109 0.267376 -0.015747 0.999431 -0.029825
0.055926 0.025000 0.059829 0.345562 -0.842780 -0.412685
0.071423 0.649753 0.243089 0.492767 -0.868704 -0.050337
0.063625 0.917513 0.094118 0.074554 -0.976015 -0.204541
0.246653 0.441587 0.330250 0.038904 -0.998878 0.026999
0.045454 0.922441 0.213811 -0.951166 -0.305136 0.046640
0.073082 0.366425 0.378276 0.959202 0.009998 0.282544
0.058434 0.094467 0.085423 0.654519 -0.034189 0.755272
0.343513 0.197827 0.036649 -0.449967 -0.024631 -0.892706
0.106438 0.462109 0.351905 -0.096070 0.993846 -0.055138
0.206188 0.462463 0.182676 -0.028189 0.997232 -0.068798
0.077034 0.948854 0.379770 0.913874 0.094681 0.394803
0.315842 0.462109 0.351574 0.105170 0.990086 0.093106
0.056927 0.439753 0.083250 0.555850 0.323503 0.765752
0.161821 0.463163 0.026194 -0.213289 0.889837 -0.403357
0.048948 0.708676 0.215872 -0.378930 0.924007 -0.051215
0.060649 0.683199 0.086558 -0.062582 0.203846 -0.977001
0.380682 0.440614 0.362625 0.328817 -0.930171 0.163285
0.076049 0.684606 0.285967 0.991985 0.092753 0.085802
0.065169 0.325637 0.103448 0.093543 0.995537 -0.012454
0.330371 0.267212 0.354762 -0.973736 0.006276 -0.227592
0.371745 0.261149 0.054208 0.968915 0.017341 -0.246785
0.370216 0.285111 0.377607 0.918098 -0.009642 0.396235
0.045454 0.665961 0.162674 -0.981757 -0.189054 -0.020313
0.048841 0.971151 0.330425 -0.470941 0.882153 0.004461
0.066849 0.442593 0.274545 -0.043990 -0.998976 0.010541
0.131537 0.463308 0.194422 -0.062872 0.994776 -0.080417
0.154681 0.462109 0.352923 -0.049881 0.998543 -0.020583
