0.376228 0.555115 0.153415 -0.098843 -0.984873 -0.142319
0.036119 0.232092 0.442720 -0.468778 0.075986 -0.880042
0.441705 0.163116 0.475602 0.069048 0.029919 0.997165
0.163388 0.945250 0.040039 0.149540 0.055747 0.987183
0.236714 0.555115 0.247539 -0.021568 -0.996451 -0.081359
0.176796 0.907243 0.029006 -0.113083 0.006701 -0.993563
0.281439 0.563438 0.463032 -0.012859 -0.355969 0.934409
0.313846 0.599728 0.065450 0.051089 0.035011 -0.998080
0.070885 0.594794 0.451047 -0.114774 0.023884 0.993104
0.349556 0.564372 0.444963 0.005712 -0.795095 -0.606458
0.224490 0.603300 0.454111 -0.538774 0.813858 0.217618
0.455211 0.320578 0.070483 0.790364 0.050756 0.610531
0.049755 0.235246 0.390961 0.767568 -0.640967 0.000001
0.068659 0.914934 0.060355 0.270750 0.076266 0.959624
0.259044 0.627752 0.150938 0.001673 0.996850 -0.079293
0.412981 0.555115 0.090563 -0.133207 -0.982479 -0.130349
0.054817 0.297848 0.045608 0.604804 0.047103 -0.794980
0.266302 0.555115 0.365369 0.016092 -0.980190 -0.197406
0.331842 0.943191 0.041487 -0.117239 0.056090 0.991518
0.426463 0.724332 0.053076 -0.925749 0.113074 -0.360837
0.443534 0.357136 0.475234 0.074380 0.067640 0.994933
0.281986 0.599656 0.451042 0.000119 0.034871 0.999392
0.217353 0.555115 0.330803 0.017215 -0.993206 -0.115091
0.410516 0.599387 0.444963 -0.650516 0.469353 -0.597107
0.050734 0.618818 0.307956 -0.938805 0.339709 0.056948
0.207200 0.603300 0.056863 0.012310 0.658712 -0.752294
0.454583 0.770369 0.045812 0.771732 0.098230 -0.628316
0.327703 0.873010 0.031785 0.128463 -0.037993 -0.990986
0.352724 0.558363 0.463032 -0.007272 -0.527015 0.849825
0.182627 0.627752 0.423646 -0.020745 0.992388 0.121393
0.441465 0.645684 0.040937 0.021031 0.099774 -0.994788
0.179807 0.555115 0.082493 -0.077216 -0.994946 -0.064192
0.439635 0.246974 0.391938 -0.131247 0.991350 -0.000027
0.180918 0.555115 0.302550 0.016302 -0.997671 -0.066231
0.446743 0.360535 0.042565 0.240434 0.057668 -0.968951
0.046633 0.592700 0.444961 -0.655697 0.012077 -0.754927
0.029703 0.795346 0.047327 -0.669647 0.105213 -0.735189
0.267948 0.627752 0.163973 0.003820 0.997445 -0.071343
0.326746 0.841541 0.032522 0.088981 -0.093975 -0.991590
0.395047 0.318853 0.038355 -0.000001 0.113860 -0.993497
0.029176 0.076999 0.447848 -0.884624 0.020346 -0.465861
0.075080 0.627752 0.206005 -0.109620 0.993974 -0.000025
0.435375 0.612089 0.188426 0.989872 0.132755 -0.050301
0.437243 0.029032 0.473754 -0.137072 0.008729 0.990523
0.028098 0.439443 0.051203 -0.897882 0.067134 -0.435088
0.434900 0.125129 0.472784 -0.331771 0.028223 0.942938
0.424430 0.155071 0.057986 -0.995412 0.023885 0.092648
0.248656 0.604403 0.451043 0.000687 0.050501 0.998724
0.245163 0.852131 0.034158 -0.031627 -0.060357 0.997676
0.228969 0.582768 0.444962 -0.018276 -0.327328 -0.944734
0.391885 0.627752 0.259206 0.093971 0.995489 0.013110
0.235818 0.594789 0.463031 -0.069084 0.252155 0.965218
0.160025 0.311003 0.439347 0.000021 -0.611514 -0.791234
0.165853 0.571688 0.071535 -0.013939 -0.037474 0.999200
0.072858 0.582024 0.444962 0.082851 -0.479927 -0.873388
0.445253 0.346477 0.041948 0.142662 0.055578 -0.988210
0.359572 0.603300 0.071458 0.004233 0.298291 0.954466
0.026731 0.286353 0.054504 -0.981301 0.046623 -0.186749
0.176201 0.555115 0.379329 0.048436 -0.992768 -0.109846
0.340551 0.555115 0.371147 -0.004060 -0.959209 -0.282668
0.447358 0.575755 0.073353 0.946382 -0.311225 -0.086606
0.199589 0.555115 0.144855 -0.055854 -0.995968 -0.070206
0.383643 0.555115 0.448851 0.012882 -0.989340 -0.145054
0.239165 0.555115 0.243379 -0.023978 -0.996343 -0.082007
0.202141 0.573669 0.444962 0.042768 -0.666726 -0.744075
0.334068 0.934055 0.041806 -0.126462 0.045653 0.990920
0.033958 0.968976 0.062000 -0.945370 0.274128 0.176434
0.209765 0.555115 0.054901 -0.042234 -0.601865 -0.797480
0.271146 0.589774 0.071541 -0.005538 0.162714 0.986658
0.138396 0.627752 0.161873 -0.079776 0.996813 -0.000467
0.428861 0.616242 0.047288 -0.745946 0.099806 -0.658486
0.454890 0.575910 0.071257 0.707092 0.093583 0.700901
0.089259 0.594204 0.065443 -0.032436 0.024616 -0.999171
0.234470 0.555115 0.230501 -0.028282 -0.996345 -0.080598
0.427832 0.762331 0.049771 -0.814540 0.124028 -0.566694
0.362395 0.555115 0.226285 -0.067023 -0.979980 -0.187478
0.235976 0.627752 0.107000 -0.004054 0.994240 -0.107104
0.056643 0.079151 0.447339 0.697102 0.015855 -0.716797
0.331803 0.941157 0.041481 -0.118446 0.053634 0.991511
0.452785 0.306420 0.471403 0.605904 0.068100 0.792618
0.035304 0.202808 0.043883 -0.541117 0.027639 -0.840493
0.343658 0.555115 0.124821 -0.101165 -0.988803 -0.109698
0.241013 0.555115 0.387353 0.032340 -0.981681 -0.187766
0.452233 0.968976 0.058106 0.967102 0.237730 0.090540
0.051430 0.403259 0.044205 0.458468 0.050973 -0.887248
0.055874 0.594109 0.156320 0.923575 -0.243629 -0.296066
0.090318 0.555115 0.448201 0.097282 -0.985183 0.141246
0.432389 0.603300 0.247824 -0.445988 0.808928 -0.383054
0.439416 0.707076 0.075488 -0.222433 0.083384 0.971376
0.189523 0.555115 0.378657 0.044254 -0.991304 -0.123931
0.355470 0.555115 0.053606 0.003213 -0.306519 -0.951859
0.451768 0.069394 0.072628 0.683951 0.015188 0.729370
0.275317 0.627752 0.114695 0.004591 0.994170 -0.107722
0.443142 0.579770 0.076201 0.044547 0.073746 0.996282
0.031502 0.097396 0.045458 -0.752148 0.014087 -0.658844
0.419161 0.555115 0.214877 -0.088373 -0.966902 -0.239356
0.037801 0.575726 0.283813 -0.990966 -0.123273 -0.052813
0.450741 0.239799 0.055274 0.957278 0.289169 -0.000031
0.183394 0.627752 0.412533 -0.019706 0.993286 0.113990
0.459583 0.520453 0.057343 0.994968 0.058976 -0.080997
0.426683 0.409117 0.463824 -0.933998 0.117880 0.337270
0.203315 0.627752 0.115444 -0.010982 0.995320 -0.096003
0.404459 0.627752 0.400851 0.131556 0.990895 0.028652
0.054667 0.555115 0.178862 -0.065134 -0.997348 -0.032483
0.449885 0.207100 0.043866 0.375944 0.033799 -0.926026
0.454302 0.449526 0.045695 0.678456 0.059301 -0.732244
0.030631 0.427757 0.444992 -0.666881 0.130825 -0.733590
0.435380 0.613811 0.384932 0.996038 0.084375 0.028106
0.269025 0.627752 0.190750 0.004499 0.998620 -0.052322
0.134051 0.859057 0.044253 0.156783 -0.054544 0.986126
0.368354 0.627752 0.361889 0.100818 0.994671 0.021581
0.173665 0.555115 0.077513 -0.077749 -0.995015 -0.062456
0.392165 0.627752 0.249017 0.092004 0.995685 0.012093
0.425602 0.469288 0.461212 -0.983022 0.115243 0.142782
0.045102 0.603300 0.145447 -0.516803 0.554877 -0.651940
0.026692 0.127027 0.453845 -0.991311 0.026604 -0.128821
0.159974 0.573138 0.444962 0.062764 -0.720484 -0.690626
0.293544 0.924692 0.036462 -0.067383 0.025601 0.997399
0.134754 0.555115 0.260622 0.010156 -0.998536 -0.053120
0.403815 0.555115 0.426238 -0.001558 -0.920175 -0.391505
0.436401 0.161755 0.074239 -0.232503 0.021849 0.972350
0.354439 0.627752 0.288705 0.076673 0.996973 0.012893
0.447881 0.767459 0.043036 0.443172 0.114856 -0.889048
0.055866 0.576366 0.456462 -0.022683 -0.280012 0.959728
0.047080 0.699125 0.042404 0.292639 0.080553 -0.952824
0.054958 0.106235 0.470875 0.760892 0.032933 0.648042
0.368015 0.865473 0.048062 -0.220454 -0.051247 0.974050
0.038339 0.546726 0.074741 -0.257384 0.082531 0.962778
0.336644 0.592753 0.444963 -0.485811 0.205297 -0.849612
0.221935 0.958678 0.035018 0.063770 0.063933 0.995915
0.285382 0.591172 0.463032 -0.050871 0.138245 0.989091
0.099596 0.627752 0.216587 -0.093121 0.995655 0.000016
0.034428 0.238539 0.423156 -0.991502 0.130094 0.000020
0.362865 0.555115 0.335533 -0.024704 -0.960359 -0.277668
0.380654 0.555115 0.316261 -0.037558 -0.958971 -0.281005
0.135078 0.627752 0.180171 -0.078470 0.996916 -0.000321
0.121563 0.627752 0.180023 -0.086573 0.996245 -0.000300
0.037797 0.587389 0.425051 -0.992966 -0.089544 -0.077465
0.447364 0.599391 0.306721 0.918686 0.389529 -0.065452
0.149090 0.597728 0.463031 -0.091591 0.391404 0.915650
0.446880 0.325603 0.441789 0.250049 0.086260 -0.964383
0.026473 0.804968 0.062240 -0.985953 0.130419 0.104344
0.435380 0.597090 0.387961 0.995646 0.032468 0.087380
0.027859 0.512879 0.451026 -0.873401 0.127156 -0.470109
0.210495 0.555115 0.445595 0.065165 -0.984686 -0.161702
0.447799 0.593626 0.473468 0.196851 0.122244 0.972783
0.272893 0.627752 0.222054 0.005855 0.999518 -0.030487
0.028884 0.234353 0.049306 -0.879317 0.036800 -0.474813
0.449635 0.857688 0.073511 0.361101 0.132538 0.923060
0.379609 0.555115 0.450797 0.014616 -0.999865 0.007516
0.141253 0.627752 0.077639 -0.025012 0.993246 -0.113299
0.213280 0.627752 0.342814 -0.010526 0.998027 0.061894
0.425467 0.556760 0.071549 0.086622 -0.662205 0.744299
0.055648 0.555115 0.220631 0.002228 -0.999506 -0.031354
0.426907 0.409712 0.065271 -0.886519 0.047601 0.460237
0.058597 0.530219 0.064383 0.936528 0.062793 0.344924
0.168825 0.627752 0.420719 -0.021934 0.992230 0.122466
0.416534 0.558146 0.463032 -0.007025 -0.600027 0.799949
0.181082 0.555115 0.130746 -0.057106 -0.996252 -0.064970
0.383056 0.555115 0.211412 -0.078943 -0.977097 -0.197608
0.267895 0.555115 0.270765 -0.021300 -0.992423 -0.121012
0.447367 0.587620 0.443936 0.933323 0.350458 -0.078019
0.429289 0.583411 0.073206 -0.874306 0.092866 -0.476409
0.336228 0.627752 0.403768 -0.002974 0.997165 0.075188
0.056994 0.363848 0.068252 0.861648 0.042123 0.505754
0.028630 0.481935 0.049918 -0.851751 0.070856 -0.519133
0.435552 0.555115 0.111555 0.206413 -0.961839 -0.179609
0.294830 0.567685 0.444963 0.018494 -0.758597 -0.651298
0.104024 0.627752 0.169859 -0.098864 0.995101 -0.000349
0.037803 0.574133 0.204834 -0.996816 -0.061985 -0.050165
0.055753 0.395791 0.445191 0.693488 0.073863 -0.716672
0.074030 0.627752 0.121390 -0.125379 0.992109 -0.000671
0.028394 0.379266 0.449736 -0.868903 0.092385 -0.486285
0.069276 0.627752 0.346711 -0.087860 0.996132 0.001062
0.167507 0.597313 0.444962 -0.119449 0.154444 -0.980754
0.322129 0.621612 0.449502 0.027599 0.497808 0.866848
0.048773 0.766451 0.043105 0.405900 0.100600 -0.908364
0.385647 0.555115 0.360913 -0.021580 -0.946447 -0.322139
0.034493 0.431663 0.472293 -0.565134 0.107072 0.818022
0.258335 0.960846 0.034785 0.008299 0.066101 0.997778
0.231598 0.555115 0.330085 0.012682 -0.991414 -0.130140
0.070392 0.555115 0.160240 -0.016230 -0.999268 -0.034628
0.428823 0.614830 0.069896 -0.751490 0.068280 0.656202
0.115937 0.620671 0.449752 -0.042189 0.321113 0.946101
0.055065 0.194358 0.470831 0.734375 0.057137 0.676335
0.148289 0.884106 0.033101 -0.170181 -0.020815 -0.985193
0.033826 0.873850 0.072872 -0.610444 0.142971 0.779049
0.037802 0.583637 0.241839 -0.995746 0.047277 -0.079086
0.055876 0.569447 0.083028 0.337135 -0.932286 -0.131083
0.084927 0.575710 0.463031 -0.050619 0.090369 0.994621
0.423464 0.592175 0.451039 0.038941 0.020216 0.999037
0.067183 0.568714 0.463031 -0.035680 -0.012386 0.999287
0.050212 0.617110 0.279996 -0.970447 0.238746 0.035100
0.408472 0.555115 0.243813 -0.074035 -0.964985 -0.251641
0.028215 0.483866 0.050921 -0.882322 0.072733 -0.464992
0.428611 0.530219 0.447161 -0.755828 0.102016 -0.646774
0.428086 0.246122 0.448428 -0.864930 0.047700 -0.499620
0.326937 0.622815 0.449188 0.018801 0.577084 0.816468
0.028859 0.968429 0.068000 -0.894728 0.160152 0.416908
0.440291 0.246966 0.135931 -0.340755 0.940152 -0.000021
0.049782 0.614777 0.313115 -0.986155 0.160305 0.042428
0.436023 0.603300 0.444404 -0.171059 0.833377 -0.525569
0.377523 0.308805 0.447626 0.000026 -0.894795 0.446476
0.084038 0.603300 0.446229 -0.046384 0.302354 -0.952066
0.429292 0.600956 0.186932 -0.640724 0.669926 -0.375063
0.445451 0.524053 0.441197 0.244593 0.137952 -0.959762
0.457868 0.163839 0.452303 0.907374 0.050365 -0.417296
0.052533 0.170673 0.443807 0.480512 0.033106 -0.876363
0.345673 0.627752 0.317960 0.077327 0.996891 0.015129
0.364721 0.627752 0.276281 0.080517 0.996675 0.012511
0.053797 0.563016 0.444331 0.661432 0.108099 -0.742174
0.060856 0.388912 0.058929 0.998333 0.048102 -0.031910
0.057222 0.092512 0.466947 0.907441 0.027643 0.419269
0.131250 0.887239 0.044655 0.173973 -0.013988 0.984651
0.443510 0.555115 0.240085 0.724597 -0.664512 -0.182710
0.303924 0.555115 0.446430 0.037419 -0.976084 -0.214150
0.086290 0.555115 0.134564 -0.031214 -0.998758 -0.038832
0.030793 0.927002 0.045752 -0.541294 0.115627 -0.832845
0.210823 0.555115 0.249602 -0.014038 -0.997146 -0.074177
0.055866 0.581471 0.449972 0.091798 -0.974097 -0.206659
0.424670 0.630790 0.057405 -0.993152 0.092769 -0.071016
0.366111 0.627752 0.183687 0.061888 0.998078 0.003167
0.129237 0.601585 0.463031 -0.102673 0.468255 0.877608
0.031126 0.189079 0.444787 -0.732680 0.061034 -0.677831
0.287944 0.579963 0.071542 0.013375 -0.048228 0.998747
0.432455 0.229055 0.471771 -0.511419 0.055383 0.857545
0.050725 0.568773 0.444962 -0.257538 -0.845093 -0.468499
0.244314 0.899355 0.025083 -0.001165 -0.006050 -0.999981
0.448442 0.234572 0.167738 0.859414 -0.511281 -0.000004
0.430741 0.374479 0.071895 -0.592566 0.041971 0.804428
0.447363 0.571698 0.298117 0.994874 -0.095913 -0.032033
0.056559 0.555115 0.114403 -0.032179 -0.999017 -0.030498
0.042441 0.027604 0.440102 -0.194445 0.012779 -0.980830
0.425969 0.198806 0.462100 -0.940302 0.064667 0.334142
0.428653 0.622686 0.070204 0.503510 0.609117 -0.612743
0.294497 0.602144 0.071542 -0.015110 0.365772 0.930582
0.057053 0.866614 0.063989 0.284726 0.024032 0.958308
0.255978 0.555115 0.061147 -0.001073 -0.977265 -0.212017
0.058469 0.427228 0.064691 0.941725 0.051519 0.332414
0.452318 0.615262 0.072400 0.575523 0.102089 0.811389
0.155946 0.627752 0.225558 -0.057824 0.998327 -0.000008
0.429298 0.586102 0.438604 -0.668320 0.046309 -0.742431
0.043754 0.542911 0.475516 -0.091835 0.143717 0.985349
0.029300 0.122543 0.447550 -0.865987 0.028487 -0.499255
0.176543 0.555115 0.401028 0.056896 -0.990132 -0.128069
0.134183 0.555115 0.425463 0.078857 -0.991696 -0.101589
0.441094 0.151326 0.076184 0.063136 0.021523 0.997773
0.379085 0.599866 0.444963 -0.601926 0.460285 -0.652551
0.150519 0.625601 0.446734 -0.036528 0.793797 0.607084
0.193765 0.582667 0.444962 0.023363 -0.353720 -0.935060
0.039660 0.543526 0.441253 -0.100151 0.129467 -0.986513
0.282989 0.585374 0.463032 -0.036856 0.043591 0.998369
0.407867 0.555115 0.232120 -0.078380 -0.967253 -0.241410
0.029466 0.221461 0.468541 -0.756871 0.050094 0.651642
0.455403 0.185407 0.070019 0.830874 0.027497 0.555781
0.048749 0.623703 0.074272 0.360895 0.078407 0.929305
0.459399 0.544647 0.455999 0.988641 0.148028 0.026031
0.158298 0.627752 0.207589 -0.059647 0.998219 -0.000149
0.028927 0.734242 0.049202 -0.766703 0.103141 -0.633663
0.039253 0.507076 0.474265 -0.336597 0.132382 0.932297
0.070424 0.555115 0.236894 0.016423 -0.999247 -0.035146
0.036015 0.112953 0.043588 -0.532484 0.015911 -0.846291
0.037806 0.593206 0.115029 -0.934237 0.312434 -0.172008
0.114172 0.627752 0.288417 -0.071519 0.997439 0.000543
0.363726 0.954526 0.047024 -0.159651 0.074780 0.984337
0.293052 0.589877 0.444963 -0.328058 0.029650 -0.944192
0.230115 0.627752 0.303014 -0.005297 0.999470 0.032128
0.442436 0.603300 0.148947 0.759827 0.630415 -0.158871
0.330251 0.623130 0.449106 0.017162 0.598276 0.801107
0.456927 0.054471 0.066340 0.947580 0.009471 0.319379
0.094090 0.627752 0.314336 -0.078862 0.996885 0.000774
0.427592 0.275838 0.050350 -0.912764 0.043262 -0.406189
0.142786 0.555115 0.069846 -0.005461 -0.422670 0.906267
0.448686 0.745391 0.073904 0.337832 0.115251 0.934124
0.299377 0.557246 0.444963 0.034626 -0.934598 -0.354016
0.441233 0.231402 0.312631 -0.179023 -0.983845 0.000035
0.389892 0.627752 0.260716 0.093039 0.995576 0.013092
0.119436 0.555115 0.307234 0.033981 -0.998212 -0.049165
0.149767 0.627752 0.198871 -0.066321 0.997798 -0.000202
0.442397 0.219779 0.475705 0.080281 0.040080 0.995966
0.055874 0.567087 0.140342 0.290497 -0.950373 -0.111369
0.428630 0.696244 0.069431 -0.782125 0.077412 0.618294
0.037545 0.233132 0.283075 -0.715694 -0.698414 0.000039
0.408289 0.555115 0.220404 -0.083024 -0.969109 -0.232239
0.328076 0.308804 0.043176 0.000031 -0.972148 -0.234367
0.406406 0.604191 0.451039 0.066831 0.093874 0.993338
0.140190 0.627752 0.386115 -0.021940 0.994114 0.106095
0.453820 0.220899 0.071778 0.738295 0.038819 0.673360
0.450261 0.357194 0.073252 0.535905 0.062183 0.841985
0.341626 0.627752 0.432002 -0.004863 0.995703 0.092481
0.357960 0.555115 0.157358 -0.091806 -0.987804 -0.125755
0.430269 0.259503 0.071700 -0.590815 0.028908 0.806289
0.027226 0.784543 0.053309 -0.896214 0.117683 -0.427727
0.349790 0.555115 0.079553 -0.121715 -0.986362 -0.110799
0.305618 0.627752 0.325369 0.002944 0.999490 0.031797
0.052624 0.621859 0.440078 -0.756615 0.627033 0.185372
0.250793 0.598028 0.463032 -0.073877 0.289182 0.954419
0.087458 0.948368 0.055243 0.249069 0.104803 0.962799
0.225137 0.555115 0.329822 0.014510 -0.992322 -0.122827
0.054642 0.603300 0.322767 0.262776 0.211636 -0.941360
0.240570 0.599728 0.053470 0.027953 0.393034 -0.919099
0.438487 0.444988 0.441368 -0.213447 0.105455 -0.971247
0.061713 0.843126 0.062530 0.268897 -0.033897 0.962572
0.270468 0.615644 0.065449 -0.011290 0.101940 -0.994726
0.283679 0.555115 0.267540 -0.027317 -0.990382 -0.135633
0.037798 0.567797 0.375043 -0.926851 -0.371308 -0.055481
0.176364 0.555115 0.141835 -0.051186 -0.996652 -0.063761
0.059454 0.425805 0.454128 0.969542 0.100270 -0.223459
0.030812 0.319886 0.071623 -0.627470 0.052451 0.776872
0.257859 0.903987 0.034762 -0.022413 0.000433 0.999749
0.037504 0.537882 0.074395 -0.305303 0.081155 0.948791
0.435376 0.606364 0.217289 0.996360 0.082556 -0.021225
0.103730 0.569029 0.071532 -0.030776 -0.003153 0.999521
0.051391 0.240296 0.362710 0.999999 0.001203 -0.000024
0.056260 0.902313 0.047340 0.815175 0.144250 -0.560964
0.434996 0.242422 0.321810 -0.869326 0.494239 0.000005
0.091346 0.908635 0.054303 0.234866 0.034002 0.971433
0.228023 0.593883 0.444962 -0.214109 0.106832 -0.970950
0.264332 0.582276 0.053471 0.011250 0.089006 -0.995968
0.246598 0.627752 0.338840 -0.006694 0.998621 0.052062
0.046032 0.327434 0.041969 0.115221 0.038112 -0.992609
0.437287 0.229196 0.042667 -0.383990 0.040094 -0.922466
0.234809 0.627752 0.102433 -0.004382 0.993902 -0.110178
0.371842 0.308805 0.449180 0.000023 -0.807652 0.589660
0.332365 0.555115 0.250970 -0.048452 -0.983343 -0.175181
0.427937 0.298790 0.448786 -0.864228 0.058128 -0.499730
0.368533 0.627752 0.322530 0.092648 0.995544 0.017570
0.169219 0.627752 0.396158 -0.019772 0.994130 0.106373
0.242531 0.555115 0.459740 0.018818 -0.645119 0.763850
0.047688 0.231669 0.253310 0.521483 -0.853262 0.000014
0.042333 0.617423 0.040971 -0.014001 0.068327 -0.997565
0.244422 0.627752 0.109335 -0.002187 0.994283 -0.106750
0.161546 0.555115 0.446257 0.080714 -0.994764 -0.062687
0.384651 0.555115 0.071963 -0.133675 -0.983710 -0.120188
0.441897 0.231399 0.214052 0.008220 -0.999966 0.000031
0.056610 0.555115 0.310322 0.051207 -0.998182 -0.031779
0.426834 0.555115 0.365962 -0.031776 -0.929093 -0.368478
0.445353 0.555115 0.090151 0.695021 -0.704986 -0.141210
0.263033 0.555115 0.076692 -0.100895 -0.991085 -0.087015
0.048499 0.526404 0.473551 0.224869 0.151182 0.962589
0.356290 0.575798 0.071545 0.042977 -0.233571 0.971389
0.265869 0.602940 0.065449 0.017537 0.042212 -0.998955
0.196076 0.627752 0.232327 -0.032573 0.999469 -0.000021
0.195045 0.617179 0.065830 -0.034310 0.187173 -0.981728
0.037798 0.587324 0.386451 -0.996376 -0.044404 -0.072545
0.051796 0.434158 0.443502 0.532330 0.085052 -0.842254
0.062295 0.555115 0.393119 0.084936 -0.995812 -0.033818
0.040459 0.555115 0.166006 -0.873499 -0.485980 -0.028666
0.426346 0.054218 0.463010 -0.892642 0.021873 0.450236
0.157181 0.565644 0.444962 0.075417 -0.894975 -0.439695
0.442721 0.808627 0.040899 0.156879 0.121737 -0.980086
0.057155 0.578531 0.067864 0.844247 0.066833 0.531771
0.196967 0.584923 0.444962 0.016270 -0.269971 -0.962731
0.048036 0.246097 0.240223 0.589344 0.807882 -0.000040
0.053678 0.563179 0.071529 -0.128682 -0.988290 -0.082003
0.391195 0.627752 0.309279 0.104067 0.994404 0.018167
0.228501 0.841541 0.033056 -0.070229 -0.114120 0.990982
0.029576 0.955119 0.047634 -0.635206 0.126088 -0.761981
0.080239 0.555115 0.135920 -0.029091 -0.998885 -0.037173
0.089953 0.555115 0.438922 0.096692 -0.993237 -0.064268
0.141794 0.555115 0.356695 0.049432 -0.997225 -0.055673
0.093634 0.603300 0.456622 -0.253494 0.868219 0.426541
0.077622 0.603300 0.459905 -0.175186 0.683387 0.708726
0.080409 0.555115 0.166440 -0.016150 -0.999169 -0.037435
0.266087 0.597166 0.053471 0.032882 0.382597 -0.923330
0.144154 0.576413 0.053465 -0.036707 -0.197630 -0.979589
0.426125 0.702582 0.063382 -0.956185 0.093690 0.277366
0.445482 0.321445 0.441210 0.162167 0.084809 -0.983112
0.037798 0.574610 0.379408 -0.963601 -0.259976 -0.062334
0.447359 0.597856 0.119555 0.987384 0.156071 -0.026713
0.176568 0.852213 0.029039 -0.140135 -0.060877 -0.988259
0.081161 0.555115 0.164685 -0.017089 -0.999146 -0.037630
0.071123 0.627752 0.272010 -0.100151 0.994972 0.000487
0.234379 0.555115 0.236473 -0.025704 -0.996413 -0.080621
0.025732 0.705722 0.060451 -0.993458 0.111285 0.025616
0.416252 0.626960 0.444647 0.010182 0.972924 0.230900
0.062677 0.886672 0.052815 -0.282349 -0.069935 -0.956759
0.076796 0.555115 0.177666 -0.010447 -0.999279 -0.036514
0.182648 0.875181 0.028166 -0.119240 -0.033237 -0.992309
0.333402 0.604310 0.065451 0.043986 0.045355 -0.998002
0.393135 0.600754 0.071547 0.017562 0.197706 0.980104
0.118228 0.596780 0.463031 -0.095009 0.408674 0.907722
0.406320 0.555115 0.344673 -0.034060 -0.943094 -0.330777
0.088932 0.555115 0.228837 0.008273 -0.999157 -0.040212
0.132478 0.309383 0.440282 0.000025 -0.745822 -0.666145
0.193480 0.588448 0.444962 -0.034089 -0.143263 -0.989097
0.273940 0.555115 0.441566 0.043664 -0.962422 -0.268026
0.246022 0.324373 0.049671 -0.000029 0.911828 0.410572
0.056885 0.071209 0.048850 0.720992 0.015445 -0.692771
0.325607 0.555115 0.257215 -0.043996 -0.983944 -0.172969
0.259910 0.909235 0.025826 0.030621 0.005029 -0.999518
0.281927 0.555115 0.388458 0.020438 -0.972150 -0.233465
0.099377 0.555115 0.400994 0.079000 -0.995897 -0.044130
0.261011 0.555115 0.240108 -0.031004 -0.995612 -0.088291
0.091325 0.615560 0.451046 -0.033334 0.078673 0.996343
0.134954 0.627752 0.364212 -0.055271 0.998313 0.017767
0.429296 0.586392 0.360947 -0.743972 0.035768 -0.667253
0.224407 0.627752 0.409587 -0.015164 0.994545 0.103202
0.438879 0.361544 0.075266 -0.143402 0.045403 0.988623
0.055970 0.307017 0.469968 0.745096 0.087255 0.661225
0.053075 0.158644 0.072481 0.690191 0.018576 0.723389
0.402638 0.608063 0.065453 0.062791 0.053833 -0.996574
0.200841 0.627752 0.259872 -0.024774 0.999693 0.000182
0.126484 0.912275 0.036546 -0.190565 0.015701 -0.981549
0.444233 0.211623 0.041526 0.028079 0.034931 -0.998995
0.276319 0.555115 0.355590 0.009234 -0.979686 -0.200323
0.353367 0.323176 0.450303 -0.000028 0.855301 0.518131
0.049339 0.097598 0.043339 0.249478 0.013912 -0.968281
0.142856 0.555115 0.266867 0.010757 -0.998406 -0.055411
0.076882 0.627752 0.307706 -0.090320 0.995912 0.000751
0.055869 0.568392 0.310869 0.411182 -0.903721 -0.119240
0.210448 0.555115 0.376879 0.037357 -0.988654 -0.145490
0.424932 0.603300 0.071170 0.025922 0.217976 0.975610
0.239431 0.555115 0.437874 0.052671 -0.972349 -0.227515
0.243390 0.915371 0.034073 0.005997 0.012511 0.999904
0.049975 0.168986 0.073765 0.532738 0.020721 0.846027
0.157054 0.555115 0.363340 0.047720 -0.995981 -0.075790
0.456978 0.542059 0.066218 0.891800 0.070349 0.446928
0.240487 0.555115 0.289239 -0.005895 -0.994324 -0.106228
0.042691 0.507690 0.439999 0.066748 0.101036 -0.992641
0.444518 0.086365 0.474827 0.264290 0.018374 0.964268
0.045043 0.556806 0.071529 -0.763181 -0.645150 -0.036546
0.167180 0.882515 0.030388 -0.141223 -0.020598 -0.989763
0.084129 0.583127 0.444962 0.073074 -0.424091 -0.902667
0.060824 0.627752 0.120198 -0.133414 0.991060 -0.000658
0.321155 0.560063 0.053474 -0.001331 -0.255687 -0.966759
0.309883 0.589950 0.071543 0.006425 0.110428 0.993863
0.199440 0.567082 0.444962 0.056692 -0.842172 -0.536220
0.259397 0.627752 0.108697 0.001044 0.993983 -0.109529
0.414015 0.603300 0.457891 -0.342251 0.455422 0.821861
0.361439 0.932213 0.046470 -0.170418 0.043604 0.984407
0.058119 0.627441 0.169506 -0.179005 0.983844 0.002797
0.417040 0.627752 0.271195 0.112237 0.993544 0.016500
0.155029 0.627678 0.072915 -0.023255 0.990877 -0.132746
0.429292 0.582723 0.177143 -0.826718 -0.082732 -0.556501
0.454958 0.070345 0.445276 0.607270 0.022777 -0.794169
0.117742 0.951575 0.038661 -0.183492 0.070553 -0.980486
0.307617 0.587424 0.463032 -0.037636 0.051996 0.997938
0.168210 0.627752 0.438745 -0.023548 0.990660 0.134309
0.329312 0.614513 0.065451 0.013097 0.083935 -0.996385
0.436707 0.049228 0.074367 -0.175493 0.008813 0.984441
0.054676 0.386146 0.071818 0.717906 0.042917 0.694816
0.429290 0.602271 0.120627 -0.607941 0.727265 -0.318582
0.094990 0.567653 0.463031 -0.027477 -0.059197 0.997868
0.115438 0.555115 0.243527 0.007783 -0.998834 -0.047649
0.173527 0.555115 0.142405 -0.050216 -0.996751 -0.062981
0.168489 0.555115 0.165563 -0.039070 -0.997325 -0.061778
0.429293 0.593209 0.228063 -0.749733 0.441173 -0.493220
0.042869 0.246968 0.193064 -0.076479 0.997071 -0.000030
0.429291 0.556940 0.150429 -0.148596 -0.966182 -0.210742
0.396099 0.627752 0.416364 0.026232 0.996070 0.084600
0.040069 0.310036 0.474603 -0.180700 0.084559 0.979896
0.045571 0.332591 0.041778 0.088174 0.038366 -0.995366
0.063889 0.580516 0.444962 0.092694 -0.550377 -0.829755
0.187060 0.555115 0.320842 0.022295 -0.997025 -0.073790
0.285587 0.592158 0.463032 -0.053266 0.154568 0.986545
0.224192 0.555115 0.067503 0.016730 -0.736294 0.676455
0.441261 0.246964 0.080779 -0.292486 0.956270 -0.000022
0.428054 0.619003 0.464878 -0.865273 0.449637 0.221651
0.215351 0.627752 0.433673 -0.018193 0.992503 0.120857
0.128423 0.555115 0.075324 -0.067109 -0.996493 -0.049985
0.227247 0.555115 0.417178 0.048204 -0.979179 -0.197191
0.245136 0.555115 0.281786 -0.010180 -0.994401 -0.105184
0.429293 0.599541 0.229624 -0.667577 0.615654 -0.418702
0.435376 0.596509 0.201924 0.999489 0.031801 0.003152
0.124572 0.627752 0.223567 -0.076953 0.997035 0.000029
0.167985 0.627752 0.090437 -0.019031 0.993931 -0.108345
0.226483 0.938843 0.034801 0.046660 0.039631 0.998124
0.037801 0.555296 0.289488 -0.882249 -0.469454 -0.035349
0.055875 0.571707 0.101878 0.420893 -0.894712 -0.149462
0.435468 0.109525 0.043421 -0.522025 0.021120 -0.852669
0.204090 0.564634 0.463031 -0.013842 -0.235291 0.971826
0.449144 0.465166 0.472911 0.335481 0.098316 0.936903
0.391287 0.555115 0.286265 -0.052435 -0.962003 -0.267958
0.424380 0.559653 0.458261 -0.990023 0.111026 -0.086763
0.070681 0.555115 0.431434 0.099021 -0.994383 -0.037369
0.123493 0.555115 0.325013 0.040544 -0.997906 -0.050399
0.402527 0.603300 0.055136 0.083261 0.754852 -0.650589
0.193670 0.610116 0.451044 -0.005948 0.072231 0.997370
0.055870 0.556084 0.285079 0.062255 -0.997381 -0.036821
0.049782 0.595663 0.289967 -0.999076 0.035648 -0.024006
0.050536 0.555115 0.430317 -0.175590 -0.983622 -0.040703
0.340302 0.555115 0.449171 0.027603 -0.997326 -0.067663
0.271617 0.896716 0.035418 -0.048025 -0.007380 0.998819
0.429292 0.561900 0.204950 -0.230494 -0.922925 -0.308355
0.445031 0.027622 0.075418 0.328131 0.008329 0.944596
0.273860 0.594086 0.463032 -0.060209 0.199446 0.978057
0.275449 0.627752 0.095843 0.004302 0.992622 -0.121170
0.271184 0.862589 0.026362 0.024416 -0.048820 -0.998509
0.038537 0.246960 0.237535 -0.509297 0.860591 -0.000015
0.161104 0.627752 0.142909 -0.019654 0.997368 -0.069798
0.405827 0.627752 0.097450 0.083858 0.996109 -0.027101
0.279626 0.588193 0.053472 0.024887 0.228901 -0.973131
0.246313 0.555115 0.395649 0.034009 -0.979120 -0.200420
0.299855 0.603300 0.453520 -0.601561 0.769651 0.213921
0.317258 0.595255 0.463032 -0.054863 0.172474 0.983485
0.088007 0.555115 0.274776 0.028111 -0.998794 -0.040250
0.187362 0.555115 0.105548 -0.069398 -0.995371 -0.066482
0.287556 0.934911 0.027142 0.095766 0.037385 -0.994702
0.343297 0.627752 0.435914 -0.005028 0.995496 0.094673
0.435374 0.600511 0.116693 0.996351 0.071370 -0.046805
0.428115 0.765759 0.049090 -0.786999 0.124704 -0.604220
0.117396 0.627141 0.444394 -0.027171 0.963103 0.267756
0.112640 0.594223 0.065444 -0.022705 0.022416 -0.999491
0.160348 0.961139 0.034349 0.020279 0.216479 -0.976077
0.139236 0.555115 0.140741 -0.042139 -0.997679 -0.053493
0.033963 0.628082 0.044438 -0.471981 0.080293 -0.877945
0.235813 0.627752 0.184853 -0.002791 0.998675 -0.051384
0.447677 0.226402 0.042952 0.249474 0.037429 -0.967658
0.458889 0.322367 0.460872 0.976980 0.087652 0.194490
0.241606 0.555115 0.159386 -0.060447 -0.994802 -0.081952
0.031546 0.383750 0.444613 -0.642155 0.119187 -0.757252
0.376221 0.627752 0.315423 0.095976 0.995230 0.017506
0.321538 0.313312 0.438017 0.000018 -0.501486 -0.865166
0.055866 0.601254 0.456902 -0.141672 0.831703 0.536841
0.072257 0.603838 0.065443 -0.059667 0.079308 -0.995063
0.334647 0.952675 0.032783 0.189493 0.069865 -0.979393
0.084767 0.627752 0.312213 -0.084808 0.996397 0.000773
0.199349 0.603300 0.446122 -0.307891 0.446009 -0.840404
0.056942 0.245797 0.448062 0.772384 0.048460 -0.633304
0.460111 0.156824 0.457921 0.995573 0.043952 -0.083085
0.450605 0.855268 0.044165 0.619074 0.122109 -0.775782
0.025058 0.363387 0.058823 -0.997120 0.056760 0.050298
0.446574 0.790679 0.074779 0.190306 0.113600 0.975130
0.300708 0.627752 0.402198 -0.006548 0.996623 0.081854
0.197855 0.555115 0.201781 -0.031156 -0.997046 -0.070203
0.114250 0.555115 0.370280 0.062195 -0.996905 -0.048092
0.453270 0.267570 0.045268 0.576093 0.038384 -0.816483
0.078442 0.563156 0.444962 0.106321 -0.959481 -0.260944
0.064938 0.627752 0.251366 -0.107530 0.994202 0.000339
0.030134 0.782843 0.071079 -0.765784 0.124964 0.630840
0.037799 0.595305 0.368114 -0.990991 0.106127 -0.081693
0.415861 0.627752 0.257829 0.108695 0.993961 0.015034
0.449350 0.809693 0.073629 0.358483 0.125464 0.925067
0.068127 0.912708 0.060521 0.271406 0.073853 0.959627
0.307779 0.923852 0.028923 0.125182 0.024534 -0.991830
0.439744 0.164953 0.041650 -0.260626 0.028911 -0.965007
0.391883 0.586384 0.444963 -0.564640 0.008538 -0.825293
0.193758 0.627752 0.232120 -0.033999 0.999422 -0.000019
0.072743 0.595573 0.065443 -0.041563 0.035240 -0.998514
0.058450 0.592417 0.052628 0.930208 0.094350 -0.354698
0.447361 0.600556 0.187501 0.959923 0.276827 -0.043759
0.027116 0.504608 0.063793 -0.945426 0.083221 0.315031
0.361654 0.310286 0.450464 0.000018 -0.654257 0.756272
0.116082 0.627752 0.099055 -0.030102 0.995105 -0.094123
0.045138 0.028169 0.075768 0.285442 0.005233 0.958382
0.343096 0.868534 0.033997 0.151998 -0.044496 -0.987379
0.286817 0.555115 0.059117 0.002438 -0.837465 -0.546486
0.152133 0.580618 0.444962 0.047303 -0.464372 -0.884376
0.303958 0.562737 0.463032 -0.012131 -0.396796 0.917826
0.445531 0.379935 0.441230 0.189905 0.099217 -0.976776
0.146807 0.627752 0.430854 -0.025103 0.990691 0.133796
0.055866 0.581965 0.451806 0.033349 -0.841857 0.538669
0.038395 0.975000 0.049956 -0.130243 0.939211 -0.317677
0.446075 0.549619 0.441456 0.294045 0.148172 -0.944237
0.448350 0.536872 0.442398 0.429297 0.150188 -0.890588
0.446107 0.060456 0.474169 0.370447 0.013719 0.928752
0.193081 0.627752 0.407519 -0.018260 0.993915 0.108627
0.049783 0.600653 0.170198 -0.996099 0.055682 -0.068459
0.049782 0.594831 0.392611 -0.999182 0.032960 0.023425
0.295043 0.555115 0.326119 -0.007961 -0.980470 -0.196507
0.426352 0.207232 0.463025 -0.920977 0.067825 0.383668
0.055870 0.563866 0.307827 0.274192 -0.957774 -0.086533
0.117923 0.953465 0.047872 0.217787 0.088694 0.971958
0.026833 0.187397 0.462185 -0.944740 0.040568 0.325299
0.424238 0.497800 0.457917 -0.992412 0.097657 -0.074708
0.145749 0.555115 0.333458 0.038498 -0.997652 -0.056637
0.447752 0.609299 0.042983 0.384581 0.092522 -0.918443
0.039292 0.555115 0.331314 -0.798999 -0.599930 -0.041032
0.368907 0.591227 0.444963 -0.553845 0.187111 -0.811323
0.059414 0.865850 0.063250 0.280646 0.011017 0.959748
0.260047 0.599487 0.463032 -0.075519 0.302886 0.950030
0.303092 0.563044 0.463032 -0.012475 -0.390367 0.920575
0.037339 0.553560 0.473472 -0.470540 0.142046 0.870870
0.084495 0.555115 0.357368 0.064196 -0.997145 -0.039766
0.458583 0.377792 0.054930 0.964387 0.046640 -0.260349
0.434125 0.232472 0.443173 -0.549528 0.046810 -0.834163
0.369625 0.603300 0.056027 0.071712 0.789981 -0.608922
0.297287 0.607576 0.065450 0.016137 0.053520 -0.998436
0.045232 0.916314 0.041638 0.242819 0.108102 -0.964030
0.445031 0.231396 0.149311 0.445995 -0.895036 0.000017
0.422301 0.627752 0.370902 0.136396 0.990283 0.027119
0.455428 0.434487 0.047316 0.756281 0.056738 -0.651782
0.278928 0.555115 0.153973 -0.072308 -0.993111 -0.092210
0.457216 0.650841 0.065642 0.892175 0.086245 0.443379
0.128918 0.603300 0.455806 -0.350108 0.870221 0.346611
0.049782 0.594387 0.231785 -0.997995 0.030106 -0.055675
0.330387 0.603300 0.446539 -0.585079 0.580948 -0.565847
0.063936 0.929632 0.052421 -0.268629 0.012323 -0.963165
0.434189 0.101570 0.472489 -0.363148 0.024168 0.931418
0.211208 0.927223 0.026494 -0.044738 0.028404 -0.998595
0.259539 0.946835 0.034842 -0.001274 0.050067 0.998745
0.058988 0.208371 0.453001 0.924545 0.042530 -0.378692
0.429290 0.564759 0.096500 -0.334812 -0.908761 -0.249106
0.453664 0.279734 0.444600 0.620161 0.079478 -0.780438
0.055868 0.571985 0.380674 0.342773 -0.874558 -0.343008
0.025125 0.452666 0.058381 -0.997498 0.070069 -0.009437
0.041139 0.235131 0.041466 -0.200623 0.028190 -0.979263
0.055869 0.563743 0.311006 0.272107 -0.958447 -0.085658
0.298848 0.555115 0.164446 -0.072963 -0.992526 -0.097816
0.444595 0.541428 0.474795 0.039775 0.104470 0.993732
0.145306 0.316000 0.436462 0.000001 0.042411 -0.999100
0.247634 0.555115 0.360035 0.019616 -0.984813 -0.172505
0.172031 0.555115 0.458105 0.031819 -0.665805 0.745447
0.102056 0.597516 0.463031 -0.099292 0.436172 0.894369
0.411759 0.603300 0.461674 -0.113767 0.257611 0.959528
0.138629 0.555115 0.244678 0.002351 -0.998533 -0.054088
0.326636 0.599567 0.451041 0.019573 0.041029 0.998966
0.027292 0.359830 0.452396 -0.940833 0.069431 -0.331681
0.165214 0.627752 0.403066 -0.020788 0.993519 0.111746
0.126996 0.627752 0.289980 -0.063570 0.997977 0.000533
0.039355 0.443704 0.441380 -0.173304 0.111878 -0.978493
0.047074 0.231405 0.417182 0.268577 -0.963258 0.000023
0.097748 0.555115 0.455275 0.056130 -0.755781 0.652415
0.205663 0.555115 0.147397 -0.056330 -0.995819 -0.071907
0.060892 0.597681 0.444962 0.034422 0.079951 -0.996204
0.339070 0.586276 0.071544 0.021018 0.002094 0.999777
0.322960 0.865364 0.031104 0.115667 -0.046796 -0.992185
0.235808 0.949230 0.025322 0.010891 0.051825 -0.998597
0.416334 0.605757 0.451039 0.075579 0.106888 0.991394
0.424994 0.316544 0.060651 -0.976862 0.042005 0.209707
0.028714 0.576025 0.049715 -0.824679 0.083118 -0.559460
0.293606 0.843224 0.036465 -0.117566 -0.072482 0.990416
0.267785 0.627752 0.411435 -0.010790 0.995417 0.095023
0.026252 0.562076 0.454906 -0.955517 0.115613 -0.271333
0.037056 0.592795 0.473355 -0.506636 0.151160 0.848806
0.428463 0.888772 0.069027 -0.821878 0.102949 0.560284
0.052833 0.555115 0.224813 -0.141305 -0.989332 -0.035436
0.194974 0.627752 0.105694 -0.012946 0.994734 -0.101665
0.446720 0.602992 0.473915 0.129572 0.121753 0.984067
0.447854 0.233555 0.198489 0.762122 -0.647433 0.000002
0.434506 0.241577 0.063056 -0.995508 0.094680 0.000020
0.122740 0.562616 0.053463 -0.062579 -0.495085 -0.866588
0.043889 0.276045 0.440226 0.017251 0.057541 -0.998194
0.361482 0.893371 0.037227 0.198031 -0.004498 -0.980186
0.055875 0.566901 0.104089 0.266740 -0.957452 -0.110164
0.459566 0.614456 0.059971 0.992576 0.067990 0.100847
0.229124 0.555115 0.275073 -0.007969 -0.996584 -0.082195
0.248921 0.627752 0.345747 -0.007052 0.998401 0.056089
0.423147 0.555115 0.123202 -0.124279 -0.977899 -0.168134
0.405284 0.627752 0.371252 0.125874 0.991713 0.025703
0.125909 0.600752 0.463031 -0.101632 0.459631 0.882276
0.149021 0.555115 0.449177 0.086765 -0.983780 0.157001
0.421035 0.570200 0.444963 -0.284650 -0.670424 -0.685205
0.428514 0.225637 0.447395 -0.839277 0.043333 -0.541974
0.429298 0.599565 0.461020 -0.142650 0.196856 0.969999
0.047674 0.246714 0.114602 0.389286 0.921117 -0.000038
0.179997 0.555115 0.452255 0.071733 -0.936603 0.342972
0.214805 0.627752 0.187877 -0.007286 0.998917 -0.045951
0.454702 0.647874 0.071413 0.680428 0.105172 0.725229
0.049812 0.243033 0.386677 0.936977 0.349392 -0.000034
0.168886 0.568117 0.444962 0.067696 -0.841922 -0.535336
0.100323 0.555115 0.401530 0.078961 -0.995852 -0.045218
0.234512 0.847603 0.034419 -0.016772 -0.065937 0.997683
0.432825 0.603300 0.385415 -0.455679 0.741631 -0.492281
0.447942 0.136230 0.442229 0.236712 0.038846 -0.970803
0.333280 0.627752 0.297232 0.065163 0.997803 0.011936
0.437378 0.231806 0.061471 -0.349381 -0.936981 0.000037
0.347849 0.874993 0.034679 0.164446 -0.033861 -0.985805
0.427803 0.283729 0.466530 -0.833122 0.091426 0.545481
0.150902 0.560030 0.444962 0.081110 -0.961916 -0.261034
0.434206 0.241054 0.412959 -0.909410 0.415901 0.000008
0.241361 0.323523 0.440131 -0.000023 0.806750 -0.590892
0.056756 0.247912 0.468070 0.838080 0.069510 0.541102
0.269875 0.627752 0.242977 0.013839 0.999904 0.000901
0.032929 0.124505 0.072500 -0.469554 0.021080 0.882652
0.448324 0.244010 0.389098 0.880574 0.473909 -0.000034
0.043478 0.603300 0.124420 -0.642610 0.556956 -0.526168
0.059021 0.313255 0.462605 0.965087 0.083235 0.248353
0.071035 0.592471 0.463031 -0.094267 0.391213 0.915459
0.132229 0.555115 0.086265 -0.063455 -0.996674 -0.051123
0.424941 0.562329 0.459616 -0.992529 0.121787 -0.007391
0.405269 0.555115 0.238399 -0.075182 -0.966913 -0.243776
0.059388 0.828966 0.062474 0.945619 0.097784 0.310232
0.044087 0.246966 0.141010 0.010529 0.999945 -0.000032
0.060211 0.612785 0.060487 0.987943 0.073374 0.136329
0.029585 0.331496 0.069753 -0.727308 0.055916 0.684030
0.324417 0.627752 0.242902 0.048136 0.998825 0.005611
0.274337 0.599109 0.071541 -0.017480 0.338450 0.940822
0.032754 0.539132 0.471572 -0.699720 0.125639 0.703283
0.059641 0.551951 0.454580 0.980980 0.134780 -0.139684
0.059977 0.321850 0.439167 -0.000024 0.805032 -0.593231
0.434940 0.555115 0.283792 0.240588 -0.913706 -0.327503
0.046846 0.555115 0.325024 -0.425820 -0.903764 -0.043460
0.059237 0.939677 0.054529 0.983951 0.130661 -0.121522
0.349056 0.862762 0.034853 0.158797 -0.050468 -0.986021
0.157123 0.594893 0.071535 -0.050371 0.430460 0.901203
0.435380 0.600795 0.404123 0.995756 0.042157 0.081811
0.304388 0.867390 0.028436 0.085042 -0.042942 -0.995452
0.229195 0.627752 0.240197 -0.003294 0.999937 -0.010726
0.193674 0.935427 0.027329 -0.070838 0.038509 -0.996744
0.429904 0.882579 0.045726 -0.597159 0.139984 -0.789813
0.087910 0.627752 0.231585 -0.097397 0.995246 0.000150
0.242448 0.555115 0.313639 0.003008 -0.991707 -0.128484
0.360505 0.555115 0.313355 -0.032671 -0.965836 -0.257088
0.181046 0.571767 0.444962 0.056140 -0.742279 -0.667735
0.235396 0.569906 0.463031 -0.019647 -0.178448 0.983753
0.213718 0.555115 0.229760 -0.023271 -0.996925 -0.074828
0.398676 0.849515 0.055481 -0.258462 -0.096821 0.961157
0.052875 0.724764 0.072564 0.567963 0.080957 0.819063
0.435381 0.606932 0.429969 0.995695 0.058187 0.072144
0.069501 0.627752 0.132909 -0.126006 0.992029 -0.000575
0.368931 0.322826 0.450505 -0.000028 0.840676 0.541538
0.241853 0.876852 0.034069 -0.012857 -0.032095 0.999402
0.367846 0.602162 0.071546 0.007986 0.260393 0.965470
0.153807 0.555115 0.405120 0.065146 -0.992182 -0.106442
0.092692 0.844896 0.044723 -0.253376 -0.098827 -0.962306
0.390242 0.555115 0.461409 0.006564 -0.699929 0.714183
0.070610 0.555115 0.124672 -0.031409 -0.998913 -0.034439
0.291905 0.627752 0.283708 0.036265 0.999318 0.006968
0.152659 0.555115 0.178475 -0.029510 -0.997909 -0.057498
0.328580 0.627752 0.193501 0.040353 0.999185 0.000925
0.298519 0.555115 0.301434 -0.018648 -0.983505 -0.179915
0.365135 0.627752 0.205114 0.065787 0.997820 0.005271
0.447362 0.555697 0.218044 0.874442 -0.477712 -0.084510
0.452326 0.936998 0.044877 0.722398 0.127269 -0.679664
0.037469 0.137659 0.473526 -0.241558 0.040048 0.969560
0.447077 0.246165 0.279462 0.619927 0.784659 -0.000038
0.229753 0.555115 0.197895 -0.041001 -0.996030 -0.079015
0.034008 0.446443 0.072947 -0.488766 0.070547 0.869558
0.154389 0.568465 0.444962 0.073329 -0.844807 -0.530022
0.080863 0.875253 0.047585 -0.256429 -0.054375 -0.965032
0.288534 0.555115 0.184687 -0.061715 -0.993546 -0.095172
0.432187 0.798976 0.044780 -0.504303 0.129271 -0.853796
0.148670 0.922095 0.042153 0.162338 0.028646 0.986319
0.083719 0.565341 0.463031 -0.023666 -0.086188 0.995998
0.429296 0.585933 0.366475 -0.735283 0.015494 -0.677583
0.214427 0.617719 0.450519 0.011558 0.210108 0.977610
0.125533 0.555115 0.451062 0.082236 -0.946748 0.311297
0.025639 0.191827 0.456387 -0.999332 0.036277 -0.004386
0.449888 0.152075 0.073407 0.570326 0.029073 0.820904
0.053312 0.147621 0.444130 0.510599 0.028395 -0.859350
0.418045 0.555115 0.234342 -0.080531 -0.963815 -0.254115
0.299875 0.555115 0.098620 -0.101052 -0.990104 -0.097374
0.209606 0.555115 0.168617 -0.048313 -0.996148 -0.073182
0.284930 0.324373 0.042738 -0.000027 0.904628 -0.426202
0.095038 0.627752 0.339519 -0.073775 0.997274 0.000965
0.042969 0.251528 0.475804 0.031153 0.068163 0.997188
0.425274 0.642112 0.061326 -0.982366 0.089080 0.164381
0.050270 0.735020 0.043725 0.480789 0.101911 -0.870894
0.410653 0.555115 0.443652 0.003124 -0.911470 -0.411355
0.094486 0.312595 0.052725 0.000018 -0.648404 0.761297
0.270383 0.962520 0.026324 0.080832 0.068849 -0.994347
0.064105 0.566054 0.463031 -0.029288 -0.054494 0.998084
0.418274 0.910789 0.051500 0.284183 0.064471 -0.956600
0.071493 0.627752 0.219081 -0.109412 0.993997 0.000081
0.220390 0.939475 0.026057 -0.021782 0.041807 -0.998888
0.080238 0.627752 0.324801 -0.085252 0.996359 0.000876
0.444515 0.623461 0.454165 0.138271 0.985009 -0.103142
0.122196 0.555115 0.255687 0.011253 -0.998706 -0.049603
0.206810 0.555115 0.279427 -0.000234 -0.997311 -0.073281
0.305906 0.625116 0.069025 0.013580 0.708916 -0.705162
0.052975 0.130901 0.072522 0.690874 0.015486 0.722809
0.037630 0.846568 0.074447 -0.381518 0.134545 0.914517
0.424502 0.657467 0.057811 -0.993927 0.096096 -0.053609
0.037802 0.569670 0.239161 -0.983771 -0.174079 -0.043482
0.435647 0.556742 0.473093 -0.471913 0.139619 0.870520
0.444281 0.555115 0.320659 0.833154 -0.534202 -0.143118
0.115014 0.587320 0.444962 0.043883 -0.234219 -0.971193
0.311536 0.627752 0.094940 0.012095 0.991779 -0.127392
0.058728 0.600280 0.463311 0.894734 0.168652 0.413531
0.040158 0.603300 0.378291 -0.934180 0.247835 -0.256681
0.142684 0.627752 0.243570 -0.062524 0.998043 0.000152
0.429290 0.602875 0.125368 -0.602514 0.732395 -0.317134
0.037510 0.245179 0.385574 -0.555182 0.831729 -0.000013
0.376560 0.317547 0.453552 -0.000011 0.277959 0.960593
0.039212 0.548196 0.042264 -0.211594 0.066203 -0.975113
0.379213 0.878421 0.041517 0.214109 -0.022472 -0.976551
0.091810 0.555115 0.386509 0.074746 -0.996320 -0.041954
0.042411 0.246975 0.424940 0.126260 0.991997 -0.000034
0.447363 0.555849 0.261146 0.902458 -0.424473 -0.073426
0.058435 0.051014 0.064774 0.975884 0.008776 0.218115
0.059088 0.401523 0.453244 0.952973 0.091218 -0.289002
0.388836 0.948707 0.053100 -0.200435 0.066702 0.977434
0.345468 0.867577 0.043444 -0.185860 -0.045809 0.981508
0.056618 0.555115 0.441156 0.106637 -0.993767 -0.032503
0.239045 0.627752 0.301742 -0.004253 0.999560 0.029360
0.342238 0.574291 0.071544 0.040296 -0.242529 0.969307
0.429293 0.594741 0.221247 -0.728600 0.499392 -0.468774
0.429298 0.585245 0.426010 -0.672027 0.002006 -0.740524
0.435380 0.599934 0.408689 0.995415 0.039862 0.086952
0.266109 0.555115 0.385541 0.024072 -0.976581 -0.213800
0.399223 0.627752 0.134646 0.072365 0.997378 0.001022
0.299621 0.899155 0.036858 -0.093288 -0.005093 0.995626
0.075436 0.318465 0.038135 -0.000011 0.417796 -0.908541
0.359886 0.627752 0.087497 0.022420 0.989880 -0.140124
0.037603 0.583169 0.074436 -0.310876 0.087908 0.946377
0.026880 0.180617 0.453390 -0.982048 0.036934 -0.184978
0.207207 0.308801 0.444099 0.000031 -0.987460 -0.157867
0.186130 0.555115 0.166349 -0.043258 -0.996837 -0.066666
0.101520 0.590158 0.444962 0.040847 -0.138833 -0.989473
0.425041 0.183980 0.459858 -0.976895 0.052200 0.207248
0.405107 0.555115 0.146736 -0.110079 -0.979610 -0.168071
0.260218 0.884235 0.034875 -0.036921 -0.022219 0.999071
0.241553 0.915835 0.025049 0.003007 0.013024 -0.999911
0.456596 0.253713 0.067140 0.905750 0.031612 0.422631
0.447363 0.556581 0.269169 0.912672 -0.402641 -0.070069
0.246287 0.627752 0.285124 -0.002050 0.999855 0.016898
0.059059 0.170571 0.054098 0.921178 0.031731 -0.387846
0.202687 0.555115 0.396390 0.047348 -0.987086 -0.153035
0.025162 0.397007 0.058291 -0.998067 0.061873 0.005793
0.169172 0.627752 0.411369 -0.021091 0.992990 0.116304
0.030604 0.323307 0.445003 -0.706936 0.100268 -0.700134
0.075593 0.586481 0.444962 0.065623 -0.293632 -0.953664
0.145489 0.591897 0.463031 -0.079282 0.302197 0.949943
0.119520 0.627752 0.193718 -0.085333 0.996352 -0.000192
0.428671 0.342545 0.447015 -0.799971 0.065681 -0.596433
0.249024 0.555115 0.342006 0.012126 -0.987182 -0.159139
0.456230 0.620361 0.049251 0.865469 0.079544 -0.494607
0.355440 0.879400 0.035770 0.180551 -0.025022 -0.983247
0.059698 0.081148 0.055642 0.946462 0.016977 -0.322368
0.424847 0.314016 0.437613 0.000018 -0.516376 -0.856362
0.130718 0.566913 0.053464 -0.054782 -0.406106 -0.912182
0.284834 0.555115 0.394339 0.021866 -0.970170 -0.241438
0.434343 0.619094 0.330921 0.956737 0.290680 0.012594
0.050000 0.029068 0.442758 0.267955 0.009261 -0.963387
0.447361 0.602247 0.216221 0.940342 0.336296 -0.051587
0.301492 0.308803 0.045765 0.000031 -0.999509 0.031341
0.413661 0.603300 0.056900 0.096856 0.828001 -0.552298
0.416527 0.555115 0.157267 -0.109550 -0.975831 -0.189083
0.327537 0.842482 0.031762 0.109457 -0.074485 -0.991197
0.181240 0.555115 0.213782 -0.021768 -0.997603 -0.065688
0.435275 0.555115 0.290937 0.262133 -0.905519 -0.333648
0.424475 0.555115 0.341391 -0.040682 -0.937013 -0.346917
0.264759 0.626862 0.071677 -0.011294 0.950307 -0.311108
0.027317 0.510873 0.463353 -0.966942 0.105530 0.232133
0.413183 0.568335 0.444963 -0.213712 -0.722394 -0.657628
0.346976 0.627752 0.392095 -0.000837 0.997871 0.065218
0.460037 0.139284 0.058834 0.992943 0.015282 -0.117605
0.360181 0.940120 0.046166 -0.163552 0.054667 0.985019
0.149766 0.555115 0.129948 -0.049423 -0.997189 -0.056315
0.028068 0.472486 0.051275 -0.894301 0.071690 -0.441686
0.446154 0.455287 0.074953 0.272963 0.070987 0.959402
0.058549 0.656949 0.052868 0.941772 0.101768 -0.320482
0.441957 0.526877 0.040733 0.007547 0.081128 -0.996675
0.054465 0.328097 0.045463 0.595224 0.050657 -0.801961
0.045879 0.246975 0.409506 0.511899 0.859045 -0.000039
0.292831 0.555115 0.260269 -0.032894 -0.989655 -0.139645
0.080072 0.584132 0.444962 0.071724 -0.386175 -0.919633
0.331447 0.594566 0.463032 -0.050520 0.145975 0.987997
0.323433 0.563975 0.071543 0.048169 -0.415441 0.908344
0.110245 0.879088 0.040475 -0.225866 -0.030704 -0.973674
0.048472 0.173620 0.442125 0.247348 0.037402 -0.968205
0.227140 0.627752 0.434865 -0.017065 0.992737 0.119089
0.055866 0.597234 0.450061 -0.017189 0.406659 -0.913418
0.055868 0.564218 0.372753 0.314019 -0.945265 -0.088694
0.452276 0.411395 0.444025 0.600649 0.116431 -0.790989
0.455348 0.539729 0.446217 0.804001 0.150284 -0.575323
0.031955 0.607765 0.471241 -0.760378 0.136674 0.634938
