0.077847 0.610568 0.203183 0.009671 -0.999178 -0.039379
0.251693 0.647106 0.060108 0.047138 0.029319 -0.998458
0.051882 0.118542 0.390157 0.635543 0.019953 -0.771808
0.304377 0.648690 0.065398 0.005703 0.231447 0.972831
0.390085 0.508598 0.386298 0.238785 0.119246 -0.963723
0.037418 0.454705 0.414951 -0.295073 0.108305 0.949316
0.276789 0.632325 0.065396 0.022095 -0.082886 0.996314
0.028292 0.165561 0.046287 -0.896474 0.025812 -0.442343
0.379270 0.669406 0.232792 0.831369 0.555603 0.011422
0.113510 0.786694 0.042949 0.179274 -0.064111 0.981708
0.372401 0.673612 0.242023 0.118174 0.992837 0.017598
0.148617 0.620425 0.389499 0.070432 -0.874877 -0.479196
0.041177 0.652389 0.219562 -0.721448 0.423229 -0.548078
0.316554 0.645185 0.060110 0.089501 0.024338 -0.995689
0.138728 0.274589 0.395867 0.000013 -0.491057 0.871127
0.352817 0.610568 0.371348 -0.002073 -0.921351 -0.388727
0.203264 0.807172 0.025504 -0.007174 0.059270 -0.998216
0.398244 0.606983 0.389938 0.787600 0.150888 -0.597427
0.154468 0.500563 0.039546 0.000028 -0.835847 -0.548962
0.027262 0.716704 0.048774 -0.882840 0.104385 -0.457928
0.223198 0.610568 0.363564 0.039521 -0.973767 -0.224089
0.030865 0.405829 0.412237 -0.678200 0.084722 0.729977
0.118768 0.610568 0.159433 -0.023881 -0.998358 -0.052076
0.175720 0.613518 0.405181 -0.007230 -0.338052 0.941100
0.375429 0.627095 0.389499 -0.418696 -0.526765 -0.739738
0.325876 0.923133 0.037749 0.225640 0.090025 -0.970042
0.385572 0.429779 0.385678 -0.107445 0.094893 -0.989672
0.381178 0.652766 0.108910 0.994182 0.093102 -0.054173
0.068607 0.673612 0.197963 -0.106248 0.994340 0.000115
0.105886 0.270545 0.387233 0.000028 -0.887299 -0.461194
0.292692 0.610568 0.105930 -0.101329 -0.989103 -0.106810
0.260514 0.274684 0.383343 0.000016 -0.448492 -0.893787
0.277088 0.610568 0.371378 0.024228 -0.954112 -0.298469
0.032754 0.153192 0.066588 -0.420861 0.024183 0.906802
0.391762 0.116608 0.414323 0.427146 0.023723 0.903871
0.123923 0.916823 0.033192 -0.159331 0.051419 -0.985885
0.394986 0.066372 0.388329 0.409306 0.018189 -0.912216
0.051799 0.347151 0.043587 0.675606 0.055284 -0.735187
0.366641 0.610568 0.184518 -0.090554 -0.968063 -0.233783
0.171942 0.673612 0.120283 -0.012612 0.996652 -0.080779
0.401307 0.087355 0.397335 0.933921 0.025052 -0.356601
0.051278 0.589580 0.065419 0.706743 0.062981 0.704661
0.386957 0.832959 0.069762 -0.104915 0.095335 0.989901
0.185693 0.822649 0.026341 -0.019454 0.153707 -0.987925
0.302525 0.610568 0.211868 -0.056307 -0.982078 -0.179867
0.349542 0.610568 0.353642 -0.008863 -0.929264 -0.369311
0.039805 0.225188 0.069509 0.057964 0.032887 0.997777
0.202682 0.512656 0.394354 -0.000024 0.727759 0.685833
0.391065 0.515701 0.386704 0.311166 0.124661 -0.942144
0.371869 0.753005 0.053168 -0.989147 0.106968 -0.100730
0.381230 0.039330 0.067390 -0.252979 0.006426 0.967450
0.307359 0.772521 0.036823 0.004711 -0.595472 -0.803362
0.261341 0.610568 0.401123 0.027979 -0.772764 0.634076
0.095862 0.500561 0.390573 0.000032 -0.999803 -0.019865
0.030324 0.958671 0.065581 -0.753665 0.148985 0.640150
0.291516 0.914043 0.039338 -0.141486 0.041328 0.989077
0.387823 0.514082 0.327056 0.254445 0.967087 -0.000034
0.256765 0.284063 0.040628 -0.000026 0.913999 -0.405718
0.358902 0.673612 0.182880 0.094139 0.995516 0.009304
0.387096 0.525657 0.069780 0.004830 0.062164 0.998054
0.260504 0.270549 0.390422 0.000030 -0.986021 0.166622
0.134491 0.610568 0.064434 0.000032 -0.396330 0.918108
0.083587 0.281857 0.038087 -0.000021 0.777713 -0.628620
0.337903 0.897410 0.040660 0.223362 -0.012172 -0.974660
0.099063 0.673612 0.162036 -0.092762 0.995688 -0.000260
0.374264 0.390891 0.047387 -0.911295 0.057813 -0.407676
0.349246 0.652389 0.401139 -0.310029 0.446804 0.839195
0.325388 0.673612 0.368247 -0.000786 0.996908 0.078570
0.033005 0.342306 0.413123 -0.526672 0.077890 0.846492
0.320284 0.646418 0.389499 -0.572901 0.360607 -0.736035
0.053981 0.164432 0.395225 0.877327 0.030556 -0.478920
0.256011 0.904608 0.034850 -0.081636 0.003297 0.996657
0.033603 0.371272 0.387986 -0.483657 0.101745 -0.869324
0.138729 0.284060 0.041961 -0.000029 0.996775 -0.080249
0.044998 0.384029 0.068020 0.376749 0.043208 0.925307
0.281905 0.610568 0.364375 0.019395 -0.954395 -0.297916
0.049258 0.259964 0.388646 0.526140 0.045671 -0.849171
0.374078 0.117323 0.060553 -0.827284 0.014004 0.561610
0.029125 0.644420 0.044275 -0.708127 0.083912 -0.701081
0.080076 0.774835 0.051040 0.219140 -0.120666 0.968203
0.392306 0.272934 0.092808 0.865704 -0.500556 -0.000005
0.382010 0.459946 0.040677 -0.372306 0.073732 -0.925177
0.381181 0.652309 0.257397 0.998562 0.049033 0.021682
0.365795 0.610568 0.387105 0.000489 -0.908847 -0.417129
0.380835 0.259009 0.067226 -0.349809 0.031385 0.936295
0.053373 0.492009 0.061080 0.891222 0.056579 0.450025
0.372499 0.270553 0.045635 0.000024 -0.852823 0.522200
0.379832 0.297316 0.413259 -0.460751 0.059732 0.885517
0.391582 0.638344 0.199741 0.995307 0.091220 -0.032281
0.053300 0.775264 0.061257 0.849446 0.088810 0.520148
0.208530 0.652389 0.396704 -0.568420 0.814754 0.114346
0.225671 0.652389 0.052977 0.030559 0.754947 -0.655074
0.250509 0.650857 0.405182 -0.075648 0.309512 0.947882
0.232715 0.673612 0.184554 0.003780 0.999246 -0.038629
0.184434 0.624717 0.405181 -0.020942 -0.116833 0.992931
0.396362 0.781031 0.042447 0.705042 0.103262 -0.701607
0.391584 0.639732 0.291731 0.969133 0.239990 -0.056454
0.375897 0.627151 0.091637 -0.659073 -0.621224 -0.423915
0.340232 0.673612 0.286573 0.105779 0.994195 0.019656
0.291380 0.283227 0.047644 -0.000027 0.857638 0.514254
0.043115 0.270552 0.356301 0.154888 -0.987932 0.000027
0.074291 0.636804 0.065385 -0.063569 0.361081 0.930365
0.029376 0.235267 0.390191 -0.777532 0.061215 -0.625857
0.393584 0.683546 0.067092 0.414973 0.104986 0.903756
0.028361 0.260558 0.392640 -0.867039 0.054489 -0.495252
0.180596 0.623168 0.405181 -0.019082 -0.143969 0.989398
0.362508 0.610568 0.263709 -0.053738 -0.951471 -0.303011
0.134324 0.610568 0.220651 0.001653 -0.998341 -0.057549
0.094771 0.647695 0.060103 -0.034426 0.040955 -0.998568
0.395074 0.925398 0.041914 0.677446 0.126415 -0.724628
0.393399 0.509810 0.345118 0.978974 0.203985 -0.000029
0.025505 0.777917 0.053015 -0.974003 0.114703 -0.195349
0.082047 0.628907 0.405181 -0.050857 0.093365 0.994332
0.055827 0.131637 0.399682 0.981135 0.027410 -0.191368
0.243800 0.804887 0.034268 -0.048565 0.045311 0.997792
0.324027 0.610568 0.163499 -0.085087 -0.983320 -0.160755
0.353915 0.621292 0.405182 -0.017776 -0.440942 0.897359
0.090376 0.646401 0.394780 -0.095575 0.027547 0.995041
0.394306 0.527551 0.388047 0.540807 0.134560 -0.830314
0.034038 0.071883 0.041350 -0.578455 0.009964 -0.815654
0.393133 0.274367 0.059568 0.971535 -0.236896 -0.000015
0.270412 0.658747 0.394776 0.043832 0.108006 0.993184
0.047564 0.502223 0.387945 0.507745 0.090436 -0.856748
0.117068 0.822707 0.035517 -0.133628 0.232239 -0.963436
0.120477 0.783337 0.033687 -0.195211 -0.093864 -0.976259
0.383496 0.787028 0.040061 -0.146841 0.125090 -0.981219
0.241399 0.931867 0.026312 0.083865 0.111012 -0.990274
0.401581 0.552191 0.397995 0.987997 0.139008 -0.067363
0.070485 0.610568 0.319804 0.069079 -0.996893 -0.037843
0.387051 0.620480 0.385065 0.072043 0.138970 -0.987673
0.294783 0.626743 0.049714 0.022467 0.024549 -0.999446
0.152562 0.610568 0.297380 0.033753 -0.996831 -0.072037
0.400811 0.036678 0.396137 0.888378 0.012310 -0.458947
0.235964 0.892090 0.033895 -0.056257 -0.046698 0.997324
0.137976 0.271419 0.047665 0.000025 -0.853620 0.520897
0.401239 0.103149 0.397170 0.932183 0.029078 -0.360819
0.270261 0.652389 0.064157 -0.008179 0.459371 0.888207
0.233043 0.673612 0.075179 0.001758 0.991674 -0.128764
0.391580 0.652318 0.402879 0.717183 0.433189 0.545890
0.044426 0.246946 0.414714 0.318523 0.064334 0.945729
0.399644 0.566975 0.061460 0.864954 0.075163 0.496191
0.092794 0.673612 0.152415 -0.099059 0.995081 -0.000333
0.026254 0.634848 0.057263 -0.981265 0.100294 0.164500
0.225715 0.502466 0.394631 0.000019 -0.673122 0.739531
0.058557 0.509038 0.382823 -0.000011 0.441063 -0.897476
0.396996 0.309409 0.042710 0.605113 0.041757 -0.795044
0.083546 0.272307 0.384713 0.000020 -0.576035 -0.817425
0.375199 0.528355 0.391668 -0.774594 0.092853 -0.625606
0.397893 0.716762 0.065308 0.661599 0.110373 0.741691
0.072612 0.673612 0.309220 -0.080514 0.996753 0.001089
0.051790 0.618659 0.353207 0.239625 -0.956839 -0.164435
0.241177 0.673612 0.296906 -0.003772 0.998946 0.045741
0.127972 0.642438 0.065388 -0.050955 0.393284 0.918004
0.401387 0.029700 0.051135 0.931270 0.003802 -0.364311
0.098915 0.913863 0.038449 -0.204751 0.031165 -0.978318
0.050844 0.352918 0.042872 0.615916 0.052994 -0.786028
0.047304 0.303117 0.413522 0.482372 0.079808 0.872323
0.300537 0.610568 0.069282 -0.121337 -0.986636 -0.108751
0.372534 0.298675 0.403211 -0.974616 0.070827 0.212383
0.385324 0.270546 0.151230 -0.143658 -0.989627 0.000034
0.182115 0.673612 0.211648 -0.025231 0.999682 0.000021
0.245890 0.934673 0.026526 0.095426 0.121932 -0.987940
0.186789 0.610568 0.120134 -0.063233 -0.995297 -0.073378
0.035585 0.738819 0.040709 -0.266026 0.089518 -0.959800
0.091902 0.610568 0.238387 0.022859 -0.998765 -0.044124
0.254041 0.650131 0.389499 -0.435827 0.404590 -0.803966
0.386673 0.610568 0.305233 0.733620 -0.645584 -0.212186
0.154182 0.673612 0.319721 -0.016549 0.996268 0.084711
0.281725 0.630971 0.065396 0.026371 -0.122380 0.992133
0.297187 0.673612 0.365118 -0.003864 0.996521 0.083246
0.198610 0.673612 0.325219 -0.011741 0.996903 0.077763
0.271703 0.673612 0.243450 0.045700 0.998925 0.007752
0.391271 0.501156 0.238308 0.548795 -0.835957 0.000014
0.375900 0.637584 0.239871 -0.800177 0.052288 -0.597480
0.309226 0.673612 0.266280 0.078446 0.996817 0.014185
0.148521 0.935146 0.034156 0.395484 0.646940 0.651966
0.093002 0.791876 0.039880 -0.228985 -0.054805 -0.971886
0.056065 0.121662 0.401103 0.994764 0.028529 -0.098136
0.044958 0.352024 0.068036 0.381039 0.039819 0.923701
0.049310 0.911688 0.051769 -0.291035 -0.094779 -0.952006
0.191840 0.772521 0.031046 -0.188246 -0.482077 0.855666
0.375904 0.641363 0.382674 -0.693576 0.232787 -0.681735
0.263764 0.628798 0.405182 -0.026824 -0.145727 0.988961
0.271529 0.932918 0.028563 0.141814 0.115918 -0.983083
0.373916 0.035357 0.394765 -0.965919 0.008929 -0.258690
0.383503 0.639813 0.389499 0.621488 0.324543 -0.713039
0.082457 0.673612 0.248236 -0.086353 0.996264 0.000532
0.398582 0.597774 0.390756 0.818297 0.149757 -0.554943
0.047882 0.667647 0.241736 -0.883543 0.467190 0.032940
0.029597 0.166614 0.389657 -0.774875 0.046100 -0.630431
0.373452 0.058810 0.405430 -0.884218 0.019740 0.466657
0.054916 0.562586 0.397482 0.976931 0.122882 -0.174661
0.291437 0.610568 0.243076 -0.038545 -0.979912 -0.195667
0.381016 0.932635 0.067301 -0.497004 0.108041 0.860996
0.235546 0.272779 0.384443 0.000022 -0.667969 -0.744189
0.380965 0.498930 0.387585 -0.409023 0.097310 -0.907321
0.380741 0.664588 0.134203 0.964271 0.255161 -0.071232
0.375635 0.337960 0.390617 -0.779860 0.058149 -0.623247
0.379246 0.507355 0.212902 -1.000000 0.000196 0.000024
0.391579 0.645268 0.101251 0.994236 0.102379 -0.031823
0.046618 0.216797 0.041122 0.320959 0.026456 -0.946723
0.233320 0.673432 0.066412 -0.001245 0.984435 -0.175746
0.182709 0.892748 0.034324 0.048711 -0.044000 0.997843
0.372936 0.633723 0.049718 0.066623 0.324970 -0.943375
0.121880 0.816296 0.033486 -0.152110 0.115809 -0.981555
0.398343 0.164987 0.411136 0.789354 0.034973 0.612942
0.027994 0.223206 0.407834 -0.845634 0.045608 0.531810
0.027725 0.652318 0.403609 -0.987258 0.144315 0.067048
0.372913 0.823300 0.050647 -0.946941 0.123800 -0.296608
0.046931 0.644139 0.065384 0.687044 -0.203467 -0.697547
0.375904 0.638002 0.388035 -0.669183 0.075942 -0.739207
0.319932 0.610568 0.079678 -0.121983 -0.985846 -0.115009
0.257701 0.667109 0.061137 0.014445 0.312612 -0.949771
0.384338 0.191885 0.415126 -0.105002 0.034440 0.993875
0.189615 0.662260 0.060106 -0.030007 0.108089 -0.993688
0.082698 0.610568 0.070844 -0.056608 -0.997601 -0.039839
0.303785 0.673612 0.279569 0.077731 0.996858 0.015210
0.105886 0.673612 0.356129 -0.025999 0.991923 0.124148
0.374648 0.613401 0.389499 -0.047913 -0.877688 -0.476831
0.055243 0.335070 0.051904 0.972101 0.049668 -0.229245
0.388386 0.487098 0.415721 0.029092 0.084453 0.996003
0.152177 0.652389 0.056323 -0.028524 0.949612 -0.312126
0.383374 0.514077 0.149182 -0.551756 0.834005 -0.000012
0.306421 0.673612 0.127082 0.021075 0.994839 -0.099249
0.153993 0.673612 0.222344 -0.042420 0.999100 0.000169
0.240091 0.610568 0.142459 -0.068043 -0.993561 -0.090586
0.398770 0.790027 0.044819 0.852048 0.097759 -0.514255
0.090952 0.610568 0.251809 0.029740 -0.998592 -0.043917
0.397572 0.797264 0.042949 0.766121 0.100536 -0.634784
0.046509 0.660706 0.384082 -0.979994 0.172469 0.099331
0.391583 0.620099 0.251305 0.975776 -0.213651 -0.047066
0.387650 0.652389 0.144546 0.775458 0.613413 -0.149631
0.374424 0.112624 0.061390 -0.790075 0.013261 0.612867
0.037581 0.500562 0.132718 -0.297478 -0.954729 0.000038
0.139798 0.816538 0.030912 -0.116931 0.117138 -0.986208
0.381177 0.658056 0.073957 0.984784 0.149231 -0.089058
0.394795 0.507261 0.116177 0.991852 0.127392 -0.000027
0.068406 0.628408 0.049702 -0.062265 -0.319743 -0.945456
0.097611 0.673612 0.125005 -0.101416 0.994844 -0.000584
0.339648 0.671982 0.064212 0.047053 0.805200 -0.591134
0.278789 0.500567 0.040158 0.000031 -0.945650 -0.325186
0.219717 0.630037 0.405182 -0.027519 -0.055275 0.998092
0.378260 0.657546 0.395896 -0.267427 0.910811 -0.314494
0.047356 0.665926 0.335858 -0.917258 0.391565 0.072896
0.230047 0.807817 0.025772 0.045411 0.063256 -0.996964
0.117213 0.610568 0.226151 0.009401 -0.998597 -0.052120
0.375901 0.637147 0.265450 -0.788709 -0.007315 -0.614723
0.262029 0.610568 0.219979 -0.038581 -0.989870 -0.136631
0.153538 0.815519 0.036842 0.141436 0.111838 0.983610
0.049136 0.678097 0.066306 0.574377 0.074191 0.815222
0.066911 0.610568 0.110608 -0.032534 -0.998852 -0.035170
0.312187 0.673612 0.088854 0.021750 0.991057 -0.131653
0.390020 0.476006 0.068568 0.230000 0.068555 0.970773
0.374740 0.143244 0.046239 -0.904704 0.022746 -0.425434
0.229179 0.501614 0.385125 0.000026 -0.789723 -0.613464
0.057758 0.883942 0.057294 0.275167 -0.007959 0.961364
0.111774 0.610568 0.183904 -0.009790 -0.998699 -0.050049
0.198373 0.501708 0.394193 0.000023 -0.780661 0.624955
0.392970 0.510549 0.298808 0.923419 0.383793 -0.000033
0.047819 0.278405 0.093804 0.946513 0.322667 -0.000033
0.297018 0.673612 0.193141 0.051844 0.998646 0.004351
0.328992 0.610568 0.120797 -0.105256 -0.986378 -0.126409
0.377371 0.671418 0.149553 0.525714 0.850471 -0.017964
0.378111 0.308152 0.412546 -0.567884 0.072570 0.819903
0.346349 0.673612 0.095236 0.082388 0.996063 -0.032729
0.079201 0.610568 0.248595 0.031598 -0.998694 -0.040143
0.315870 0.500568 0.393282 0.000024 -0.807139 0.590362
0.391578 0.642512 0.067837 0.998750 0.000322 -0.049989
0.102543 0.652389 0.403995 -0.166935 0.575914 0.800285
0.047939 0.652389 0.388638 -0.275838 0.240608 -0.930602
0.384791 0.500562 0.131518 -0.188335 -0.982105 0.000035
0.088570 0.673612 0.276897 -0.076221 0.997091 0.000774
0.136059 0.673612 0.096203 -0.022008 0.995313 -0.094167
0.373243 0.652389 0.391677 -0.701743 0.609280 -0.369236
0.384567 0.626894 0.415221 -0.282245 0.120177 0.951785
0.063128 0.610568 0.259248 0.041525 -0.998521 -0.035092
0.219578 0.647379 0.049710 0.027821 0.364713 -0.930704
0.343331 0.610568 0.356768 -0.005332 -0.931065 -0.364814
0.330447 0.270551 0.039559 0.000031 -0.942631 -0.333836
0.121085 0.502807 0.394829 0.000022 -0.737361 0.675499
0.372317 0.260845 0.398624 -0.994474 0.050030 -0.092299
0.370563 0.610568 0.391371 -0.000324 -0.951710 -0.306998
0.043554 0.553481 0.068618 0.232862 0.072069 0.969836
0.053861 0.050826 0.406421 0.967367 0.014409 0.252970
0.401716 0.519989 0.398322 0.989587 0.130253 -0.061255
0.353143 0.673612 0.094641 0.072102 0.997370 -0.007399
0.367130 0.652097 0.405182 -0.054446 0.191600 0.979962
0.381178 0.649228 0.144439 0.998390 0.051023 -0.024766
0.390788 0.652389 0.124239 0.946006 0.319485 -0.054791
0.375936 0.468260 0.389889 -0.716848 0.079481 -0.692685
0.382319 0.271943 0.147552 -0.596594 -0.802543 0.000039
0.392907 0.358858 0.067373 0.460165 0.058967 0.885873
0.396923 0.122715 0.412185 0.727287 0.025653 0.685854
0.377467 0.652389 0.307875 -0.560441 0.686127 -0.463828
0.120868 0.895846 0.033631 -0.185555 -0.034791 -0.982018
0.176125 0.635191 0.389499 0.019067 -0.320077 -0.947200
0.220090 0.610568 0.258833 -0.006677 -0.992671 -0.120661
0.375903 0.623722 0.367312 -0.330283 -0.679571 -0.655054
0.370820 0.611645 0.389499 -0.008384 -0.892517 -0.450935
0.174651 0.673612 0.366165 -0.018719 0.993238 0.114574
0.343200 0.610568 0.260613 -0.048553 -0.959756 -0.276606
0.187025 0.636572 0.049709 -0.001666 0.068415 -0.997656
0.371730 0.216913 0.054886 -0.986424 0.029261 0.161588
0.185812 0.284061 0.392029 -0.000029 0.934130 0.356932
0.227807 0.807385 0.033507 -0.013783 0.060913 0.998048
0.051089 0.652389 0.091330 0.929683 0.017942 -0.367924
0.144352 0.610568 0.318686 0.046148 -0.995582 -0.081774
0.212406 0.610568 0.054090 -0.021014 -0.840187 -0.541890
0.335566 0.621026 0.049716 0.028309 -0.037158 -0.998908
0.183463 0.610568 0.301059 0.024924 -0.993115 -0.114457
0.373101 0.447116 0.050195 -0.970995 0.066339 -0.229713
0.248259 0.500566 0.389052 0.000032 -0.999397 -0.034733
0.044096 0.284065 0.276007 0.520125 0.854090 -0.000038
0.388922 0.295166 0.069023 0.209528 0.043411 0.976839
0.373522 0.062973 0.049177 -0.979717 0.011039 -0.200079
0.258901 0.822707 0.030418 0.249995 0.673395 -0.695732
0.373922 0.610568 0.232482 -0.071634 -0.955002 -0.287818
0.205493 0.635705 0.389499 -0.052073 -0.276699 -0.959545
0.336166 0.610568 0.235301 -0.057503 -0.968037 -0.244125
0.102046 0.279892 0.049566 -0.000010 0.245049 0.969511
0.182635 0.673612 0.130105 -0.009758 0.997166 -0.074600
0.121004 0.673612 0.346847 -0.023257 0.993275 0.113420
0.398341 0.344239 0.064604 0.780442 0.052274 0.623040
0.032054 0.735677 0.066298 -0.612846 0.116401 0.781582
0.051345 0.089528 0.043080 0.581003 0.014961 -0.813764
0.391587 0.646697 0.388985 0.864523 0.494781 -0.088272
0.117367 0.883798 0.034134 -0.203029 -0.084333 -0.975534
0.195737 0.673612 0.137121 -0.006356 0.997445 -0.071162
0.148071 0.610568 0.318656 0.044887 -0.995246 -0.086428
0.332183 0.673612 0.188861 0.076276 0.997060 0.007350
0.308151 0.879102 0.033823 0.155275 -0.098003 -0.982998
0.243079 0.610568 0.105940 -0.086751 -0.992056 -0.091101
0.046342 0.197047 0.041007 0.295725 0.024228 -0.954966
0.379359 0.669124 0.364769 0.896383 0.438863 0.062423
0.259590 0.617493 0.389499 0.027094 -0.855917 -0.516403
0.056064 0.845242 0.054585 0.987213 0.096729 0.126704
0.310568 0.883827 0.042077 -0.205763 -0.084982 0.974905
0.382311 0.891923 0.067837 -0.411764 0.103936 0.905344
0.267295 0.652389 0.396781 -0.609188 0.768465 0.195834
0.048249 0.507695 0.366498 0.988479 -0.151359 -0.000019
0.053658 0.631330 0.060392 0.895140 0.072863 0.439790
0.362321 0.513592 0.393817 -0.000029 0.924722 0.380642
0.363418 0.673612 0.203265 0.102333 0.994676 0.012150
0.045610 0.484399 0.414223 0.280266 0.125285 0.951711
0.143680 0.283940 0.047229 -0.000025 0.804067 0.594538
0.391541 0.107782 0.414414 0.417041 0.021876 0.908624
0.393674 0.886762 0.041334 0.585841 0.125717 -0.800616
0.206857 0.610568 0.159908 -0.049672 -0.995542 -0.080185
0.054500 0.231304 0.396479 0.926269 0.042052 -0.374509
0.380197 0.278987 0.220970 -0.965319 0.261075 0.000015
0.371910 0.608494 0.055320 -0.992644 0.084138 0.087054
0.340805 0.610568 0.239594 -0.057172 -0.965535 -0.253915
0.106640 0.610568 0.221809 0.010373 -0.998759 -0.048708
0.329843 0.610568 0.136455 -0.098842 -0.984874 -0.142318
0.261144 0.651812 0.060108 0.033067 0.041554 -0.998589
0.052904 0.629134 0.392626 0.862275 0.121146 -0.491738
0.095707 0.779594 0.039225 -0.233428 -0.136176 -0.962791
0.208754 0.610568 0.218149 -0.021568 -0.996452 -0.081359
0.205882 0.906496 0.025379 -0.012381 0.010788 -0.999865
0.107775 0.652389 0.396263 -0.337585 0.904269 -0.261408
0.107983 0.673612 0.218901 -0.074857 0.997194 0.000226
0.046510 0.645006 0.078418 -0.991722 0.030998 -0.124606
0.375904 0.651493 0.402169 -0.225951 0.318018 0.920766
0.375900 0.631215 0.211739 -0.724992 -0.394969 -0.564257
0.398394 0.320827 0.064476 0.790380 0.048239 0.610715
0.381205 0.280731 0.342622 -0.767523 0.641021 -0.000001
0.366824 0.806495 0.048153 0.276465 0.139456 -0.950852
0.199559 0.673612 0.320578 -0.011162 0.997194 0.074022
0.361742 0.610568 0.081904 -0.133206 -0.982479 -0.130348
0.050879 0.298078 0.042887 0.604981 0.044737 -0.794982
0.234434 0.610568 0.320417 0.016092 -0.980190 -0.197405
0.201087 0.802671 0.033449 0.032015 0.031589 0.998988
0.378874 0.193414 0.041976 -0.642084 0.032988 -0.765924
0.375558 0.376690 0.390801 -0.777725 0.065093 -0.625226
0.046509 0.649226 0.261642 -0.998595 0.052146 -0.009428
0.191949 0.610568 0.290416 0.017215 -0.993206 -0.115090
0.094420 0.612671 0.065386 -0.013595 -0.218434 0.975757
0.159338 0.673612 0.168710 -0.014813 0.999146 -0.038572
0.389154 0.280239 0.385912 0.081551 0.066306 -0.994461
0.399044 0.751045 0.045481 0.868625 0.093094 -0.486646
0.202238 0.904145 0.033394 0.023157 0.001475 0.999731
0.118250 0.613387 0.389499 0.087386 -0.977057 -0.194226
0.345024 0.511519 0.384251 -0.000012 0.467593 -0.883944
0.390827 0.596182 0.040155 0.307936 0.089161 -0.947220
0.159363 0.610568 0.074900 -0.077216 -0.994946 -0.064191
0.391805 0.282555 0.343478 0.792957 0.609278 -0.000036
0.160327 0.610568 0.265895 0.016302 -0.997671 -0.066231
0.394966 0.627582 0.041869 0.583522 0.087574 -0.807362
0.217403 0.643189 0.389499 -0.244521 0.085055 -0.965907
0.031599 0.695166 0.042360 -0.522734 0.086795 -0.848066
0.294116 0.673612 0.306454 0.042368 0.998273 0.040688
0.335445 0.929125 0.040065 0.239567 0.124885 -0.962814
0.346176 0.275345 0.049928 0.000001 -0.113884 0.993494
0.381182 0.660519 0.317373 0.996291 0.083266 0.021684
0.359225 0.673612 0.272778 0.116126 0.993035 0.019912
0.103272 0.673612 0.286559 -0.064099 0.997943 0.000831
0.053442 0.029269 0.393925 0.797171 0.005984 -0.603723
0.027689 0.439792 0.047742 -0.897967 0.065264 -0.435196
0.055057 0.293429 0.397823 0.964064 0.059161 -0.258998
0.371678 0.155181 0.053630 -0.995444 0.022821 0.092581
0.046509 0.653346 0.232713 -0.997096 0.075139 -0.012429
0.314067 0.818442 0.034891 0.213998 0.136789 -0.967209
0.363775 0.633003 0.065401 0.056246 -0.219179 0.974062
0.317938 0.510086 0.037051 -0.000006 0.283106 -0.959089
0.219717 0.645002 0.389499 -0.282841 0.168679 -0.944218
0.047688 0.279228 0.036570 -0.000012 0.481990 -0.876177
0.397569 0.467571 0.389399 0.708132 0.118153 -0.696124
0.232794 0.652389 0.395710 -0.611204 0.791451 -0.005941
0.393510 0.738243 0.041266 0.528972 0.105713 -0.842029
0.378161 0.535171 0.388747 -0.573124 0.092755 -0.814202
0.027767 0.659211 0.047553 -0.850367 0.094482 -0.517638
0.156232 0.610568 0.332534 0.048436 -0.992768 -0.109845
0.298877 0.610568 0.325432 -0.004060 -0.959210 -0.282666
0.051798 0.628482 0.066967 0.542504 -0.819760 -0.183530
0.176532 0.610568 0.129026 -0.055854 -0.995968 -0.070205
0.306178 0.652389 0.055006 0.064742 0.949452 -0.307162
0.360038 0.629814 0.405182 -0.029342 -0.270654 0.962229
0.248947 0.652389 0.399143 -0.471858 0.712267 0.519641
0.206504 0.804685 0.033191 0.024189 0.044135 0.998733
0.272543 0.799028 0.036612 -0.113285 0.008964 0.993522
0.374526 0.283512 0.393293 -0.884880 0.050504 -0.463072
0.396538 0.290692 0.388972 0.588799 0.073504 -0.804930
0.304273 0.673612 0.311083 0.085735 0.996137 0.018975
0.375524 0.616740 0.044345 -0.746047 0.097039 -0.658785
0.393487 0.569425 0.067132 0.440441 0.090187 0.893240
0.066474 0.673612 0.097655 -0.128380 0.991725 -0.000766
0.206806 0.610568 0.203361 -0.028282 -0.996345 -0.080597
0.374632 0.762953 0.046500 -0.814777 0.120796 -0.567050
0.317836 0.610568 0.199701 -0.067022 -0.979980 -0.187476
0.344186 0.673612 0.221661 0.092909 0.995597 0.012406
0.111254 0.657614 0.394780 -0.038862 0.056750 0.997632
0.098186 0.815028 0.046657 0.232024 0.132160 0.963690
0.373118 0.548591 0.404624 -0.973553 0.125063 0.191191
0.036021 0.595317 0.040528 -0.281697 0.072172 -0.956785
0.301574 0.610568 0.111638 -0.101164 -0.988804 -0.109697
0.212485 0.610568 0.339498 0.032340 -0.981681 -0.187765
0.046362 0.219565 0.041015 0.303902 0.026705 -0.952329
0.047939 0.403578 0.041669 0.458609 0.049400 -0.887264
0.039105 0.652389 0.138976 -0.778059 0.475375 -0.410662
0.391579 0.614426 0.093585 0.829891 -0.547705 -0.106302
0.051791 0.639811 0.333968 0.327795 -0.302433 -0.895033
0.376712 0.767451 0.065518 -0.687034 0.082756 0.721897
0.167795 0.610568 0.331950 0.044254 -0.991304 -0.123930
0.372412 0.528279 0.398394 -0.966682 0.094325 -0.237968
0.394887 0.740665 0.066553 0.483058 0.114741 0.868038
0.185435 0.673612 0.352036 -0.016012 0.994730 0.101267
0.387919 0.580238 0.069439 0.044494 0.072015 0.996411
0.031490 0.877823 0.042405 -0.475409 0.108277 -0.873077
0.367106 0.610568 0.189800 -0.088372 -0.966902 -0.239354
0.236038 0.628457 0.405182 -0.026003 -0.112186 0.993347
0.391236 0.271081 0.051276 0.729117 -0.684389 0.000004
0.386343 0.514082 0.327596 0.046225 0.998931 -0.000030
0.402189 0.520871 0.053071 0.995038 0.057940 -0.080885
0.053829 0.431731 0.406500 0.907503 0.106150 0.406411
0.336908 0.673612 0.193098 0.080722 0.996702 0.008319
0.340756 0.501575 0.047743 0.000019 -0.665153 0.746707
0.304379 0.652389 0.394006 -0.680351 0.715573 -0.158359
0.393772 0.207254 0.041375 0.376014 0.032509 -0.926044
0.397605 0.449884 0.042962 0.678611 0.057845 -0.732216
0.157310 0.642785 0.060105 0.014278 0.018000 -0.999736
0.189865 0.673612 0.226371 -0.016842 0.999858 0.000137
0.271246 0.673612 0.284185 0.027728 0.999139 0.030863
0.118382 0.815263 0.033988 -0.159775 0.108786 -0.981141
0.275223 0.502995 0.394935 0.000016 -0.559620 0.828749
0.154031 0.610568 0.070578 -0.077749 -0.995015 -0.062455
0.318447 0.503137 0.384248 0.000024 -0.712335 -0.701840
0.048909 0.327890 0.412857 0.570745 0.085859 0.816626
0.115946 0.635501 0.389499 0.048061 -0.357452 -0.932694
0.381179 0.652423 0.169107 0.997352 0.068820 -0.023504
0.254683 0.637870 0.049712 0.025913 0.211649 -0.977002
0.375629 0.772521 0.056418 -0.245741 -0.690607 0.680201
0.120259 0.610568 0.229504 0.010156 -0.998536 -0.053120
0.353786 0.610568 0.373247 -0.001559 -0.920176 -0.391503
0.380470 0.543389 0.067074 -0.445541 0.062566 0.893072
0.119160 0.500562 0.042415 0.000031 -0.970881 -0.239564
0.392032 0.768085 0.040654 0.443420 0.112198 -0.889264
0.375901 0.629012 0.271672 -0.599763 -0.505123 -0.620593
0.044164 0.699693 0.040105 0.292822 0.079005 -0.952897
0.025934 0.614411 0.398500 -0.960030 0.113938 -0.255658
0.273017 0.932885 0.036680 -0.083436 0.115676 0.989776
0.036577 0.547166 0.068172 -0.257483 0.080218 0.962947
0.203157 0.620944 0.065392 0.012901 -0.217368 0.976004
0.150630 0.804185 0.037260 0.133144 0.040789 0.990257
0.176699 0.641863 0.389499 -0.096972 -0.032312 -0.994762
0.337947 0.673612 0.263595 0.098565 0.994990 0.016724
0.044262 0.270552 0.342711 0.309726 -0.950826 0.000022
0.318244 0.610568 0.294521 -0.024704 -0.960360 -0.277667
0.333684 0.610568 0.277795 -0.037558 -0.958971 -0.281004
0.281098 0.673612 0.133474 0.014878 0.995879 -0.089459
0.318882 0.673612 0.295330 0.092482 0.995541 0.018570
0.358624 0.638579 0.405182 -0.040097 -0.073074 0.996520
0.051794 0.626050 0.243224 0.537608 -0.829060 -0.153741
0.132702 0.610568 0.403368 0.010483 -0.460465 0.887616
0.027910 0.343302 0.407630 -0.886106 0.068368 0.458412
0.025794 0.541284 0.052318 -0.983914 0.081830 -0.158799
0.092379 0.673612 0.106541 -0.092900 0.995270 -0.028411
0.379966 0.667121 0.126083 0.879503 0.473059 -0.051860
0.375896 0.636537 0.076741 -0.859047 0.194547 -0.473487
0.374024 0.627104 0.394503 -0.856679 0.114126 -0.503067
0.245038 0.673612 0.253949 0.028907 0.999562 0.006328
0.028371 0.234530 0.046096 -0.879339 0.035495 -0.474872
0.393555 0.858390 0.067104 0.361369 0.127611 0.923649
0.375899 0.629636 0.170037 -0.703751 -0.483836 -0.520229
0.301794 0.673612 0.384192 -0.005218 0.995324 0.096456
0.040315 0.500561 0.097359 0.106133 -0.994352 0.000029
0.402637 0.630895 0.400546 0.976149 0.147212 0.159570
0.051789 0.635691 0.399114 -0.057050 -0.103837 0.992957
0.371966 0.518016 0.055456 -0.990082 0.070883 0.121301
0.051714 0.546272 0.065087 0.738889 0.058234 0.671306
0.380584 0.509672 0.342347 -0.868319 0.496006 0.000006
0.062868 0.613198 0.389499 0.107091 -0.987717 -0.113781
0.103186 0.638366 0.405181 -0.073767 0.255936 0.963875
0.335769 0.610568 0.186793 -0.078943 -0.977098 -0.197606
0.235817 0.610568 0.238308 -0.021300 -0.992423 -0.121011
0.051789 0.638780 0.388609 0.075405 -0.263370 -0.961743
0.385105 0.652389 0.066839 0.596523 0.768401 -0.231774
0.037701 0.500568 0.311814 -0.510074 -0.860131 0.000040
0.052769 0.364134 0.062540 0.861644 0.041253 0.505834
0.028151 0.482321 0.046627 -0.851820 0.069010 -0.519269
0.036115 0.637895 0.100122 -0.965173 0.217374 -0.145568
0.168499 0.652389 0.401090 -0.333872 0.685721 0.646774
0.334104 0.673612 0.304150 0.105615 0.994183 0.021119
0.167490 0.627075 0.405181 -0.026183 -0.046844 0.998559
0.058138 0.649970 0.394781 -0.098239 0.036839 0.994481
0.331730 0.673612 0.080112 0.026437 0.989477 -0.142257
0.379738 0.667872 0.196313 0.883131 0.468802 -0.017434
0.364259 0.673612 0.150658 0.090201 0.995905 0.006046
0.319283 0.639886 0.065398 0.025464 0.017837 0.999517
0.046510 0.650899 0.166691 -0.996582 0.059612 -0.057191
0.052620 0.252925 0.045569 0.752732 0.042347 -0.656964
0.338018 0.610568 0.316549 -0.021580 -0.946447 -0.322137
0.044097 0.248745 0.386508 0.188667 0.047587 -0.980888
0.325378 0.774918 0.037629 0.179881 -0.132839 -0.974678
0.204314 0.610568 0.289793 0.012682 -0.991415 -0.130139
0.064397 0.610568 0.142380 -0.016231 -0.999268 -0.034627
0.372636 0.861735 0.057072 -0.982569 0.118303 0.143399
0.048439 0.669470 0.298836 -0.765578 0.642727 0.028152
0.025268 0.204329 0.400106 -0.998536 0.034282 0.041840
0.180942 0.895582 0.026567 -0.072625 -0.032595 -0.996827
0.032661 0.874565 0.066549 -0.610896 0.139356 0.779350
0.095826 0.629641 0.389499 0.079488 -0.639413 -0.764744
0.036113 0.624295 0.161786 -0.994993 -0.089607 -0.044258
0.165106 0.613823 0.049707 -0.046448 -0.472098 -0.880322
0.210204 0.673612 0.231118 -0.002404 0.999996 0.001224
0.061612 0.610568 0.393925 0.092701 -0.950658 0.296068
0.197192 0.673612 0.156554 -0.005618 0.998449 -0.055386
0.357828 0.610568 0.214915 -0.074035 -0.964985 -0.251640
0.027790 0.484253 0.047497 -0.882412 0.070798 -0.465120
0.039011 0.458439 0.415611 -0.187156 0.109625 0.976194
0.043520 0.259141 0.415089 0.247466 0.066733 0.966596
0.048396 0.669327 0.300759 -0.772714 0.634041 0.030089
0.025003 0.276828 0.054228 -0.996456 0.042126 0.072811
0.392087 0.282051 0.121280 0.643855 0.765147 -0.000037
0.253366 0.673612 0.072888 0.006777 0.990924 -0.134255
0.051793 0.626195 0.268872 0.552956 -0.818580 -0.155452
0.257325 0.284064 0.045996 -0.000029 0.951776 0.306794
0.076249 0.649457 0.065386 -0.078555 0.610635 0.788007
0.380745 0.652389 0.181313 -0.208985 0.927664 -0.309459
0.028424 0.553435 0.408871 -0.892436 0.107804 0.438105
0.380833 0.172013 0.413674 -0.345347 0.033078 0.937892
0.290884 0.670511 0.062025 0.034914 0.514966 -0.856499
0.083067 0.503529 0.395247 0.000020 -0.691667 0.722217
0.198309 0.673612 0.334207 -0.012678 0.996333 0.084620
0.133952 0.670832 0.062459 -0.055380 0.680667 -0.730497
0.054359 0.951607 0.058702 0.906004 0.111127 0.408421
0.028660 0.652914 0.392777 -0.732481 0.235244 -0.638852
0.067888 0.802815 0.045957 -0.250145 -0.006479 -0.968187
0.036111 0.619483 0.211679 -0.967816 -0.248445 -0.040083
0.160615 0.652389 0.050981 0.009342 0.467782 -0.883794
0.078196 0.610568 0.120094 -0.031214 -0.998758 -0.038832
0.030028 0.927762 0.043011 -0.541271 0.113463 -0.833158
0.206344 0.635035 0.405181 -0.040960 0.060215 0.997345
0.375902 0.622163 0.302078 -0.329638 -0.768361 -0.548599
0.374820 0.878198 0.046044 -0.768654 0.139852 -0.624190
0.271159 0.506505 0.396962 -0.000001 -0.042139 0.999112
0.312223 0.650901 0.389499 -0.564306 0.481994 -0.670254
0.283970 0.643600 0.060109 0.078590 0.020201 -0.996702
0.400327 0.091356 0.406348 0.960970 0.024283 0.275586
0.053243 0.093251 0.407914 0.927083 0.024466 0.374056
0.284032 0.634320 0.389499 -0.277970 -0.264879 -0.923348
0.091300 0.933224 0.040292 -0.197285 0.106563 -0.974537
0.383987 0.270547 0.185723 -0.361394 -0.932413 0.000037
0.377157 0.374774 0.065702 -0.592653 0.040971 0.804415
0.376668 0.610568 0.176931 -0.053196 -0.968775 -0.242166
0.052391 0.610568 0.102596 -0.032179 -0.999017 -0.030498
0.369660 0.662211 0.060111 0.048700 0.068565 -0.996457
0.051868 0.236378 0.411233 0.772280 0.060455 0.632399
0.381179 0.646023 0.171391 0.999537 0.030403 0.001233
0.401034 0.040048 0.396676 0.906685 0.013132 -0.421605
0.377032 0.784127 0.051349 0.287362 0.040284 -0.956975
0.381168 0.291515 0.387501 -0.466603 0.052515 -0.882907
0.052101 0.523350 0.064151 0.780420 0.057112 0.622642
0.395884 0.615760 0.066140 0.575744 0.097233 0.811828
0.289040 0.673612 0.255810 0.061275 0.998061 0.010939
0.391578 0.637462 0.070904 0.992421 -0.105806 -0.062488
0.029336 0.573403 0.390286 -0.669555 0.148456 -0.727776
0.381182 0.662616 0.324742 0.995011 0.098084 0.018227
0.156530 0.610568 0.351367 0.056896 -0.990132 -0.128068
0.119763 0.610568 0.372575 0.078857 -0.991696 -0.101588
0.386142 0.151433 0.069424 0.063096 0.020499 0.997797
0.375898 0.616191 0.132064 -0.248704 -0.936129 -0.248613
0.050898 0.671745 0.147045 -0.551245 0.834327 -0.005252
0.190586 0.649924 0.049709 0.020907 0.370821 -0.928469
0.095875 0.657637 0.060103 -0.058756 0.101624 -0.993086
0.058208 0.636004 0.049702 -0.053190 -0.157538 -0.986079
0.357303 0.610568 0.204766 -0.078379 -0.967253 -0.241408
0.046044 0.552880 0.387315 0.435739 0.100516 -0.894443
0.398561 0.185542 0.064074 0.830862 0.026056 0.555868
0.045613 0.624208 0.067765 0.360853 0.076447 0.929484
0.377625 0.575241 0.412345 -0.684514 0.146107 0.714208
0.285039 0.673612 0.154881 0.040686 0.998716 -0.030176
0.028408 0.734840 0.046006 -0.766794 0.100892 -0.633914
0.032867 0.535458 0.388291 -0.463387 0.139491 -0.875108
0.064425 0.610568 0.208910 0.016422 -0.999247 -0.035145
0.034560 0.113027 0.041133 -0.532442 0.015178 -0.846331
0.089545 0.643628 0.405181 -0.090753 0.372887 0.923428
0.325295 0.673612 0.201253 0.074297 0.997203 0.008123
0.319003 0.772521 0.044045 -0.224779 -0.175520 0.958471
0.170042 0.610568 0.400813 0.032344 -0.693659 0.719577
0.127624 0.508380 0.382442 -0.000005 0.273923 -0.961752
0.036111 0.619238 0.220897 -0.963089 -0.266061 -0.040887
0.046510 0.655128 0.110666 -0.994011 0.079348 -0.075142
0.399884 0.054496 0.060880 0.947571 0.008633 0.319429
0.342724 0.673612 0.178757 0.081450 0.996651 0.007210
0.375638 0.353956 0.044070 -0.789762 0.055658 -0.610882
0.377078 0.447717 0.389195 -0.659408 0.076911 -0.747840
0.384435 0.259413 0.068717 -0.093590 0.032787 0.995071
0.361580 0.639688 0.049718 0.071045 0.438902 -0.895722
0.137964 0.281860 0.384461 -0.000019 0.725864 -0.687838
0.178254 0.505976 0.382606 0.000008 -0.153980 -0.988074
0.106965 0.610568 0.269960 0.033981 -0.998212 -0.049165
0.264990 0.673612 0.146312 0.011104 0.997047 -0.075988
0.375967 0.231247 0.389815 -0.774020 0.038958 -0.631962
0.047900 0.652389 0.125109 0.637796 0.269120 -0.721659
0.375324 0.696810 0.063563 -0.782291 0.075633 0.618305
0.033559 0.276091 0.309095 -0.998583 -0.053209 0.000026
0.357669 0.610568 0.194597 -0.083023 -0.969109 -0.232238
0.043809 0.514082 0.322745 0.544256 0.838919 -0.000038
0.046509 0.653162 0.369633 -0.992108 0.106768 0.065743
0.380623 0.509739 0.279982 -0.898685 0.438595 0.000008
0.397187 0.221065 0.065600 0.738290 0.036541 0.673492
0.390215 0.628648 0.068488 0.194381 0.087567 0.977010
0.389517 0.514083 0.362690 0.519424 0.854517 -0.000037
0.313987 0.610568 0.139878 -0.091806 -0.987804 -0.125754
0.376747 0.259701 0.065532 -0.590881 0.028113 0.806269
0.026932 0.785183 0.049570 -0.896448 0.114963 -0.427976
0.306896 0.610568 0.072349 -0.121714 -0.986362 -0.110798
0.065026 0.511618 0.394951 -0.000016 0.462556 0.886590
0.381180 0.648055 0.245826 0.998807 0.036200 0.032785
0.220973 0.610568 0.403466 0.009449 -0.576416 0.817102
0.274112 0.812689 0.028934 0.136717 0.093228 -0.986214
0.198705 0.610568 0.289565 0.014510 -0.992322 -0.122826
0.269847 0.613409 0.389499 0.030564 -0.918786 -0.393571
0.400035 0.335261 0.407053 0.891842 0.078923 0.445409
0.028271 0.287667 0.408501 -0.839093 0.058233 0.540862
0.343967 0.807181 0.050159 -0.230250 0.038532 0.972368
0.146325 0.673612 0.290383 -0.033630 0.999434 0.000783
0.249517 0.610568 0.235509 -0.027317 -0.990383 -0.135632
0.315220 0.621575 0.405182 -0.018054 -0.378376 0.925476
0.156374 0.610568 0.126405 -0.051186 -0.996652 -0.063760
0.250461 0.668159 0.393472 0.016434 0.458882 0.888345
0.026428 0.279480 0.057682 -0.946684 0.045659 0.318911
0.324969 0.797555 0.037530 0.208441 0.010298 -0.977981
0.035852 0.538314 0.067871 -0.305397 0.078859 0.948954
0.115991 0.673612 0.202969 -0.072639 0.997358 0.000070
0.398700 0.471170 0.391039 0.798293 0.119884 -0.590217
0.047905 0.278269 0.318110 0.999999 0.001195 -0.000024
0.055886 0.060032 0.055015 0.994765 0.010250 -0.101676
0.386372 0.284065 0.282611 -0.006650 0.999978 -0.000029
0.295694 0.809116 0.032034 0.171469 0.074354 -0.982380
0.375902 0.633109 0.303423 -0.687110 -0.244429 -0.684204
0.393239 0.298713 0.413711 0.430207 0.059533 0.900765
0.386520 0.500562 0.126058 0.044581 -0.999006 0.000030
0.043254 0.327689 0.039728 0.115319 0.037209 -0.992631
0.382838 0.229369 0.040334 -0.383978 0.038505 -0.922539
0.220593 0.673612 0.362676 -0.012839 0.994853 0.100509
0.326036 0.283744 0.047346 -0.000028 0.914522 0.404536
0.291773 0.610568 0.221126 -0.048451 -0.983343 -0.175180
0.034700 0.133187 0.413825 -0.315298 0.034168 0.948378
0.099418 0.502691 0.048390 0.000022 -0.770476 0.637469
0.392549 0.511278 0.298085 0.871829 0.489811 -0.000035
0.391581 0.631473 0.168444 0.994698 -0.092233 -0.045478
0.382993 0.283830 0.223150 -0.521442 0.853287 -0.000013
0.375647 0.791211 0.059086 -0.288499 -0.223931 0.930926
0.212250 0.673612 0.356686 -0.013246 0.995090 0.098081
0.352697 0.652389 0.062085 0.044010 0.484234 0.873831
0.337153 0.610568 0.065761 -0.133674 -0.983710 -0.120187
0.379451 0.276914 0.208358 -0.997647 -0.068557 0.000026
0.052436 0.610568 0.272641 0.051207 -0.998182 -0.031778
0.373766 0.610568 0.320931 -0.031777 -0.929094 -0.368476
0.036115 0.615210 0.081546 -0.986241 -0.162068 -0.032597
0.056270 0.629188 0.405181 -0.057706 0.132229 0.989538
0.031298 0.285274 0.388941 -0.653442 0.078910 -0.752852
0.401790 0.383046 0.398501 0.987367 0.096322 -0.125814
0.129266 0.673612 0.278882 -0.047772 0.998858 0.000714
0.236173 0.673612 0.186791 0.004686 0.999289 -0.037401
0.081823 0.673612 0.292640 -0.077607 0.996984 0.000925
0.325121 0.638523 0.405182 -0.039129 -0.025315 0.998913
0.251175 0.656688 0.394776 0.027529 0.086206 0.995897
0.330908 0.651669 0.405182 -0.060915 0.227239 0.971932
0.328276 0.627294 0.389499 -0.247340 -0.555914 -0.793588
0.053310 0.281272 0.407751 0.899857 0.068045 0.430846
0.305090 0.631053 0.049715 0.034148 0.141011 -0.989419
0.387554 0.809287 0.038799 0.157119 0.118783 -0.980410
0.052908 0.578998 0.062203 0.844265 0.065542 0.531904
0.175412 0.652241 0.049708 0.018861 0.394630 -0.918647
0.044994 0.283305 0.211799 0.589385 0.807852 -0.000038
0.066597 0.615657 0.389499 0.107395 -0.975590 -0.191546
0.316684 0.503601 0.395284 0.000011 -0.432907 0.901438
0.372297 0.872415 0.056546 -0.293586 -0.412955 0.862134
0.029732 0.832296 0.043134 -0.588289 0.102537 -0.802123
0.072944 0.610568 0.121271 -0.029091 -0.998885 -0.037173
0.081375 0.610568 0.384257 0.096692 -0.993237 -0.064267
0.126369 0.610568 0.312890 0.049433 -0.997225 -0.055672
0.084578 0.625401 0.065386 -0.039399 0.074554 0.996438
0.375896 0.617803 0.084268 -0.301733 -0.925477 -0.229020
0.155462 0.621197 0.405181 -0.016505 -0.149094 0.988685
0.393291 0.104853 0.413689 0.532297 0.021949 0.846273
0.128418 0.610568 0.058456 -0.047388 -0.952425 0.301066
0.373150 0.703153 0.058313 -0.956428 0.091384 0.277299
0.028412 0.338898 0.408844 -0.841196 0.068075 0.536429
0.319008 0.627488 0.405182 -0.025879 -0.258225 0.965738
0.051798 0.647011 0.070449 0.948723 -0.171572 -0.265493
0.205683 0.878223 0.025389 -0.043930 -0.101075 -0.993908
0.154592 0.621001 0.405181 -0.016265 -0.151957 0.988253
0.362658 0.673612 0.215492 0.104745 0.994407 0.013513
0.349889 0.629040 0.405182 -0.028217 -0.271915 0.961908
0.026274 0.574932 0.051158 -0.963729 0.086570 -0.252451
0.048794 0.670564 0.141924 -0.783244 0.621427 -0.018870
0.330272 0.927720 0.046845 -0.195607 0.086343 0.976874
0.069956 0.610568 0.157504 -0.010447 -0.999279 -0.036514
0.211002 0.889762 0.025135 -0.021042 -0.055652 -0.998228
0.138346 0.673612 0.231289 -0.051362 0.998680 0.000277
0.397628 0.085766 0.389424 0.576128 0.022892 -0.817039
0.277928 0.617552 0.049713 0.001410 -0.203086 -0.979160
0.355961 0.610568 0.302454 -0.034060 -0.943095 -0.330775
0.080488 0.610568 0.201917 0.008273 -0.999157 -0.040211
0.093234 0.278746 0.036290 -0.000008 0.366132 -0.930563
0.256472 0.639498 0.065395 0.002793 0.107391 0.994213
0.241063 0.610568 0.386551 0.043663 -0.962422 -0.268024
0.216833 0.270548 0.040106 0.000030 -0.911833 -0.410560
0.052898 0.755831 0.046240 0.864564 0.116937 -0.488728
0.285907 0.610568 0.226547 -0.043996 -0.983944 -0.172968
0.108279 0.915963 0.036183 -0.187253 0.043658 -0.981341
0.247996 0.610568 0.340457 0.020438 -0.972151 -0.233464
0.089554 0.610568 0.351338 0.079000 -0.995897 -0.044129
0.229842 0.610568 0.211700 -0.031004 -0.995612 -0.088290
0.055192 0.673612 0.354138 -0.083205 0.996531 0.001517
0.187708 0.673612 0.132215 -0.008452 0.997239 -0.073770
0.391580 0.637714 0.138304 0.999224 -0.002401 -0.039303
0.384554 0.514077 0.168303 -0.392898 0.919582 -0.000018
0.384219 0.361828 0.068628 -0.143478 0.044362 0.988659
0.027426 0.294578 0.394897 -0.928958 0.053160 -0.366349
0.049368 0.158756 0.066210 0.690157 0.017842 0.723440
0.163209 0.673612 0.197173 -0.041272 0.999148 -0.000071
0.212447 0.673612 0.190956 -0.001151 0.999558 -0.029718
0.281726 0.907524 0.030027 0.135790 0.014594 -0.990630
0.388866 0.211780 0.039343 0.028169 0.033544 -0.999040
0.243129 0.610568 0.311930 0.009234 -0.979687 -0.200322
0.258609 0.275874 0.382656 0.000011 -0.275787 -0.961219
0.046124 0.097659 0.040917 0.249540 0.013091 -0.968276
0.296831 0.632444 0.405182 -0.031687 -0.115636 0.992786
0.357660 0.673612 0.184512 0.093637 0.995562 0.009372
0.047471 0.652389 0.273115 -0.180303 0.343888 -0.921538
0.185956 0.610568 0.330407 0.037357 -0.988654 -0.145489
0.376408 0.644966 0.389473 -0.637888 0.109929 -0.762243
0.211112 0.610568 0.383346 0.052670 -0.972350 -0.227513
0.312544 0.793309 0.034523 0.182789 -0.023386 -0.982874
0.046677 0.169107 0.067324 0.532700 0.019876 0.846071
0.139614 0.610568 0.318656 0.047720 -0.995981 -0.075789
0.393092 0.161092 0.067296 0.525551 0.028592 0.850282
0.212028 0.610568 0.254342 -0.005895 -0.994324 -0.106227
0.114892 0.662622 0.060103 -0.062960 0.127621 -0.989823
0.375204 0.089977 0.391655 -0.871105 0.016159 -0.490831
0.181586 0.612036 0.389499 0.064814 -0.969043 -0.238233
0.197470 0.894623 0.025780 -0.041809 -0.036397 -0.998462
0.240212 0.652389 0.394877 -0.621162 0.772778 -0.130276
0.371599 0.673612 0.347251 0.142955 0.989278 0.029876
0.282042 0.610568 0.063786 0.057034 -0.690359 0.721216
0.397642 0.225618 0.389430 0.629059 0.057763 -0.775209
0.295416 0.637034 0.049714 0.040602 0.263746 -0.963737
0.342725 0.673612 0.242143 0.096817 0.995194 0.014672
0.144006 0.624177 0.065389 -0.013860 -0.049102 0.998698
0.269560 0.822707 0.029902 0.168038 0.257183 -0.951641
0.123801 0.673612 0.080881 -0.025346 0.994196 -0.104558
0.192811 0.513730 0.039157 -0.000024 0.854748 -0.519043
0.093524 0.673612 0.334690 -0.060854 0.998146 0.001274
0.384884 0.652389 0.157049 0.420921 0.873730 -0.243766
0.386933 0.073015 0.416201 0.132270 0.011794 0.991144
0.264627 0.919593 0.027571 0.115350 0.062685 -0.991345
0.270292 0.652389 0.394666 -0.655549 0.749000 -0.096194
0.392091 0.512077 0.374833 0.856966 0.515373 -0.000035
0.172255 0.673612 0.251767 -0.023735 0.999718 0.000394
0.382051 0.566196 0.067730 -0.356871 0.065727 0.931839
0.050757 0.386451 0.065635 0.717879 0.041783 0.694913
0.391586 0.651496 0.346886 0.847171 0.524502 -0.084844
0.341946 0.621450 0.389499 -0.134628 -0.739342 -0.659733
0.103494 0.610568 0.214667 0.007783 -0.998834 -0.047648
0.153911 0.610568 0.126900 -0.050216 -0.996751 -0.062981
0.149539 0.610568 0.146999 -0.039070 -0.997325 -0.061777
0.382475 0.652389 0.269120 -0.024613 0.932027 -0.361551
0.043346 0.284063 0.222659 0.365370 0.930862 -0.000037
0.391587 0.645137 0.377224 0.887081 0.453911 -0.083978
0.236156 0.508239 0.396905 -0.000008 0.167937 0.985798
0.032159 0.326818 0.388585 -0.589423 0.090310 -0.802760
0.046450 0.777081 0.041052 0.461434 0.103339 -0.881136
0.222645 0.652389 0.396577 -0.587963 0.800169 0.118445
0.165658 0.610568 0.281771 0.022295 -0.997025 -0.073790
0.101582 0.636295 0.049704 -0.034667 -0.074883 -0.996589
0.378511 0.229486 0.388602 -0.646407 0.040738 -0.761905
0.392507 0.281320 0.073412 0.681941 0.731407 -0.000037
0.053464 0.187980 0.393977 0.834322 0.034406 -0.550203
0.387442 0.500569 0.365695 -0.137239 -0.990538 0.000034
0.114764 0.610568 0.068678 -0.067109 -0.996493 -0.049985
0.400180 0.388296 0.060165 0.929022 0.044779 0.367306
0.216064 0.610568 0.247873 -0.010179 -0.994401 -0.105183
0.384939 0.649127 0.065385 0.606128 0.744139 -0.280832
0.086656 0.673612 0.304876 -0.071751 0.997422 0.001024
0.315611 0.673612 0.129209 0.055523 0.998400 -0.010686
0.278593 0.673612 0.373085 -0.006898 0.995559 0.093883
0.162377 0.808266 0.035573 0.115264 0.066312 0.991119
0.240964 0.610725 0.405182 -0.003860 -0.483494 0.875339
0.046397 0.652389 0.091725 0.601232 0.383304 -0.701141
0.381259 0.109596 0.040988 -0.521991 0.019899 -0.852719
0.115817 0.652389 0.392626 -0.218571 0.535783 -0.815575
0.373541 0.491080 0.395670 -0.916312 0.088930 -0.390466
0.342912 0.610568 0.251760 -0.052434 -0.962003 -0.267956
0.050592 0.569172 0.412160 0.569676 0.142718 0.809383
0.064648 0.610568 0.377758 0.099021 -0.994383 -0.037368
0.271796 0.644815 0.405182 -0.054692 0.169577 0.983998
0.386860 0.607328 0.385144 0.054237 0.136189 -0.989197
0.046510 0.658305 0.184988 -0.994221 0.104839 -0.023101
0.036115 0.635325 0.071902 -0.968190 0.203401 -0.145729
0.202443 0.673612 0.161141 -0.004220 0.998610 -0.052539
0.363193 0.640052 0.389499 -0.649198 0.158578 -0.743905
0.375898 0.630276 0.140877 -0.746561 -0.421131 -0.515069
0.336783 0.800257 0.040389 0.229256 0.035694 -0.972712
0.391586 0.643336 0.343860 0.922352 0.379157 -0.074211
0.389528 0.239979 0.068772 0.269462 0.039177 0.962214
0.186699 0.644392 0.389499 -0.174638 0.093223 -0.980210
0.352219 0.673612 0.363329 0.076400 0.994772 0.067759
0.100066 0.903487 0.038170 -0.213076 -0.010792 -0.976976
0.036749 0.284054 0.209466 -0.509308 0.860584 -0.000014
0.284564 0.673612 0.327543 -0.001620 0.998312 0.058052
0.255136 0.673612 0.371899 -0.009603 0.995057 0.098837
0.393691 0.221675 0.413524 0.498451 0.045134 0.865742
0.217085 0.610568 0.346699 0.034009 -0.979120 -0.200418
0.375901 0.632583 0.277152 -0.702498 -0.291091 -0.649432
0.094925 0.639842 0.049704 -0.030891 -0.004844 -0.999511
0.079686 0.610568 0.241789 0.028111 -0.998794 -0.040249
