0.402140 0.479758 0.278943 -0.056307 -0.982078 -0.179869
0.466035 0.479758 0.471607 -0.008861 -0.929263 -0.369313
0.045120 0.224790 0.085485 0.058146 0.035900 0.997662
0.513905 0.330270 0.269993 -0.287399 -0.957811 0.000037
0.522463 0.425101 0.516536 0.309765 0.144138 -0.939824
0.504054 0.880187 0.080516 -0.669948 0.101476 0.735440
0.534935 0.039302 0.072580 0.967538 0.008431 0.252583
0.487428 0.876112 0.066911 -0.274929 -0.069940 0.958917
0.501858 0.516502 0.478637 -0.697417 0.045241 -0.715236
0.121297 0.342931 0.511923 -0.000013 0.517128 -0.855908
0.031137 0.892360 0.079547 -0.779021 0.146193 0.609717
0.277753 0.887157 0.035841 0.012897 0.026297 0.999571
0.049789 0.330269 0.254679 0.373349 -0.927691 0.000019
0.339955 0.189685 0.514350 0.000027 -0.808286 -0.588790
0.341728 0.565432 0.498636 -0.009413 0.995009 0.099342
0.294812 0.479758 0.518425 0.050483 -0.967547 -0.247596
0.164184 0.191491 0.527724 0.000021 -0.709692 0.704513
0.088220 0.497717 0.079881 -0.041768 0.059105 0.997378
0.104617 0.200356 0.058689 -0.000007 0.155508 0.987835
0.476225 0.874590 0.052574 0.249238 0.019947 -0.968237
0.369843 0.565432 0.143014 0.013872 0.994178 -0.106855
0.498204 0.029029 0.070481 -0.894662 0.005814 0.446705
0.465633 0.479758 0.525829 0.007885 -0.994190 -0.107347
0.433211 0.565432 0.491453 -0.000786 0.996908 0.078576
0.064383 0.125919 0.542938 0.961499 0.046334 0.270874
0.363393 0.489511 0.520334 0.020715 -0.840175 -0.541920
0.398214 0.563328 0.521759 0.012020 0.901254 0.433125
0.468984 0.879341 0.061737 -0.246293 -0.025847 0.968851
0.222913 0.548796 0.072706 -0.035946 0.107071 -0.993601
0.179551 0.191249 0.513443 0.000019 -0.567788 -0.823175
0.052176 0.383316 0.083461 0.376806 0.046286 0.925135
0.374119 0.479758 0.486191 0.019396 -0.954394 -0.297918
0.335227 0.529020 0.527505 -0.006865 0.028612 0.999567
0.525644 0.117140 0.082301 0.556970 0.025661 0.830136
0.036374 0.551395 0.047595 -0.460276 0.073036 -0.884767
0.427073 0.702989 0.051595 -0.225115 -0.158972 0.961276
0.526389 0.199426 0.218814 0.956035 0.293251 -0.000031
0.499174 0.459083 0.056526 -0.926076 0.072632 -0.370280
0.169108 0.565432 0.359599 -0.048136 0.998841 0.000644
0.488121 0.479758 0.517081 0.000491 -0.908846 -0.417131
0.534713 0.258544 0.073117 0.937364 0.033504 0.346736
0.064270 0.133082 0.072312 0.963687 0.019315 0.266333
0.408480 0.206329 0.044381 -0.000021 0.780764 -0.624826
0.027738 0.071471 0.542037 -0.891518 0.021377 0.452481
0.514336 0.536591 0.485667 0.304990 0.877079 -0.371097
0.063458 0.773775 0.074271 0.849302 0.092677 0.519708
0.501858 0.507242 0.495238 -0.552989 -0.344133 -0.758799
0.153145 0.522082 0.079885 -0.053239 0.392273 0.918307
0.215679 0.514603 0.520333 0.021027 -0.286039 -0.957987
0.307273 0.565432 0.241825 0.003780 0.999246 -0.038632
0.210423 0.532560 0.541646 -0.090325 0.390335 0.916231
0.514666 0.779530 0.044436 -0.011263 0.127313 -0.991799
0.508283 0.536591 0.346045 -0.256198 0.880042 -0.399861
0.523163 0.484361 0.218857 0.884588 -0.458333 -0.086223
0.201878 0.565432 0.473085 -0.019928 0.993638 0.110844
0.386995 0.188191 0.524500 0.000027 -0.874213 0.485542
0.050714 0.188182 0.105668 0.586010 -0.810304 0.000010
0.256124 0.483702 0.079890 0.021802 -0.368954 0.929192
0.352049 0.549814 0.072710 0.003029 0.089434 -0.995988
0.368414 0.479758 0.259425 -0.053989 -0.989375 -0.134989
0.450843 0.540553 0.072713 0.060066 0.050670 -0.996908
0.326817 0.496881 0.520334 0.019658 -0.718956 -0.694778
0.483654 0.479758 0.349392 -0.053737 -0.951470 -0.303013
0.173566 0.479758 0.290879 0.001653 -0.998341 -0.057551
0.054230 0.547778 0.454206 -0.984040 0.161666 0.074364
0.512916 0.923610 0.045161 -0.052334 0.154019 -0.986681
0.053532 0.333653 0.460033 0.666207 -0.745767 0.000007
0.030635 0.863699 0.051122 -0.640722 0.116131 -0.758939
0.102524 0.504680 0.541646 -0.050859 0.093367 0.994332
0.499775 0.561978 0.080069 0.469039 0.783074 -0.408408
0.412964 0.725956 0.037447 0.177212 -0.034027 -0.983584
0.431362 0.479758 0.213212 -0.085087 -0.983320 -0.160756
0.091287 0.494331 0.520333 0.105263 -0.908765 -0.403815
0.509027 0.525855 0.217209 0.999656 0.025779 0.004815
0.526868 0.434763 0.518361 0.538313 0.155673 -0.828242
0.487710 0.764659 0.066999 -0.257088 0.077405 0.963283
0.524574 0.202561 0.071976 0.690932 0.722920 -0.000037
0.055671 0.555936 0.177810 -0.933600 0.357901 -0.017292
0.170235 0.533381 0.527509 -0.058717 0.037015 0.997588
0.360044 0.837352 0.040586 -0.144082 -0.120436 0.982210
0.435078 0.761562 0.042617 0.228831 0.146116 -0.962438
0.497000 0.481988 0.061773 -0.991505 0.075495 -0.105917
0.418220 0.878885 0.038537 0.191551 0.006078 -0.981464
0.533540 0.454854 0.546872 0.736362 0.134641 0.663056
0.086812 0.479758 0.425621 0.069079 -0.996893 -0.037845
0.502814 0.509145 0.520186 -0.634026 0.118705 -0.764147
0.391620 0.501739 0.058585 0.022467 0.024550 -0.999446
0.198349 0.479758 0.395148 0.033752 -0.996831 -0.072039
0.535707 0.034522 0.529354 0.888167 0.018769 -0.459137
0.442388 0.862328 0.055301 -0.230519 -0.063823 0.970973
0.178527 0.196180 0.039895 0.000004 -0.024357 -0.999703
0.537062 0.186736 0.532626 0.975130 0.068910 -0.210647
0.204990 0.532100 0.079888 -0.049301 0.483259 0.874088
0.307720 0.565432 0.093190 0.001758 0.991672 -0.128774
0.332179 0.536591 0.075974 -0.009562 0.641557 0.767016
0.055938 0.030229 0.518336 0.344522 0.011591 -0.938707
0.314071 0.479758 0.369891 -0.003833 -0.986792 -0.161949
0.382818 0.565432 0.134434 0.016130 0.993379 -0.113746
0.027202 0.374885 0.059413 -0.968863 0.062324 -0.239625
0.510183 0.332854 0.301293 -0.739575 -0.673074 0.000039
0.526410 0.341468 0.173892 0.943832 0.330426 -0.000032
0.515527 0.308844 0.044079 -0.140612 0.052228 -0.988686
0.173141 0.195978 0.530316 0.000006 -0.259948 0.965623
0.497069 0.340557 0.532532 -0.980689 0.083102 -0.177039
0.494302 0.479758 0.409935 -0.036320 -0.934876 -0.353110
0.171341 0.565432 0.106807 -0.023054 0.994454 -0.102614
0.061407 0.490753 0.471014 0.239625 -0.956839 -0.164438
0.318772 0.565432 0.394504 -0.003772 0.998946 0.045744
0.269740 0.493115 0.079891 0.014523 -0.233051 0.972356
0.527916 0.286370 0.047988 0.483468 0.046206 -0.874142
0.170948 0.861879 0.034479 -0.168678 -0.049890 -0.984408
0.055996 0.284270 0.047579 0.419434 0.036405 -0.907055
0.037186 0.251767 0.518074 -0.487303 0.108741 -0.866436
0.399439 0.479758 0.085177 -0.121337 -0.986636 -0.108752
0.505524 0.248145 0.551929 -0.534245 0.082629 0.841282
0.523769 0.190772 0.196540 0.785225 -0.619211 -0.000000
0.302934 0.565432 0.256679 0.003193 0.999573 -0.029037
0.415300 0.890481 0.037831 0.196222 0.040091 -0.979740
0.244862 0.479758 0.154282 -0.063233 -0.995297 -0.073379
0.101555 0.747534 0.059973 0.247037 0.100210 0.963811
0.115915 0.479758 0.314980 0.022858 -0.998764 -0.044125
0.336254 0.533523 0.520334 -0.435817 0.404611 -0.803961
0.061414 0.497559 0.194392 0.403387 -0.904902 -0.135765
0.315205 0.334738 0.041933 0.000019 -0.537944 -0.842980
0.286988 0.524001 0.058580 0.020360 0.267555 -0.963327
0.375521 0.338136 0.039972 0.000010 -0.238393 -0.971169
0.169654 0.335851 0.041288 0.000012 -0.294689 -0.955593
0.260040 0.565432 0.379292 -0.007857 0.998813 0.048074
0.511212 0.347833 0.314874 -0.548814 0.835944 -0.000010
0.523161 0.510354 0.127290 0.985270 -0.158593 -0.063961
0.411248 0.565432 0.352886 0.078453 0.996817 0.014186
0.310442 0.920841 0.028785 0.134510 0.221736 -0.965785
0.342477 0.732271 0.027898 0.084785 -0.007630 -0.996370
0.025279 0.103815 0.534954 -0.995487 0.023892 0.091839
0.052122 0.351375 0.083484 0.381102 0.042755 0.923544
0.124039 0.865631 0.043617 -0.224629 -0.048812 -0.973221
0.491427 0.889935 0.068163 -0.277252 -0.035649 0.960136
0.501856 0.522804 0.404209 -0.763889 0.260804 -0.590300
0.253397 0.524195 0.541646 -0.067551 0.237507 0.969034
0.226401 0.917812 0.027630 -0.045927 0.115018 -0.992301
0.498735 0.033445 0.542484 -0.865434 0.020944 0.500586
0.508262 0.479758 0.293285 0.216469 -0.928654 -0.301235
0.253587 0.565432 0.120283 -0.007790 0.994409 -0.105310
0.537712 0.032961 0.536803 0.995220 0.016813 -0.096203
0.149903 0.565432 0.362641 -0.057416 0.998350 0.000690
0.399340 0.544809 0.072711 0.027150 0.058753 -0.997903
0.501468 0.539568 0.526343 -0.707805 0.416658 -0.570445
0.133466 0.562477 0.523058 -0.052442 0.709111 0.703144
0.387073 0.479758 0.321352 -0.038545 -0.979912 -0.195669
0.534814 0.930833 0.072871 0.847515 0.140705 0.511782
0.311119 0.194339 0.529367 0.000008 -0.310569 0.950551
0.505719 0.127933 0.518983 -0.656951 0.032733 -0.753223
0.106702 0.565432 0.460637 -0.064397 0.997923 0.001386
0.498954 0.234050 0.527981 -0.935665 0.057381 -0.348194
0.040948 0.330316 0.280359 -0.500104 -0.865966 0.000039
0.523162 0.533204 0.154873 0.975721 0.216463 -0.033353
0.535384 0.216416 0.057851 0.901858 0.030080 -0.430983
0.054230 0.524480 0.328394 -0.999084 0.024746 -0.034909
0.108910 0.863224 0.058193 0.226471 -0.028870 0.973590
0.301236 0.480280 0.058580 -0.027251 -0.428808 -0.902984
0.479818 0.759601 0.053444 0.264673 0.172114 -0.948855
0.517802 0.139141 0.556390 0.134786 0.032332 0.990347
0.063306 0.356651 0.545538 0.850765 0.126666 0.510054
0.052403 0.453652 0.554184 0.210391 0.163957 0.963771
0.501046 0.181943 0.077344 -0.699687 0.021953 0.714112
0.054797 0.536591 0.296739 -0.094639 0.378549 -0.920730
0.501855 0.517297 0.368816 -0.786409 0.049936 -0.615684
0.425797 0.479758 0.099305 -0.121983 -0.985846 -0.115010
0.054230 0.525900 0.314833 -0.998867 0.029669 -0.037209
0.038533 0.409413 0.553538 -0.475493 0.131279 0.869869
0.054230 0.539206 0.285509 -0.996682 0.079298 -0.018363
0.103408 0.479758 0.087300 -0.056608 -0.997601 -0.039839
0.403854 0.565432 0.370945 0.077738 0.996858 0.015211
0.072569 0.348629 0.052998 -0.000026 0.858540 0.512746
0.473725 0.479758 0.520417 0.005188 -0.914878 -0.403696
0.065373 0.135240 0.059809 0.927215 0.028381 -0.373453
0.385866 0.536591 0.066720 0.053389 0.974740 -0.216866
0.247225 0.521335 0.079890 -0.025365 0.260108 0.965246
0.051238 0.330267 0.193768 0.551776 -0.833992 0.000012
0.417055 0.565432 0.426862 0.094755 0.995278 0.021029
0.288508 0.565432 0.218189 0.000002 0.998723 -0.050522
0.166145 0.503572 0.541646 -0.037706 0.018643 0.999115
0.519258 0.788508 0.044402 0.229373 0.123160 -0.965515
0.367963 0.512447 0.541647 -0.033733 -0.040294 0.998618
0.516310 0.795731 0.043755 0.081998 0.125677 -0.988677
0.090138 0.565432 0.120137 -0.124522 0.992217 -0.000802
0.523169 0.525312 0.419948 0.931587 0.356940 -0.068845
0.517960 0.479758 0.297842 0.710369 -0.676344 -0.194770
0.525391 0.639910 0.082406 0.402360 0.109461 0.908914
0.050447 0.348632 0.171383 0.297464 0.954733 -0.000035
0.380823 0.699844 0.034150 0.079754 -0.203947 -0.975728
0.067280 0.565432 0.402513 -0.093185 0.995648 0.001063
0.506414 0.339525 0.148904 -0.991843 -0.127469 0.000030
0.249297 0.479758 0.530517 0.061973 -0.913219 0.402729
0.419784 0.565432 0.141029 0.023011 0.993144 -0.114608
0.054230 0.535499 0.286252 -0.997644 0.063141 -0.026817
0.369884 0.338515 0.510454 0.000008 -0.191040 -0.981582
0.273654 0.506215 0.520333 0.019211 -0.506087 -0.862269
0.042790 0.418123 0.555301 -0.274797 0.137895 0.951563
0.200400 0.565432 0.286808 -0.043340 0.999060 0.000127
0.432206 0.699844 0.052480 -0.233160 -0.190569 0.953583
0.150312 0.479758 0.298353 0.009401 -0.998596 -0.052122
0.501855 0.515878 0.351758 -0.788705 -0.007294 -0.614729
0.347109 0.479758 0.289965 -0.038581 -0.989870 -0.136632
0.499496 0.709612 0.059588 0.279415 -0.015325 -0.960048
0.057800 0.676800 0.081132 0.574370 0.078382 0.814835
0.081954 0.479758 0.141337 -0.032534 -0.998852 -0.035170
0.468636 0.565432 0.434757 0.123532 0.992014 0.025467
0.271662 0.479758 0.401695 0.017522 -0.989318 -0.144720
0.504316 0.288068 0.080624 -0.546285 0.033965 0.836910
0.232058 0.348634 0.521003 -0.000029 0.995587 0.093838
0.139038 0.890383 0.050902 0.209171 0.043537 0.976909
0.142921 0.479758 0.240942 -0.009790 -0.998699 -0.050050
0.510776 0.331825 0.264137 -0.624998 -0.780626 0.000040
0.055534 0.337123 0.180548 0.988170 -0.153360 -0.000019
0.056009 0.198864 0.118501 0.946511 0.322670 -0.000032
0.327892 0.565432 0.413938 -0.004398 0.998484 0.054875
0.438108 0.479758 0.155183 -0.105257 -0.986378 -0.126410
0.119491 0.565432 0.159752 -0.103711 0.994607 -0.000586
0.026205 0.255872 0.538336 -0.984369 0.062139 0.164791
0.464599 0.565432 0.178473 0.075727 0.997124 0.002981
0.098656 0.479758 0.328852 0.031598 -0.998694 -0.040145
0.420275 0.339752 0.510082 0.000006 -0.107690 -0.994184
0.523163 0.523598 0.183907 0.994008 0.106028 -0.026585
0.094714 0.479758 0.539920 0.006115 -0.338296 0.941020
0.056173 0.536591 0.519163 -0.275839 0.240623 -0.930598
0.519670 0.348629 0.072917 0.075416 0.997152 -0.000030
0.214935 0.565432 0.128649 -0.014762 0.995353 -0.095153
0.458708 0.565432 0.193589 0.075289 0.997154 0.003858
0.122566 0.529166 0.520333 0.014185 0.073630 -0.997185
0.031001 0.120752 0.549914 -0.655899 0.035592 0.754009
0.076814 0.479758 0.343329 0.041524 -0.998521 -0.035094
0.236661 0.507171 0.058577 -0.013328 -0.069211 -0.997513
0.413107 0.479758 0.124145 -0.110434 -0.987513 -0.112348
0.496815 0.206559 0.045838 -0.000022 0.813844 -0.581084
0.509910 0.333317 0.159107 -0.675548 -0.737316 0.000040
0.500906 0.217300 0.547729 -0.759564 0.094342 0.643555
0.501859 0.486543 0.513075 -0.097237 -0.855135 -0.509205
0.050214 0.552431 0.084274 0.233032 0.076686 0.969441
0.028530 0.270374 0.527107 -0.911775 0.070551 -0.404584
0.533355 0.428597 0.547318 0.734063 0.126032 0.667284
0.471482 0.565432 0.423663 0.123067 0.992091 0.024713
0.493014 0.535053 0.541647 -0.052265 0.173246 0.983491
0.115910 0.565432 0.183795 -0.101865 0.994798 -0.000424
0.519293 0.479758 0.182106 0.675944 -0.713912 -0.182837
0.495991 0.386419 0.535857 -0.994815 0.095830 -0.034058
0.520082 0.188185 0.191542 0.396736 -0.917933 0.000019
0.295294 0.479758 0.442088 0.024954 -0.980482 -0.195017
0.454367 0.479758 0.061908 0.029914 -0.426333 -0.904072
0.521042 0.479758 0.409410 0.899894 -0.424720 -0.099017
0.180053 0.912057 0.033171 -0.117130 0.098901 -0.988180
0.242536 0.535021 0.520333 -0.275628 0.352697 -0.894223
0.290116 0.479758 0.342765 -0.006677 -0.992671 -0.120663
0.501851 0.501524 0.218414 -0.590830 -0.664986 -0.456851
0.065841 0.480650 0.520333 0.108016 -0.992780 -0.052153
0.446260 0.344622 0.042193 -0.000009 0.422049 -0.906573
0.282270 0.479758 0.124320 -0.082110 -0.993254 -0.081883
0.078597 0.512879 0.058569 -0.052523 -0.171864 -0.983719
0.505055 0.157455 0.080930 -0.487212 0.019679 0.873062
0.508450 0.193782 0.424514 -0.963855 -0.266427 0.000033
0.387812 0.748424 0.033834 0.163817 0.068350 -0.984120
0.060454 0.536591 0.115138 0.929683 0.017941 -0.367924
0.187193 0.479758 0.424102 0.046148 -0.995582 -0.081776
0.156654 0.536591 0.069324 -0.058726 0.991146 -0.119088
0.116731 0.486833 0.058571 -0.070478 -0.547003 -0.834159
0.240342 0.479758 0.400149 0.024924 -0.993115 -0.114459
0.511568 0.446277 0.083628 -0.254444 0.055888 0.965471
0.328395 0.344727 0.512957 -0.000013 0.529789 -0.848129
0.050950 0.206556 0.366105 0.520132 0.854086 -0.000037
0.187355 0.479758 0.445529 0.053265 -0.993877 -0.096801
0.510185 0.062898 0.083056 -0.202375 0.011366 0.979242
0.407829 0.885267 0.047450 -0.174812 0.018770 0.984423
0.499165 0.479758 0.306956 -0.071633 -0.955002 -0.287820
0.292984 0.536591 0.528836 -0.597503 0.801580 -0.021450
0.447857 0.479758 0.310787 -0.057502 -0.968037 -0.244127
0.129701 0.188183 0.519276 0.000031 -0.962121 -0.272623
0.239217 0.565432 0.167832 -0.009758 0.997165 -0.074605
0.082412 0.348630 0.052386 -0.000027 0.893067 0.449924
0.210234 0.479758 0.495372 0.064266 -0.986153 -0.152879
0.029671 0.522015 0.076008 -0.823041 0.090279 0.560761
0.060177 0.064250 0.049311 0.549651 0.012867 -0.835295
0.501883 0.536591 0.140531 -0.595805 0.739969 -0.312189
0.162558 0.918171 0.035684 -0.137049 0.116632 -0.983674
0.397907 0.565432 0.178257 0.033901 0.997352 -0.064345
0.192247 0.479758 0.424062 0.044887 -0.995246 -0.086430
0.333663 0.565432 0.462067 -0.007435 0.996723 0.080553
0.276565 0.844679 0.025241 -0.034456 -0.097614 -0.994628
0.321357 0.479758 0.134993 -0.086751 -0.992056 -0.091102
0.536360 0.477614 0.060206 0.970263 0.059768 -0.234557
0.239775 0.565432 0.284447 -0.023707 0.999719 0.000057
0.343795 0.489169 0.520334 0.027095 -0.855915 -0.516406
0.066789 0.938027 0.063228 0.991268 0.118073 0.058717
0.501109 0.920798 0.060093 0.286099 0.290277 -0.913174
0.535544 0.890201 0.071111 0.899344 0.125629 0.418805
0.265925 0.529246 0.520333 -0.263372 0.224352 -0.938244
0.460714 0.188193 0.045049 0.000031 -0.956739 -0.290946
0.065186 0.213337 0.070101 0.984100 0.029486 0.175152
0.512448 0.330276 0.486934 -0.610559 -0.791971 0.000040
0.484891 0.565432 0.267253 0.102344 0.994675 0.012151
0.050263 0.168925 0.515984 0.128196 0.046119 -0.990676
0.186279 0.188184 0.525625 0.000028 -0.916938 0.399030
0.181387 0.479758 0.067191 -0.050620 -0.985112 -0.164293
0.511014 0.885051 0.045949 -0.174515 0.150862 -0.973029
0.272133 0.479758 0.208332 -0.049672 -0.995542 -0.080186
0.355597 0.555049 0.526507 0.043967 0.303101 0.951944
0.052839 0.190372 0.399067 0.605751 -0.795654 0.000010
0.518532 0.607335 0.085247 0.053218 0.080823 0.995307
0.250454 0.479758 0.127573 -0.074046 -0.994470 -0.074477
0.135944 0.479758 0.292451 0.010373 -0.998759 -0.048709
0.439265 0.479758 0.176461 -0.098843 -0.984873 -0.142319
0.163944 0.565432 0.332152 -0.054937 0.998490 0.000473
0.497523 0.523857 0.526560 0.171798 0.025478 0.984803
0.329880 0.728431 0.027298 0.062985 -0.025148 -0.997698
0.274711 0.479758 0.287478 -0.021568 -0.996451 -0.081360
0.061640 0.874525 0.060249 -0.288472 -0.134458 -0.948000
0.425777 0.512078 0.520334 -0.412371 -0.215886 -0.885067
0.293151 0.565432 0.155220 -0.000037 0.995999 -0.089369
0.070358 0.565432 0.445433 -0.085105 0.996371 0.001337
0.501850 0.490676 0.173935 -0.319063 -0.905656 -0.279259
0.523160 0.505421 0.098443 0.959085 -0.271503 -0.080265
0.199319 0.479758 0.490264 0.065278 -0.988122 -0.139119
0.054198 0.192725 0.456642 0.767547 -0.640993 0.000001
0.104261 0.702877 0.048403 -0.249582 -0.182273 -0.951044
0.317627 0.330271 0.051538 0.000030 -0.978737 0.205118
0.482613 0.479758 0.102329 -0.133207 -0.982479 -0.130349
0.056867 0.232560 0.047939 0.446437 0.030828 -0.894284
0.309609 0.479758 0.426455 0.016093 -0.980190 -0.197407
0.330261 0.740815 0.037972 -0.063054 0.031524 0.997512
0.499293 0.723532 0.073109 -0.903433 0.092614 0.418606
0.496505 0.311756 0.537098 -0.993221 0.088818 0.074990
0.196772 0.565432 0.243532 -0.051778 0.998659 -0.000149
0.251875 0.479758 0.385685 0.017214 -0.993206 -0.115093
0.479719 0.531976 0.058590 0.080884 0.614033 -0.785125
0.207558 0.565432 0.220294 -0.014813 0.999146 -0.038575
0.519865 0.233113 0.515459 0.080937 0.078374 -0.993633
0.520158 0.749603 0.044774 0.261203 0.117478 -0.958109
0.134818 0.878712 0.051924 0.206128 0.009600 0.978478
0.472166 0.495243 0.520334 -0.185830 -0.725786 -0.662345
0.527009 0.338466 0.181935 0.999999 -0.001574 -0.000023
0.507145 0.595048 0.047552 -0.476038 0.101663 -0.873529
0.207591 0.479758 0.092811 -0.077216 -0.994946 -0.064192
0.514051 0.206558 0.457794 -0.131270 0.991347 -0.000025
0.208901 0.479758 0.352363 0.016302 -0.997671 -0.066233
0.512770 0.626385 0.045222 -0.174005 0.105713 -0.979054
0.189575 0.507551 0.520333 0.047010 -0.526841 -0.848663
0.044604 0.794464 0.044185 0.003268 0.091210 -0.995826
0.251715 0.565432 0.411300 -0.010959 0.997665 0.067411
0.354227 0.835591 0.035504 -0.254726 -0.508431 0.822565
0.461461 0.190862 0.042973 0.000027 -0.803457 -0.595362
0.235227 0.565432 0.292249 -0.024829 0.999692 0.000114
0.220482 0.565432 0.499079 -0.020182 0.992350 0.121796
0.201904 0.565432 0.148770 -0.016870 0.996552 -0.081243
0.238886 0.563790 0.521061 -0.007350 0.920928 0.389664
0.040032 0.438968 0.046079 -0.325101 0.057090 -0.943954
0.054911 0.534967 0.084838 -0.973990 0.071084 -0.215152
0.514169 0.919610 0.084706 -0.256285 0.110166 0.960303
0.166486 0.565432 0.389270 -0.044948 0.998989 0.000840
0.279070 0.768043 0.035285 0.041834 0.170070 0.984544
0.265588 0.512374 0.058579 0.000622 0.048531 -0.998821
0.237693 0.330269 0.517207 0.000030 -0.930175 -0.367116
0.273654 0.536591 0.524098 -0.475635 0.622177 -0.621826
0.055832 0.203926 0.056626 -0.000017 0.517729 0.855545
0.531301 0.385857 0.520198 0.705587 0.137465 -0.695162
0.501859 0.511497 0.500292 -0.624994 -0.158038 -0.764465
0.510790 0.736826 0.046042 -0.242587 0.125796 -0.961939
0.504853 0.027482 0.519342 -0.724419 0.008000 -0.689313
0.036139 0.286054 0.047692 -0.559494 0.039856 -0.827875
0.125927 0.479758 0.378399 0.043657 -0.997949 -0.046810
0.397184 0.479758 0.433270 -0.004059 -0.959209 -0.282668
0.061418 0.504103 0.082031 0.542504 -0.819760 -0.183530
0.230923 0.479758 0.166366 -0.055854 -0.995968 -0.070206
0.156182 0.498934 0.079885 -0.023293 -0.003114 0.999724
0.082966 0.505912 0.520333 0.096022 -0.663783 -0.741736
0.231003 0.479758 0.536888 0.024665 -0.642389 0.765982
0.337621 0.743552 0.038323 -0.070814 0.044081 0.996515
0.164016 0.735866 0.046215 0.170121 0.011214 0.985359
0.499493 0.065570 0.526680 -0.947263 0.020142 -0.319825
0.535622 0.168581 0.529149 0.915516 0.065474 -0.396918
0.404517 0.565432 0.413770 0.085742 0.996137 0.018976
0.499689 0.514361 0.074065 -0.857615 0.061045 0.510657
0.318456 0.479758 0.517094 0.043960 -0.962303 -0.268404
0.456670 0.565432 0.098414 0.029133 0.988990 -0.145085
0.272064 0.479758 0.267383 -0.028282 -0.996345 -0.080599
0.500650 0.476147 0.076386 -0.782262 0.056019 0.620426
0.422948 0.479758 0.262409 -0.067022 -0.979980 -0.187478
0.289425 0.565432 0.478496 -0.012565 0.995128 0.097784
0.509032 0.527743 0.474669 0.994530 0.028958 0.100359
0.451684 0.757607 0.057550 -0.212115 0.091651 0.972937
0.507443 0.451919 0.552724 -0.540663 0.155262 0.826787
0.241804 0.755197 0.037552 0.078688 0.097256 0.992144
0.400848 0.479758 0.142735 -0.101164 -0.988803 -0.109698
0.279782 0.479758 0.452384 0.032340 -0.981681 -0.187767
0.536519 0.475916 0.060590 0.974405 0.059094 -0.216894
0.055192 0.086695 0.047246 0.323876 0.014289 -0.945992
0.044168 0.536591 0.179887 -0.778060 0.475374 -0.410660
0.523170 0.489946 0.479698 0.993483 -0.108750 -0.034117
0.040100 0.489495 0.287813 -0.955661 -0.291860 -0.039100
0.532391 0.765976 0.078720 0.692449 0.129120 0.709818
0.219051 0.479758 0.442128 0.044254 -0.991303 -0.123932
0.497069 0.028684 0.532530 -0.999768 0.015678 0.014780
0.395041 0.479758 0.207405 -0.077585 -0.989342 -0.123222
0.406391 0.330274 0.050000 0.000030 -0.990660 0.136355
0.320257 0.479758 0.485559 0.033033 -0.968104 -0.248361
0.222078 0.762813 0.038492 0.114118 0.131486 0.984728
0.489902 0.479758 0.248954 -0.088372 -0.966902 -0.239356
0.311789 0.504068 0.541647 -0.026003 -0.112192 0.993346
0.527150 0.198096 0.060707 0.957278 0.289168 -0.000031
0.049804 0.330266 0.169348 0.455981 -0.889989 0.000016
0.530473 0.519886 0.049046 0.664156 0.072444 -0.744075
0.036528 0.114914 0.518347 -0.585914 0.054240 -0.808556
0.327947 0.565432 0.468535 -0.008418 0.996329 0.085191
0.068070 0.348629 0.053843 -0.000025 0.811905 0.583789
0.188002 0.532798 0.520333 -0.149838 0.240302 -0.959064
0.511146 0.206892 0.045894 -0.397061 0.038714 -0.916975
0.516355 0.449040 0.043736 -0.044438 0.073031 -0.996339
0.073056 0.565432 0.506135 -0.091826 0.995284 0.031259
0.283077 0.565432 0.267285 -0.000300 0.999800 -0.019985
0.250444 0.565432 0.379719 -0.008740 0.998707 0.050076
0.418208 0.757928 0.038534 0.211157 0.117108 -0.970411
0.509771 0.333573 0.368572 -0.828790 -0.559560 0.000038
0.207399 0.480669 0.541646 -0.004370 -0.359946 0.932963
0.251356 0.348634 0.523838 -0.000028 0.934681 0.355488
0.042244 0.408585 0.515979 -0.142313 0.127864 -0.981528
0.148590 0.513641 0.520333 0.048061 -0.357441 -0.932698
0.132930 0.565432 0.230289 -0.086181 0.996280 -0.000146
0.184210 0.501016 0.058574 -0.036081 -0.239696 -0.970177
0.494533 0.900628 0.069136 -0.278849 -0.009178 0.960291
0.154452 0.479758 0.302909 0.010156 -0.998536 -0.053121
0.449708 0.479758 0.109937 -0.123339 -0.985002 -0.120661
0.534507 0.542360 0.073614 0.891639 0.073361 0.446764
0.330722 0.333870 0.513135 0.000021 -0.631987 -0.774979
0.520204 0.249624 0.044794 0.080921 0.042939 -0.995795
0.501853 0.525484 0.274131 -0.741654 0.457449 -0.490601
0.050491 0.059704 0.045299 0.064063 0.009263 -0.997903
0.436670 0.524524 0.072712 0.102329 0.019974 -0.994550
0.232598 0.854409 0.037991 0.051116 -0.069783 0.996252
0.032445 0.623795 0.080235 -0.674972 0.104817 0.730360
0.392588 0.524151 0.058585 0.050507 0.403372 -0.913641
0.390330 0.704240 0.034195 0.124230 -0.135024 -0.983024
0.442970 0.536591 0.528548 -0.686923 0.723520 0.068235
0.450278 0.565432 0.349237 0.098574 0.994989 0.016724
0.051175 0.188193 0.456752 0.309693 -0.950837 0.000022
0.423502 0.479758 0.391264 -0.024703 -0.960359 -0.277669
0.444485 0.479758 0.368534 -0.037557 -0.958971 -0.281006
0.408429 0.565432 0.392189 0.083972 0.996316 0.017389
0.190069 0.565432 0.443863 -0.018831 0.995123 0.096828
0.055512 0.479758 0.225322 -0.260813 -0.964656 -0.037632
0.061410 0.531981 0.357282 0.509668 0.032925 -0.859741
0.222292 0.479758 0.525654 0.074508 -0.988583 0.130967
0.062002 0.347207 0.548686 0.752033 0.124640 0.647234
0.029473 0.804075 0.053929 -0.761078 0.116733 -0.638070
0.380952 0.565432 0.131307 0.015742 0.993196 -0.115390
0.103001 0.565432 0.278781 -0.093944 0.995577 0.000211
0.523166 0.481749 0.337952 0.925580 -0.373071 -0.064193
0.498587 0.515936 0.542129 -0.960787 0.171977 0.217515
0.245881 0.565432 0.342797 -0.006416 0.999518 0.030368
0.030958 0.272414 0.050343 -0.775869 0.038439 -0.629722
0.449926 0.479758 0.260595 -0.074487 -0.974643 -0.211006
0.523161 0.498109 0.138487 0.935921 -0.342239 -0.083212
0.497135 0.337683 0.059392 -0.000003 0.028130 0.999604
0.046731 0.348630 0.123332 -0.106193 0.994346 -0.000026
0.532104 0.519026 0.550339 0.570679 0.136605 0.809732
0.237267 0.535887 0.520333 -0.273681 0.367803 -0.888718
0.518717 0.517037 0.085170 0.093024 0.071161 0.993118
0.064627 0.529641 0.071451 0.936486 0.064136 0.344790
0.039138 0.333464 0.456268 -0.863652 -0.504089 0.000036
0.474155 0.485275 0.520334 -0.025196 -0.858306 -0.512520
0.284327 0.488770 0.520334 0.045686 -0.890976 -0.451746
0.171863 0.479758 0.134414 -0.054531 -0.996932 -0.056147
0.311488 0.479758 0.314873 -0.021300 -0.992422 -0.121013
0.061405 0.518096 0.519123 0.075404 -0.263356 -0.961747
0.523069 0.479758 0.263659 0.872905 -0.480391 -0.085215
0.050296 0.348639 0.414765 0.510072 0.860132 -0.000037
0.062736 0.363461 0.076015 0.861656 0.043307 0.505642
0.041548 0.481413 0.045451 -0.242252 0.060436 -0.968329
0.040104 0.516894 0.127087 -0.965173 0.217372 -0.145568
0.176307 0.479758 0.539532 0.008371 -0.447386 0.894302
0.178172 0.565432 0.464698 -0.021415 0.993640 0.110551
0.218636 0.502190 0.541646 -0.026183 -0.046849 0.998559
0.060042 0.562808 0.093434 -0.613941 0.788993 -0.023780
0.480433 0.565432 0.461516 0.134512 0.990498 0.028633
0.151922 0.565432 0.274158 -0.069873 0.997556 0.000113
0.486034 0.565432 0.195762 0.090211 0.995904 0.006046
0.193095 0.529530 0.058575 0.001116 0.240889 -0.970552
0.131261 0.565432 0.272603 -0.080582 0.996748 0.000131
0.053040 0.765602 0.046354 0.405421 0.104412 -0.908148
0.351237 0.479758 0.131363 -0.094514 -0.990685 -0.098036
0.342868 0.542313 0.527505 0.031006 0.088065 0.995632
0.075548 0.768043 0.059022 -0.183179 0.400488 -0.897806
0.133188 0.479758 0.313058 0.018433 -0.998669 -0.048175
0.078539 0.479758 0.184512 -0.016231 -0.999268 -0.034628
0.520914 0.860073 0.084260 0.094501 0.121228 0.988116
0.096427 0.565432 0.236285 -0.103725 0.994606 -0.000056
0.373119 0.524286 0.072710 0.078183 0.019509 -0.996748
0.074665 0.889358 0.056171 -0.266271 -0.021133 -0.963666
0.030584 0.608745 0.078212 -0.769472 0.103116 0.630302
0.262282 0.513400 0.541646 -0.043296 0.074072 0.996313
0.040102 0.498412 0.210884 -0.994994 -0.089605 -0.044258
0.095682 0.479758 0.529442 0.076120 -0.874544 0.478934
0.276582 0.565432 0.295603 -0.003343 0.999994 0.000079
0.074753 0.536591 0.535631 -0.169463 0.808669 0.563327
0.258999 0.565432 0.203775 -0.005618 0.998449 -0.055390
0.477295 0.479758 0.283083 -0.074034 -0.964985 -0.251641
0.040366 0.483341 0.045941 -0.296894 0.061967 -0.952898
0.062157 0.378411 0.522741 0.776002 0.090613 -0.624187
0.057323 0.215911 0.518909 0.499254 0.051542 -0.864922
0.100631 0.565432 0.237766 -0.101378 0.994848 -0.000052
0.026659 0.967349 0.060723 -0.915675 0.150354 -0.372736
0.517108 0.206556 0.377155 0.098323 0.995155 -0.000030
0.490175 0.565432 0.354215 0.120617 0.992496 0.020062
0.040093 0.500910 0.519673 -0.927496 -0.367682 -0.067538
0.340716 0.196002 0.510702 0.000009 -0.210099 -0.977680
0.125521 0.484046 0.079883 -0.013603 -0.203010 0.979082
0.522127 0.536591 0.215993 0.925781 0.372628 -0.063860
0.057378 0.455868 0.552123 0.468799 0.163826 0.867979
0.037759 0.144869 0.553217 -0.356263 0.052187 0.932927
0.054230 0.522962 0.406340 -0.999785 0.019731 -0.006380
0.508772 0.335299 0.312631 -0.900934 -0.433956 0.000036
0.356083 0.348637 0.048583 -0.000028 0.981109 -0.193457
0.054231 0.527124 0.125730 -0.993170 0.033121 -0.111873
0.067291 0.388496 0.065018 0.998251 0.049689 -0.032017
0.506832 0.558418 0.463158 0.911823 0.407389 0.051121
0.322091 0.767933 0.026927 0.091084 0.153569 -0.983931
0.040100 0.491873 0.278686 -0.967817 -0.248443 -0.040083
0.097186 0.503454 0.079882 -0.046879 0.147219 0.987992
0.097290 0.479758 0.154228 -0.031214 -0.998758 -0.038832
0.412848 0.702677 0.048171 -0.212365 -0.150094 0.965595
0.109057 0.506859 0.520333 0.082215 -0.612791 -0.785957
0.501851 0.510845 0.202001 -0.814493 -0.172262 -0.554009
0.501407 0.630097 0.078215 -0.744923 0.072027 0.663251
0.507017 0.338342 0.363049 -0.999117 -0.042025 0.000027
0.147945 0.536591 0.521092 -0.133968 0.328123 -0.935087
0.079883 0.565432 0.494232 -0.079932 0.996707 0.013673
0.524309 0.079104 0.553695 0.483929 0.023726 0.874785
0.029115 0.080650 0.525696 -0.925496 0.026149 -0.377855
0.186712 0.495868 0.520333 0.069613 -0.832670 -0.549377
0.150478 0.874674 0.037419 -0.186784 -0.013477 -0.982309
0.522861 0.189200 0.243414 0.626801 -0.779180 0.000009
0.532641 0.374079 0.078117 0.796392 0.061415 0.601654
0.061410 0.499317 0.347133 0.507817 -0.849364 -0.143885
0.111974 0.536487 0.541646 -0.110408 0.519233 0.847471
0.271822 0.565432 0.292649 -0.006204 0.999981 0.000066
0.030984 0.197350 0.521184 -0.774079 0.079763 -0.628044
0.103901 0.565432 0.410059 -0.073513 0.997294 0.001062
0.536010 0.037269 0.530086 0.906479 0.019670 -0.421793
0.133351 0.709302 0.041364 -0.223357 -0.127088 -0.966416
0.498724 0.242307 0.528535 -0.943779 0.059668 -0.325149
0.064476 0.426767 0.071815 0.941697 0.052784 0.332296
0.414108 0.479758 0.443042 -0.005136 -0.952470 -0.304588
0.243370 0.565432 0.403020 -0.011089 0.997866 0.064341
0.523164 0.517274 0.237084 0.997554 0.064192 -0.027673
0.121758 0.549569 0.072703 -0.069270 0.127777 -0.989381
0.240311 0.565432 0.328516 -0.016733 0.999860 0.000343
0.203741 0.479758 0.468515 0.056895 -0.990132 -0.128070
0.153778 0.479758 0.497334 0.078857 -0.991696 -0.101590
0.537701 0.151182 0.065904 0.997730 0.017966 -0.064906
0.501849 0.532541 0.139106 -0.637135 0.692093 -0.339215
0.115751 0.565432 0.296983 -0.084724 0.996404 0.000311
0.224066 0.512255 0.058576 -0.010619 -0.001172 -0.999943
0.054230 0.547679 0.252559 -0.992047 0.125363 -0.011226
0.493149 0.479758 0.533297 -0.001025 -0.928729 0.370759
0.225548 0.479758 0.105151 -0.076687 -0.994701 -0.068480
0.135735 0.537296 0.527509 -0.060551 0.044514 0.997172
0.136249 0.479758 0.474200 0.075325 -0.994746 -0.069330
0.053012 0.623018 0.083115 0.360946 0.081074 0.929056
0.030489 0.400390 0.548680 -0.824369 0.107372 0.555775
0.381042 0.565432 0.359852 0.063589 0.997897 0.012575
0.042393 0.733431 0.045101 -0.122308 0.088660 -0.988524
0.148960 0.562502 0.077194 -0.065404 0.800855 -0.595276
0.078577 0.479758 0.274923 0.016422 -0.999247 -0.035147
0.054385 0.967896 0.068982 0.795132 0.316746 0.517143
0.112713 0.524686 0.541646 -0.090756 0.372903 0.923421
0.433085 0.565432 0.264518 0.074305 0.997202 0.008123
0.359259 0.920062 0.040473 -0.077459 0.122236 0.989474
0.501855 0.500493 0.363278 -0.482003 -0.657341 -0.579289
0.523554 0.332483 0.096756 0.811645 -0.584151 -0.000002
0.040099 0.491540 0.291213 -0.963089 -0.266058 -0.040887
0.092608 0.565432 0.226285 -0.107173 0.994240 -0.000116
0.234991 0.479758 0.360495 0.013132 -0.996555 -0.081891
0.456769 0.565432 0.233947 0.081459 0.996651 0.007210
0.497961 0.275551 0.069895 -0.930903 0.034209 0.363661
0.500607 0.488712 0.523991 -0.778392 0.117855 -0.616617
0.526023 0.975000 0.057128 0.306370 0.935670 -0.175097
0.348632 0.482271 0.058583 -0.012126 -0.340656 -0.940110
0.515935 0.188190 0.364253 -0.178955 -0.983857 0.000035
0.233263 0.348633 0.523707 -0.000028 0.932671 0.360728
0.136385 0.479758 0.357887 0.033981 -0.998212 -0.049167
0.391104 0.565432 0.370133 0.070795 0.997390 0.014206
0.495949 0.193167 0.535757 -0.995530 0.053795 0.077630
0.056120 0.536591 0.161042 0.637795 0.269122 -0.721658
0.519072 0.825600 0.085023 0.008178 0.108373 0.994077
0.039796 0.190232 0.329392 -0.715715 -0.698393 0.000039
0.212228 0.479758 0.104654 -0.073978 -0.995115 -0.065365
0.382469 0.189858 0.056078 0.000019 -0.689078 0.724687
0.168399 0.565432 0.212798 -0.070867 0.997486 -0.000309
0.039081 0.333556 0.371518 -0.829113 -0.559081 0.000037
0.466122 0.479758 0.207015 -0.095961 -0.977401 -0.188360
0.342824 0.479758 0.393912 -0.003222 -0.978653 -0.205492
0.042904 0.330276 0.483913 -0.519284 -0.854602 0.000039
0.078513 0.479758 0.164013 -0.023618 -0.999125 -0.034502
0.532411 0.259235 0.078674 0.800988 0.044007 0.597060
0.037549 0.783673 0.047108 -0.338298 0.100619 -0.935644
0.408081 0.479758 0.089344 -0.121714 -0.986362 -0.110799
0.515523 0.330264 0.082926 0.042639 -0.999091 0.000030
0.124972 0.565432 0.333020 -0.074567 0.997216 0.000532
0.501859 0.509424 0.528190 -0.984215 -0.148720 -0.095929
0.097984 0.754429 0.049922 -0.228778 0.072573 -0.970770
0.125257 0.479758 0.320680 0.022906 -0.998663 -0.046352
0.357734 0.483619 0.520334 0.030566 -0.918785 -0.393574
0.279258 0.479758 0.060159 -0.031840 -0.552557 -0.832866
0.063044 0.387606 0.546171 0.820290 0.138668 0.554884
0.065055 0.746945 0.059180 -0.282728 -0.038967 -0.958408
0.196746 0.565432 0.207693 -0.016975 0.998852 -0.044801
0.330105 0.479758 0.311069 -0.027317 -0.990382 -0.135633
0.419392 0.494716 0.541647 -0.018053 -0.378388 0.925471
0.286451 0.490458 0.541647 -0.013561 -0.298017 0.954464
0.509030 0.531999 0.349576 0.998495 0.039009 0.038538
0.025267 0.319549 0.065374 -0.994338 0.053074 0.092056
0.266590 0.768043 0.033461 0.117335 0.325116 0.938367
0.039748 0.537295 0.083260 -0.305179 0.084275 0.948559
0.314638 0.565432 0.166181 0.004064 0.996325 -0.085554
0.532838 0.388792 0.522426 0.795739 0.139490 -0.589357
0.056127 0.198681 0.423320 0.999999 0.001188 -0.000024
0.061871 0.901309 0.051350 0.814033 0.152923 -0.560326
0.514871 0.206548 0.109990 -0.382059 0.924138 -0.000016
0.166408 0.727003 0.035131 -0.169289 -0.034143 -0.984975
0.501854 0.525484 0.317280 -0.744265 0.423482 -0.516461
0.307284 0.479758 0.067880 0.004035 -0.981150 -0.193206
0.510583 0.346744 0.255734 -0.692763 0.721166 -0.000003
0.535481 0.741402 0.058084 0.962663 0.093571 -0.254016
0.496825 0.384784 0.067152 -0.978901 0.054042 0.197058
0.436417 0.335802 0.058307 0.000006 -0.258041 0.966134
0.412453 0.195868 0.510781 0.000011 -0.293250 -0.956036
0.387529 0.479758 0.291525 -0.048451 -0.983343 -0.175182
0.064583 0.113212 0.528599 0.884068 0.030988 -0.466331
0.365483 0.343792 0.057912 -0.000018 0.540793 0.841156
0.055521 0.337102 0.130628 0.994695 -0.102864 -0.000021
0.523166 0.526238 0.300167 0.965663 0.255035 -0.049514
0.051760 0.188505 0.294285 0.521439 -0.853289 0.000013
0.174586 0.728702 0.044697 0.149371 -0.024008 0.988490
0.419515 0.334014 0.042354 0.000023 -0.687425 -0.726255
0.092965 0.524578 0.079882 -0.072684 0.504115 0.860573
0.061916 0.486552 0.541646 -0.017414 -0.131983 0.991099
0.512286 0.188188 0.274174 -0.439391 -0.898296 0.000039
0.062283 0.479758 0.361530 0.051206 -0.998182 -0.031780
0.405770 0.479758 0.082784 -0.123542 -0.986203 -0.110190
0.040105 0.486066 0.101843 -0.986241 -0.162067 -0.032597
0.251421 0.480544 0.520333 0.061834 -0.972355 -0.225170
0.133663 0.538964 0.072703 -0.046135 0.078072 -0.995880
0.533255 0.316939 0.547561 0.780132 0.095024 0.618356
0.212257 0.565432 0.184346 -0.014468 0.998031 -0.061023
0.336484 0.565432 0.330676 0.034589 0.999379 0.006771
0.193702 0.565432 0.119415 -0.018783 0.995015 -0.097941
0.432848 0.517748 0.541647 -0.039128 -0.025317 0.998913
0.056352 0.558163 0.351022 -0.846100 0.532038 0.032408
0.114972 0.528701 0.520333 0.022478 0.059304 -0.997987
0.172839 0.488109 0.520333 0.080467 -0.942956 -0.323047
0.029023 0.233956 0.525917 -0.894434 0.063885 -0.442613
0.405626 0.507596 0.058586 0.034148 0.141011 -0.989419
0.502697 0.807730 0.049394 -0.611422 0.133647 -0.779937
0.062926 0.577898 0.075557 0.844221 0.068591 0.531589
0.227843 0.514915 0.058577 -0.006423 0.045229 -0.998956
0.052170 0.205524 0.278850 0.589392 0.807847 -0.000038
0.114998 0.489270 0.541646 -0.014917 -0.138031 0.990316
0.509298 0.334396 0.424915 -0.901472 -0.432837 0.000036
0.265025 0.835591 0.034502 -0.070489 -0.192661 0.978730
0.044242 0.954055 0.044335 0.037538 0.109620 -0.993265
0.166091 0.489558 0.541646 -0.012238 -0.182089 0.983206
0.094485 0.479758 0.480128 0.087060 -0.995404 -0.039897
0.162755 0.479758 0.416225 0.049432 -0.997225 -0.055675
0.390194 0.485506 0.079897 0.056613 -0.501972 0.863029
0.523161 0.483069 0.130422 0.821520 -0.560220 -0.106102
0.360974 0.494203 0.520334 0.013632 -0.755140 -0.655422
0.309355 0.479758 0.061294 -0.020525 -0.587446 -0.809003
0.256097 0.518313 0.079890 -0.019175 0.198087 0.979997
0.512772 0.349907 0.084127 -0.160034 0.045466 0.986064
0.057342 0.280942 0.552138 0.559216 0.104408 0.822421
0.424541 0.502752 0.541647 -0.025878 -0.258234 0.965736
0.061417 0.529282 0.086762 0.948723 -0.171575 -0.265493
0.276728 0.849731 0.025233 -0.030158 -0.083031 -0.996091
0.171280 0.532742 0.541646 -0.096364 0.426342 0.899415
0.297744 0.565432 0.503777 -0.013685 0.993810 0.110247
0.096758 0.504861 0.520333 0.091917 -0.683727 -0.723925
0.030347 0.704943 0.051819 -0.713441 0.098005 -0.693827
0.113427 0.565432 0.457077 -0.061530 0.998104 0.001353
0.490773 0.845683 0.056856 0.260765 -0.042748 -0.964455
0.086092 0.479758 0.205065 -0.010447 -0.999278 -0.036515
0.058966 0.897266 0.061087 -0.289058 -0.054685 -0.955749
0.276444 0.565432 0.196775 -0.002516 0.998077 -0.061943
0.537650 0.052021 0.534047 0.975367 0.023704 -0.219313
0.134960 0.479758 0.538762 0.013105 -0.443208 0.896323
0.474757 0.479758 0.402045 -0.034059 -0.943094 -0.330777
0.100406 0.479758 0.265420 0.008273 -0.999157 -0.040212
0.117726 0.204586 0.056246 -0.000020 0.622758 0.782414
0.475322 0.515647 0.079902 0.045856 -0.111073 0.992754
0.318618 0.479758 0.516328 0.043664 -0.962421 -0.268027
0.465003 0.206558 0.048703 -0.000027 0.956409 -0.292029
0.062608 0.071156 0.053131 0.720911 0.017275 -0.692812
0.158124 0.479758 0.202175 -0.027110 -0.998206 -0.053380
0.168728 0.881352 0.034798 -0.157735 0.008499 -0.987445
0.328039 0.479758 0.453688 0.020439 -0.972150 -0.233466
0.112726 0.479758 0.468474 0.079000 -0.995897 -0.044132
0.303369 0.479758 0.278714 -0.031004 -0.995612 -0.088292
0.066029 0.565432 0.472281 -0.083213 0.996531 0.001517
0.410121 0.565432 0.264312 0.062029 0.998054 0.006422
0.523164 0.529435 0.234436 0.970346 0.238018 -0.042152
0.049636 0.330268 0.219752 0.392934 -0.919567 0.000019
0.536618 0.361159 0.068518 0.989363 0.043305 0.138869
0.502071 0.563451 0.326442 0.418910 0.908008 0.005966
0.058114 0.158491 0.081002 0.690239 0.019573 0.723316
0.322455 0.565432 0.230804 0.006413 0.998859 -0.047330
0.330864 0.565432 0.298188 0.025793 0.999661 0.003543
0.410999 0.888199 0.037164 0.188999 0.032693 -0.981433
0.504481 0.211410 0.048656 -0.693179 0.039028 -0.719708
0.216014 0.479758 0.260312 -0.018649 -0.997555 -0.067355
0.342461 0.190136 0.526938 0.000021 -0.694564 0.719431
0.523351 0.967896 0.062056 0.883697 0.412744 -0.220729
0.168861 0.509487 0.520333 0.050582 -0.480355 -0.875614
0.339527 0.565432 0.496936 -0.009483 0.995062 0.098804
0.055537 0.536591 0.362174 -0.180304 0.343899 -0.921533
0.243730 0.479758 0.440031 0.037357 -0.988654 -0.145491
0.502543 0.530500 0.520298 -0.637437 0.124424 -0.760390
0.269550 0.479758 0.303824 -0.014510 -0.996669 -0.080252
0.113399 0.768043 0.056948 0.246485 0.198702 0.948558
0.054458 0.168821 0.082516 0.532788 0.021872 0.845966
0.180754 0.479758 0.424062 0.047720 -0.995981 -0.075791
0.302658 0.479758 0.342523 -0.009957 -0.991179 -0.132153
0.095498 0.479758 0.302573 0.022772 -0.998969 -0.039264
0.054230 0.545960 0.176569 -0.993738 0.101104 -0.047574
0.496985 0.077980 0.538259 -0.962011 0.037739 0.270390
0.076863 0.504512 0.541646 -0.054874 0.115063 0.991841
0.066033 0.890661 0.058874 -0.282310 -0.042016 -0.958403
0.317462 0.479758 0.534337 0.038937 -0.824976 0.563825
0.496009 0.565432 0.462921 0.142967 0.989276 0.029877
0.061418 0.525967 0.060756 -0.056958 0.105112 -0.992828
0.536266 0.166708 0.530704 0.944557 0.063847 -0.322081
0.230760 0.493873 0.058577 -0.031325 -0.300132 -0.953383
0.261801 0.565432 0.476497 -0.014867 0.994699 0.101745
0.483844 0.495927 0.079902 0.072452 -0.457738 0.886130
0.356519 0.903346 0.040080 -0.087397 0.073783 0.993437
0.159265 0.565432 0.100940 -0.025346 0.994195 -0.104567
0.485131 0.334760 0.528405 0.000008 -0.332149 0.943227
0.118121 0.565432 0.445852 -0.060860 0.998145 0.001274
0.517140 0.479758 0.392540 0.752210 -0.628337 -0.198428
0.044900 0.529688 0.556175 -0.236271 0.171805 0.956378
0.216946 0.899704 0.028080 -0.074268 0.062698 -0.995265
0.206525 0.536385 0.520333 -0.222589 0.349248 -0.910209
0.055310 0.336733 0.500415 0.874872 -0.484354 -0.000006
0.248826 0.565432 0.243183 -0.006922 0.999523 -0.030111
0.535398 0.565121 0.071464 0.933718 0.068016 0.351488
0.060002 0.385733 0.080220 0.717942 0.044461 0.694682
0.522706 0.536591 0.137788 0.962441 0.268347 -0.041188
0.433399 0.536591 0.539414 -0.148102 0.329197 0.932574
0.131670 0.479758 0.282746 0.007782 -0.998834 -0.047650
0.200183 0.479758 0.163476 -0.050216 -0.996750 -0.062982
0.194241 0.479758 0.190790 -0.039070 -0.997325 -0.061778
0.515256 0.503581 0.520333 0.910948 -0.226776 -0.344596
0.046076 0.206551 0.223227 -0.076437 0.997074 -0.000027
0.502657 0.536591 0.172940 -0.569753 0.754131 -0.326601
0.520838 0.330271 0.315483 0.347374 -0.937726 0.000020
0.166977 0.543061 0.072704 -0.043122 0.090833 -0.994932
0.059820 0.975000 0.067923 0.415311 0.872205 0.258409
0.293589 0.479758 0.532027 0.052364 -0.889847 0.453244
0.216146 0.479758 0.373937 0.022295 -0.997024 -0.073792
0.332355 0.479758 0.536718 0.024697 -0.737329 0.675083
0.499253 0.422275 0.527259 -0.882004 0.102655 -0.459925
0.516732 0.206554 0.328149 0.014619 0.999893 -0.000028
0.382126 0.563799 0.521044 0.006427 0.932095 0.362157
0.512235 0.348634 0.237309 -0.496568 0.867998 -0.000012
0.151453 0.480336 0.541646 -0.003982 -0.305975 0.952031
0.263545 0.479758 0.487562 0.048205 -0.979179 -0.197192
0.092192 0.479758 0.297089 0.021501 -0.999029 -0.038459
0.521502 0.536591 0.266347 0.886181 0.455748 -0.083531
0.177200 0.565432 0.126028 -0.021715 0.995544 -0.091760
0.420820 0.565432 0.341005 0.081431 0.996583 0.013856
0.465793 0.337287 0.059164 -0.000001 -0.050656 0.998716
0.395722 0.715331 0.034970 0.143844 -0.085269 -0.985920
0.318483 0.479971 0.541647 -0.003859 -0.483509 0.875331
0.054078 0.536591 0.115675 0.601231 0.383302 -0.701142
0.498751 0.109428 0.057546 -0.973150 0.020507 -0.229254
0.414849 0.525260 0.520334 -0.539405 0.262711 -0.800015
0.499244 0.405026 0.543715 -0.917646 0.153719 0.366465
0.457025 0.479758 0.333154 -0.052434 -0.962003 -0.267958
0.045725 0.486604 0.514538 0.086282 0.117947 -0.989264
0.078879 0.479758 0.504377 0.099020 -0.994383 -0.037371
0.123117 0.518336 0.520333 0.045357 -0.219638 -0.974526
0.503128 0.489570 0.520056 -0.628741 0.114681 -0.769112
0.115049 0.565432 0.402875 -0.068959 0.997619 0.001000
0.040105 0.513401 0.088737 -0.968190 0.203399 -0.145728
0.367046 0.565432 0.210688 0.025273 0.998600 -0.046469
0.484586 0.519826 0.520334 -0.649188 0.158601 -0.743909
0.523163 0.492995 0.184848 0.925699 -0.369542 -0.080749
0.443878 0.768043 0.045531 0.246123 0.214623 -0.945177
0.504853 0.536591 0.237246 -0.471846 0.807799 -0.353301
0.161626 0.479758 0.421333 0.051489 -0.997087 -0.056269
0.318524 0.536591 0.524409 -0.561114 0.659022 -0.500841
0.242868 0.565432 0.491658 -0.017657 0.993370 0.113602
0.181919 0.849820 0.032903 -0.162446 -0.084870 -0.983061
0.040967 0.206542 0.275680 -0.509284 0.860598 -0.000013
0.377734 0.565432 0.436138 -0.001620 0.998312 0.058056
0.321280 0.347705 0.043974 -0.000021 0.786195 -0.617979
0.187234 0.479758 0.071344 -0.031277 -0.921104 0.388058
0.286033 0.479758 0.462170 0.034009 -0.979119 -0.200421
0.501854 0.529376 0.311742 -0.703597 0.531036 -0.472178
0.443252 0.479758 0.535252 0.013247 -0.851903 0.523532
0.099315 0.479758 0.319604 0.028110 -0.998794 -0.040251
0.216502 0.479758 0.120005 -0.069398 -0.995371 -0.066482
0.164870 0.882128 0.035352 -0.162302 0.010443 -0.986686
0.510688 0.346922 0.493482 -0.476635 0.879101 -0.000013
0.356917 0.565432 0.105512 0.010957 0.991739 -0.127800
0.500672 0.530101 0.076440 -0.788597 0.062054 0.611771
0.093958 0.565432 0.138745 -0.119779 0.992800 -0.000686
0.113893 0.565432 0.105305 -0.033590 0.994820 -0.095938
0.184639 0.920840 0.036027 0.046991 0.340131 -0.939203
0.241367 0.490291 0.541646 -0.013234 -0.251568 0.967749
0.366633 0.724472 0.041533 -0.132373 -0.043277 0.990255
0.289617 0.565432 0.386671 -0.005778 0.998890 0.046744
0.508542 0.226171 0.046973 -0.516485 0.042350 -0.855249
0.026644 0.413690 0.539396 -0.987268 0.100415 0.123363
0.179157 0.493129 0.520333 0.075195 -0.882441 -0.464374
0.088366 0.565432 0.490682 -0.084548 0.996028 0.027919
0.144900 0.341958 0.529668 -0.000006 0.141096 0.989996
0.374758 0.201238 0.058184 -0.000017 0.501617 0.865090
0.371160 0.517312 0.079896 0.013229 0.042837 0.998994
0.284677 0.565432 0.088156 -0.002538 0.991670 -0.128782
0.154256 0.872460 0.047617 0.177327 -0.014726 0.984042
0.467765 0.565432 0.236452 0.087755 0.996108 0.008232
0.258920 0.501595 0.079890 0.001491 -0.079236 0.996855
0.060244 0.562922 0.188912 -0.547463 0.836813 -0.005367
0.029821 0.532435 0.547067 -0.897707 0.139753 0.417842
0.518809 0.539425 0.044216 0.116448 0.086833 -0.989394
0.028984 0.352612 0.055109 -0.893761 0.056815 -0.444931
0.537037 0.460780 0.067505 0.991621 0.053727 0.117477
0.526416 0.341474 0.410906 0.995447 0.095315 -0.000026
0.180757 0.499581 0.520333 0.066538 -0.758269 -0.648537
0.130267 0.479758 0.432248 0.062194 -0.996905 -0.048094
0.515139 0.267292 0.044240 -0.176464 0.046083 -0.983228
0.501858 0.489242 0.493705 -0.151126 -0.832566 -0.532912
0.491154 0.565432 0.308216 0.112957 0.993469 0.016153
0.025155 0.781976 0.064355 -0.983810 0.121922 -0.131348
0.411220 0.527161 0.541647 -0.048391 0.136067 0.989517
0.269063 0.348635 0.054501 -0.000027 0.887557 0.460697
0.427532 0.479758 0.270475 -0.065563 -0.978138 -0.197350
0.105602 0.703164 0.048079 -0.248401 -0.179796 -0.951825
0.095568 0.863950 0.061421 0.239210 -0.018318 0.970795
0.500840 0.164793 0.052504 -0.870081 0.028482 -0.492085
0.501853 0.485452 0.278634 -0.170783 -0.931857 -0.320117
0.339218 0.565432 0.330919 0.036092 0.999324 0.006993
