0.174303 0.930963 0.064473 0.034767 0.184285 0.982258
0.462046 0.915976 0.041712 0.210229 -0.153106 -0.965589
0.221449 0.477710 0.462008 -0.004371 -0.996581 -0.082504
0.090037 0.455296 0.585193 0.500899 -0.416930 -0.758466
0.353358 0.735484 0.065931 -0.027978 -0.096900 0.994901
0.481567 0.477800 0.474007 0.006376 -0.993485 -0.113787
0.211703 0.576250 0.054440 -0.942793 0.046076 0.330179
0.475667 0.365816 0.511029 0.996277 0.060075 0.061838
0.444197 0.483588 0.302577 0.000041 -0.999654 -0.026305
0.277680 0.483106 0.317462 0.000479 -0.999368 -0.035546
0.107244 0.437429 0.484620 -0.281063 -0.086700 -0.955765
0.466358 0.486511 0.170266 -0.027200 -0.995539 -0.090344
0.349337 0.578294 0.048310 -0.880097 -0.062586 -0.470651
0.223779 0.949939 0.059929 0.009086 0.259270 0.965762
0.278341 0.776536 0.038734 -0.005561 0.043412 -0.999042
0.539908 0.483011 0.409270 -0.432054 -0.901813 0.007942
0.263595 0.806934 0.039856 -0.013100 0.013841 -0.999818
0.412040 0.481714 0.362595 0.005436 -0.999480 -0.031767
0.363378 0.499215 0.096897 -0.038517 -0.977779 0.206071
0.430705 0.460993 0.560080 -0.005055 -0.970051 -0.242850
0.346797 0.478665 0.443748 0.003833 -0.997933 -0.064143
0.212168 0.882700 0.068192 0.037146 0.061750 0.997400
0.112382 0.268012 0.523955 0.774882 0.024104 0.631646
0.470115 0.490737 0.144222 -0.051005 -0.994491 -0.091578
0.180201 0.497531 0.107077 0.041606 -0.993395 0.106934
0.260353 0.834305 0.068553 0.014625 0.011504 0.999827
0.111274 0.233470 0.150222 0.514088 0.063415 -0.855390
0.395359 0.843964 0.042442 0.060369 -0.024219 -0.997882
0.176207 0.704165 0.033998 -0.050969 0.120456 -0.991409
0.106924 0.410502 0.487090 -0.193442 -0.093890 -0.976609
0.344176 0.937950 0.033226 0.017555 -0.139786 -0.990026
0.479412 0.484898 0.237121 -0.040137 -0.998993 -0.020037
0.295809 0.832501 0.068449 -0.003924 0.009909 0.999943
0.417803 0.858909 0.072171 -0.090939 0.045247 0.994828
0.450054 0.486358 0.188943 -0.011342 -0.997961 -0.062819
0.472067 0.164980 0.147584 -0.471224 0.065709 -0.879563
0.104704 0.157504 0.537498 0.685817 0.039175 0.726719
0.545311 0.461222 0.507049 -0.824516 -0.474228 -0.308675
0.290954 0.771959 0.067253 -0.002427 -0.047129 0.998886
0.263416 0.941264 0.061057 0.009530 0.180424 0.983543
0.063306 0.481890 0.399879 0.035019 -0.999244 -0.016891
0.334230 0.911358 0.065146 -0.017778 0.098860 0.994943
0.204178 0.485569 0.241901 0.003896 -0.999457 -0.032715
0.218654 0.496876 0.109866 0.012665 -0.999627 -0.024215
0.377720 0.723561 0.065274 -0.035311 -0.129363 0.990968
0.261621 0.479520 0.415769 -0.001156 -0.998975 -0.045255
0.427380 0.481130 0.383871 0.008088 -0.999451 -0.032121
0.533838 0.483346 0.308670 -0.499632 -0.865539 0.034792
0.083955 0.136498 0.521498 -0.808969 -0.017697 -0.587585
0.360224 0.485889 0.233220 -0.002896 -0.999399 -0.034543
0.465862 0.096189 0.530890 -0.776575 -0.109206 -0.620488
0.341096 0.709589 0.033869 0.016615 0.149223 -0.988664
0.466544 0.036472 0.546052 -0.998424 -0.055164 -0.010324
0.145119 0.481946 0.357507 -0.004811 -0.999549 -0.029657
0.194608 0.448644 0.614014 0.073466 -0.729987 -0.679501
0.461828 0.806481 0.050359 0.302182 0.027390 -0.952857
0.101476 0.058945 0.530749 0.818733 -0.107337 -0.564053
0.336579 0.444848 0.622226 -0.037005 -0.659909 -0.750434
0.127798 0.483239 0.314055 0.000344 -0.999656 -0.026242
0.471237 0.209825 0.151629 -0.343708 0.078339 -0.935803
0.085434 0.119243 0.146008 -0.951535 0.080902 -0.296707
0.390378 0.964741 0.038448 0.212117 0.960950 -0.177711
0.162805 0.917710 0.038163 -0.058190 -0.145195 -0.987690
0.365613 0.567333 0.048432 0.813941 -0.079465 -0.575487
0.341248 0.485864 0.235718 -0.002122 -0.999386 -0.034983
0.421852 0.845778 0.072982 -0.102835 0.029446 0.994262
0.281259 0.689625 0.058665 -0.003221 -0.260371 0.965503
0.492580 0.046035 0.542210 0.990618 0.038749 -0.131053
0.494825 0.094763 0.156551 0.962784 0.024814 0.269129
0.346294 0.720940 0.035352 0.022142 0.125615 -0.991832
0.114168 0.875119 0.048074 -0.268091 -0.100364 -0.958152
0.440125 0.451931 0.599755 -0.108987 -0.764156 -0.635757
0.484228 0.842480 0.079355 0.879772 0.014679 0.475169
0.090323 0.045001 0.154769 -0.360421 -0.079380 0.929406
0.185618 0.790778 0.041967 -0.055741 0.033783 -0.997874
0.449144 0.439267 0.511597 -0.638586 0.048932 0.767993
0.294881 0.481578 0.359041 0.000701 -0.999334 -0.036496
0.290906 0.858520 0.039029 -0.000599 -0.033091 -0.999452
0.210132 0.485664 0.239154 0.003799 -0.999439 -0.033284
0.221637 0.482832 0.324782 0.000137 -0.999411 -0.034315
0.411637 0.499493 0.095357 -0.095878 -0.923343 0.371812
0.199522 0.939655 0.033449 -0.028984 -0.127220 -0.991451
0.105160 0.479978 0.445694 -0.016772 -0.997865 -0.063117
0.273708 0.752427 0.037546 -0.005747 0.068815 -0.997613
0.481398 0.051658 0.557232 0.108191 0.113364 0.987645
0.257167 0.806495 0.039904 -0.016317 0.014419 -0.999763
0.174286 0.692508 0.031532 -0.156956 -0.179074 -0.971235
0.413122 0.712371 0.064774 -0.039580 -0.211784 0.976515
0.141905 0.868226 0.044188 -0.118406 -0.061992 -0.991028
0.292004 0.849639 0.068066 -0.001820 0.025708 0.999668
0.460003 0.238037 0.513561 -0.660315 -0.116188 -0.741947
0.194822 0.498578 0.085355 0.092658 -0.842413 0.530807
0.471655 0.485414 0.211698 -0.034360 -0.998991 -0.028910
0.105458 0.190262 0.534761 0.602552 0.051208 0.796435
0.176961 0.925303 0.036584 -0.036747 -0.152995 -0.987544
0.418584 0.481244 0.378994 0.007226 -0.999447 -0.032445
0.391142 0.462268 0.554353 -0.001049 -0.974522 -0.224291
0.477679 0.405221 0.189187 0.927313 0.011858 0.374100
0.225685 0.672826 0.052049 -0.085417 -0.913079 0.398735
0.450962 0.477925 0.468018 0.010993 -0.995075 -0.098515
0.244418 0.485584 0.079173 0.060672 -0.469348 0.880926
0.122706 0.463312 0.549949 -0.000443 -0.973689 -0.227880
0.091910 0.837958 0.081227 -0.848311 0.025875 0.528866
0.179415 0.736130 0.038710 -0.041687 0.109881 -0.993070
0.355123 0.471576 0.513461 0.001665 -0.986106 -0.166112
0.457989 0.748671 0.073956 -0.068371 -0.146830 0.986796
0.117811 0.485131 0.234994 0.024923 -0.991464 -0.127976
0.036526 0.466159 0.318919 0.936173 -0.343053 0.076777
0.362738 0.969622 0.041042 0.135455 0.986571 0.091268
0.366670 0.500605 0.066730 0.946299 0.041871 0.320569
0.108599 0.363281 0.188857 -0.173327 -0.094612 0.980309
0.097490 0.768177 0.081344 -0.553260 -0.135509 0.821913
0.351503 0.512886 0.054192 -0.679651 -0.097307 -0.727053
0.215219 0.487428 0.182982 0.002928 -0.997716 -0.067491
0.126694 0.902185 0.043088 -0.168012 -0.145503 -0.974988
0.278020 0.480912 0.377068 0.000138 -0.999300 -0.037419
0.218093 0.908997 0.066004 0.029810 0.098625 0.994678
0.301014 0.845343 0.068288 -0.006476 0.021864 0.999740
0.089687 0.146790 0.143792 -0.731531 0.109274 -0.672994
0.419649 0.896095 0.040971 0.073692 -0.101819 -0.992070
0.387921 0.903393 0.038848 0.040527 -0.098668 -0.994295
0.533765 0.475839 0.495642 -0.337243 -0.908467 -0.246891
0.545917 0.470721 0.504724 -0.625429 -0.711711 -0.319853
0.172167 0.791061 0.071445 0.069841 -0.035372 0.996931
0.339391 0.482608 0.079505 -0.062109 -0.368290 0.927634
0.450779 0.454532 0.588471 -0.073953 -0.880039 -0.469108
0.036283 0.481281 0.323344 0.614569 -0.787533 0.045795
0.194665 0.765721 0.040501 -0.045419 0.060513 -0.997134
0.310099 0.686011 0.058031 -0.004603 -0.290931 0.956733
0.113921 0.172960 0.159861 0.935157 -0.085382 0.343790
0.470912 0.414400 0.197408 0.441881 -0.068612 0.894446
0.189071 0.734829 0.066940 0.039785 -0.108921 0.993254
0.317856 0.953545 0.030104 0.012666 -0.093094 -0.995577
0.262182 0.888633 0.037833 -0.012473 -0.066656 -0.997698
0.148514 0.484711 0.263207 0.003017 -0.999253 -0.038530
0.409538 0.734290 0.067845 -0.061382 -0.122141 0.990613
0.120065 0.891154 0.045477 -0.213830 -0.129175 -0.968293
0.367218 0.560147 0.052704 0.955067 -0.041978 -0.293401
0.402808 0.774823 0.041973 0.067743 0.052005 -0.996346
0.344366 0.722244 0.035466 0.022123 0.122074 -0.992274
0.420579 0.449079 0.611353 -0.118007 -0.654570 -0.746735
0.486971 0.140797 0.538708 0.923711 0.090050 0.372357
0.094119 0.116621 0.545293 0.086910 0.101607 0.991021
0.188240 0.868326 0.041212 -0.053475 -0.048903 -0.997371
0.265219 0.488149 0.168180 0.000511 -0.996248 -0.086539
0.086475 0.483909 0.278216 0.075615 -0.996754 -0.027648
0.522000 0.463308 0.550289 -0.469207 -0.691115 -0.549732
0.100260 0.729667 0.065531 -0.855748 -0.516085 0.036754
0.331195 0.479613 0.413815 0.002759 -0.999034 -0.043866
0.257332 0.955335 0.058504 0.005175 0.280850 0.959738
0.087116 0.485593 0.189199 0.062782 -0.994205 -0.087266
0.147627 0.485116 0.246725 0.009300 -0.997608 -0.068499
0.134226 0.464159 0.546259 -0.001267 -0.975788 -0.218715
0.113925 0.337900 0.185741 0.335410 -0.115946 0.934910
0.214256 0.958885 0.058057 -0.025567 0.478051 0.877960
0.542020 0.477388 0.348575 -0.711653 -0.700372 0.055040
0.478121 0.317494 0.513041 0.985637 0.034771 -0.165257
0.398667 0.812485 0.071585 -0.064167 -0.010313 0.997886
0.226674 0.676116 0.055700 -0.073415 -0.798693 0.597244
0.302070 0.707836 0.033210 0.005591 0.145195 -0.989387
0.388376 0.482211 0.344531 0.002979 -0.999456 -0.032837
0.148892 0.462148 0.554989 0.000951 -0.972976 -0.230903
0.125334 0.800813 0.048178 -0.229724 0.030283 -0.972785
0.231775 0.746104 0.066471 0.023943 -0.082010 0.996344
0.486097 0.258956 0.172776 0.968265 0.027256 0.248435
0.111489 0.931141 0.057388 -0.738418 0.672773 0.045999
0.343780 0.491684 0.138671 -0.002666 -0.994467 -0.105019
0.191164 0.892164 0.068356 0.047946 0.079827 0.995655
0.228852 0.899742 0.066423 0.027049 0.083558 0.996136
0.460270 0.343233 0.167516 -0.586652 0.052102 -0.808161
0.110729 0.791506 0.050448 -0.323605 0.050604 -0.944838
0.329708 0.464603 0.544006 0.000191 -0.978915 -0.204268
0.285748 0.478844 0.434450 0.000084 -0.998307 -0.058164
0.477918 0.339706 0.168050 0.711849 0.111634 -0.693404
0.396089 0.934801 0.063567 -0.017760 0.203006 0.979016
0.188274 0.685610 0.029556 -0.174897 -0.479970 -0.859674
0.135753 0.486402 0.193578 0.024927 -0.988184 -0.151231
0.093616 0.275371 0.162332 -0.957290 0.079189 -0.278073
0.378287 0.900213 0.067426 -0.038555 0.091672 0.995043
0.541215 0.453218 0.520970 -0.881325 -0.297340 -0.367226
0.475413 0.485151 0.106917 -0.505276 -0.432184 0.746936
0.236130 0.500758 0.081498 0.038853 -0.888562 0.457109
0.461657 0.872814 0.048250 0.263336 -0.088640 -0.960623
0.478986 0.389134 0.186331 0.958838 0.023096 0.283014
0.086257 0.200800 0.516626 -0.891624 0.001557 -0.452774
0.436200 0.772268 0.044366 0.128031 0.067971 -0.989438
0.467955 0.341151 0.164474 -0.019562 0.102226 -0.994569
0.211790 0.843467 0.069686 0.039032 0.021959 0.998997
0.476751 0.485498 0.204930 -0.044501 -0.998286 -0.038002
0.171818 0.888439 0.040829 -0.063174 -0.081486 -0.994670
0.469699 0.819459 0.082107 0.054650 -0.009480 0.998461
0.382775 0.867805 0.069704 -0.048012 0.048778 0.997655
0.484228 0.790355 0.076960 0.929745 -0.051410 0.364598
0.295629 0.893129 0.037378 0.001815 -0.071226 -0.997459
0.377359 0.828812 0.070599 -0.048863 0.008222 0.998772
0.212422 0.674392 0.036784 -0.151418 -0.962962 -0.223106
0.231014 0.469392 0.523024 -0.001822 -0.984040 -0.177937
0.471200 0.059127 0.554201 -0.603360 0.053908 0.795645
0.451082 0.342650 0.517276 -0.912489 -0.004859 0.409072
0.318571 0.488008 0.171947 -0.001781 -0.996653 -0.081729
0.231159 0.483750 0.298932 0.001014 -0.999417 -0.034138
0.458880 0.379263 0.521435 -0.173257 0.097070 0.980081
0.111233 0.901683 0.073637 0.024029 0.183555 0.982716
0.203140 0.480105 0.404397 -0.004733 -0.999311 -0.036800
0.427599 0.482202 0.348557 0.004870 -0.999544 -0.029817
0.317061 0.734252 0.065027 -0.012793 -0.094009 0.995489
0.475197 0.459985 0.564683 -0.037894 -0.957810 -0.284892
0.178183 0.448836 0.613248 0.092311 -0.702725 -0.705447
0.292710 0.474282 0.494813 -0.000098 -0.990664 -0.136327
0.231277 0.954834 0.058911 0.005115 0.288308 0.957524
0.501497 0.483757 0.289256 -0.060118 -0.998135 -0.010607
0.206145 0.831011 0.070206 0.043645 0.008843 0.999008
0.079297 0.078091 0.529900 -0.907528 0.006043 -0.419949
0.146545 0.848197 0.073500 0.118783 0.033301 0.992362
0.472409 0.037771 0.150686 -0.928114 -0.088747 0.361564
0.474085 0.342462 0.165907 0.441471 0.117240 -0.889583
0.332861 0.482885 0.323566 0.000701 -0.999383 -0.035116
0.223947 0.964696 0.056502 -0.048491 0.674368 0.736802
0.028793 0.473362 0.411265 0.800199 -0.599007 0.029540
0.448706 0.731914 0.041521 0.140785 0.170586 -0.975233
0.060811 0.489130 0.153477 0.544709 -0.812108 0.209220
0.227547 0.619012 0.038366 0.725048 -0.093821 -0.682277
0.265066 0.490164 0.146971 0.000868 -0.994591 -0.103870
0.328483 0.479049 0.430354 0.002602 -0.998474 -0.055158
0.453630 0.810503 0.048992 0.253820 0.015213 -0.967132
0.459391 0.879423 0.047227 0.239354 -0.102171 -0.965542
0.099259 0.483192 0.107323 0.517733 -0.351489 0.780005
0.271038 0.486231 0.225729 0.001268 -0.999307 -0.037197
0.233430 0.954824 0.058880 0.005265 0.287342 0.957814
0.484228 0.774495 0.083330 0.776263 -0.126212 0.617646
0.213899 0.738556 0.037685 -0.029939 0.094310 -0.995093
0.113648 0.288849 0.504719 0.783617 -0.110477 -0.611342
0.519526 0.480520 0.453819 -0.081025 -0.993057 -0.085282
0.059988 0.463904 0.547757 0.375857 -0.848851 -0.371730
0.530126 0.464802 0.210973 -0.956714 -0.265781 0.118567
0.303572 0.477158 0.466402 0.000726 -0.996025 -0.089069
0.211512 0.710520 0.034483 -0.023005 0.151273 -0.988224
0.111374 0.480218 0.431513 -0.014957 -0.998536 -0.051974
0.271976 0.824245 0.039888 -0.009289 -0.002476 -0.999954
0.291927 0.871725 0.038521 0.000205 -0.046319 -0.998927
0.283549 0.480484 0.388552 0.000260 -0.999273 -0.038117
0.340132 0.871597 0.039221 0.024942 -0.048106 -0.998531
0.107137 0.028212 0.140524 0.994499 -0.061184 0.085016
0.459355 0.398170 0.492741 -0.131944 -0.114277 -0.984648
0.214624 0.609947 0.054048 -0.651163 0.103092 0.751904
0.462673 0.291911 0.530753 -0.258944 0.090439 0.961649
0.243850 0.874093 0.038922 -0.021344 -0.051391 -0.998450
0.214684 0.911138 0.065829 0.030544 0.103840 0.994125
0.350280 0.483380 0.309945 0.000467 -0.999417 -0.034132
0.370474 0.468886 0.525271 0.001516 -0.983250 -0.182257
0.203035 0.479458 0.423745 -0.005154 -0.998761 -0.049488
0.213551 0.485877 0.232057 0.003957 -0.999404 -0.034303
0.443975 0.730843 0.040831 0.122860 0.164527 -0.978691
0.366559 0.645111 0.039338 0.906045 -0.058620 -0.419102
0.463691 0.198268 0.158437 -0.941635 -0.016396 -0.336235
0.096723 0.735012 0.055489 -0.892503 -0.410252 -0.187435
0.331798 0.670976 0.042606 0.072885 -0.984584 0.159004
0.148496 0.818599 0.044943 -0.116117 0.003655 -0.993229
0.127320 0.733835 0.041757 -0.136736 0.155275 -0.978362
0.152717 0.866091 0.043542 -0.102775 -0.054237 -0.993225
0.469270 0.824545 0.053156 0.473834 -0.003258 -0.880608
0.416780 0.479991 0.418855 0.009232 -0.998945 -0.044991
0.314020 0.483312 0.311928 0.000478 -0.999381 -0.035186
0.412855 0.873219 0.042481 0.078933 -0.062392 -0.994925
0.321916 0.796055 0.039580 0.017506 0.024276 -0.999552
0.351063 0.903160 0.037531 0.025434 -0.089472 -0.995664
0.087478 0.483361 0.310409 0.042980 -0.998948 -0.015963
0.407977 0.492777 0.132827 -0.007773 -0.994603 -0.103460
0.460627 0.311480 0.528232 -0.321862 0.085065 0.942958
0.373733 0.783661 0.069622 -0.045225 -0.039533 0.998194
0.210446 0.476933 0.470298 -0.004958 -0.995301 -0.096707
0.282076 0.757311 0.066571 0.001394 -0.062629 0.998036
0.484227 0.793517 0.069847 0.999990 -0.004113 -0.001486
0.107164 0.246445 0.176676 0.159384 -0.111682 0.980879
0.104809 0.838948 0.082408 -0.137205 0.040276 0.989724
0.292041 0.974842 0.049555 0.007175 0.980623 0.195772
0.103026 0.481037 0.404356 -0.014625 -0.999436 -0.030225
0.470098 0.464839 0.543347 -0.000491 -0.975211 -0.221276
0.327911 0.489065 0.079431 -0.046865 -0.583690 0.810623
0.426355 0.738822 0.069318 -0.085340 -0.122357 0.988810
0.225897 0.482915 0.322546 0.000193 -0.999406 -0.034461
0.333303 0.464876 0.542822 0.000353 -0.979221 -0.202793
0.544092 0.480613 0.466036 -0.451130 -0.882241 -0.134657
0.095182 0.138399 0.164620 -0.338678 -0.081367 0.937378
0.522285 0.478298 0.479739 -0.119460 -0.981720 -0.148174
0.434487 0.438184 0.607054 -0.217197 -0.317971 -0.922887
0.055780 0.483365 0.309527 0.304646 -0.952373 0.013304
0.199580 0.483841 0.295721 0.001264 -0.999467 -0.032616
0.461566 0.716184 0.067582 0.318435 -0.560583 0.764425
0.373905 0.471553 0.513521 0.002398 -0.985970 -0.166906
0.478238 0.065632 0.528742 0.023678 -0.106921 -0.993986
0.154833 0.957644 0.037449 -0.384234 0.873937 -0.297654
0.373837 0.485604 0.240720 -0.003393 -0.999453 -0.032886
0.099582 0.130558 0.137497 0.063742 0.101362 -0.992806
0.131225 0.946585 0.060273 -0.461742 0.842648 0.277016
0.238197 0.488310 0.161352 0.001409 -0.995414 -0.095645
0.462600 0.482201 0.355622 0.008489 -0.999633 -0.025712
0.397223 0.481190 0.085858 -0.142272 -0.350063 0.925859
0.474650 0.067219 0.529150 -0.215614 -0.117173 -0.969423
0.091910 0.844142 0.082626 -0.810669 0.041912 0.584003
0.469373 0.081097 0.151038 -0.996123 -0.061349 0.063056
0.264172 0.782813 0.067919 0.011822 -0.037329 0.999233
0.104608 0.453507 0.592999 0.322018 -0.598923 -0.733209
0.236717 0.810372 0.040328 -0.026199 0.011209 -0.999594
0.230481 0.674076 0.055154 -0.070619 -0.826898 0.557900
0.308038 0.860243 0.067899 -0.009811 0.036461 0.999287
0.370725 0.464840 0.543059 0.000568 -0.978662 -0.205473
0.420069 0.686106 0.030104 0.389485 -0.769311 -0.506420
0.321290 0.493223 0.130082 -0.001426 -0.994299 -0.106614
0.530015 0.481661 0.209708 -0.652802 -0.756521 0.039072
0.379619 0.449980 0.608258 -0.052604 -0.805853 -0.589774
0.107139 0.484506 0.260305 0.020427 -0.999201 -0.034341
0.324971 0.483552 0.305147 0.000182 -0.999391 -0.034885
0.478888 0.886036 0.050774 0.732527 -0.099301 -0.673456
0.297119 0.498067 0.103147 -0.001688 -0.999312 0.037044
0.091910 0.783232 0.071333 -0.989987 -0.034898 0.136777
0.476928 0.484448 0.259706 -0.030217 -0.999396 -0.017164
0.263250 0.498803 0.079789 0.016321 -0.852713 0.522124
0.238751 0.837859 0.069059 0.025706 0.014672 0.999562
0.271798 0.802911 0.068421 0.008201 -0.017825 0.999808
0.420195 0.454478 0.588402 -0.029129 -0.933559 -0.357238
0.392746 0.964340 0.029572 0.224891 0.848021 -0.479879
0.481385 0.902225 0.072221 0.854160 0.437075 0.281737
0.455626 0.288195 0.509905 -0.798086 -0.107378 -0.592899
0.493042 0.107081 0.160267 0.889994 0.001307 0.455970
0.140305 0.491551 0.140441 0.008477 -0.992992 -0.117873
0.233238 0.496069 0.114320 0.004536 -0.994357 -0.105984
0.213560 0.491985 0.137031 0.004080 -0.994900 -0.100782
0.311171 0.493274 0.129785 -0.000734 -0.994284 -0.106761
0.101984 0.321909 0.182864 -0.489294 -0.066261 0.869598
0.384836 0.819737 0.042343 0.053981 0.002862 -0.998538
0.130949 0.861622 0.046392 -0.188158 -0.058041 -0.980422
0.473557 0.484731 0.247624 -0.027282 -0.999423 -0.020247
0.480696 0.482693 0.341846 -0.009140 -0.999746 -0.020593
0.082461 0.102781 0.542227 -0.728697 0.114277 0.675235
0.116760 0.351459 0.515484 0.736153 0.030960 0.676106
0.213621 0.501040 0.068191 -0.687454 0.098826 0.719473
0.100728 0.454969 0.586624 0.229482 -0.760469 -0.607474
0.507958 0.480833 0.446753 -0.019241 -0.997820 -0.063120
0.106931 0.119237 0.531018 0.995302 -0.064272 -0.072405
0.375286 0.458211 0.572225 -0.003961 -0.968001 -0.250915
0.103467 0.727186 0.042214 -0.774428 -0.304593 -0.554513
0.463062 0.126269 0.529625 -0.883807 -0.097330 -0.457616
0.144528 0.847243 0.073669 0.122459 0.032390 0.991945
0.196210 0.764908 0.040399 -0.044454 0.061111 -0.997141
0.206920 0.910412 0.066174 0.034352 0.105131 0.993865
0.464239 0.492761 0.132984 -0.049238 -0.994837 -0.088742
0.207528 0.482995 0.320220 0.000220 -0.999435 -0.033610
0.454023 0.424461 0.177609 -0.708868 0.034748 -0.704485
0.193972 0.463539 0.548782 -0.001183 -0.977018 -0.213155
0.438586 0.477956 0.465850 0.010196 -0.995591 -0.093248
0.381551 0.486802 0.198461 -0.005711 -0.998840 -0.047819
0.314832 0.893779 0.037455 0.010833 -0.072502 -0.997309
0.313616 0.494357 0.123774 -0.000908 -0.994190 -0.107639
0.162256 0.959197 0.058376 -0.215446 0.883241 0.416495
0.354172 0.490685 0.055544 -0.426170 -0.120800 -0.896542
0.281517 0.481596 0.077527 0.016088 -0.325992 0.945236
0.277185 0.856265 0.039263 -0.007152 -0.031316 -0.999484
0.476850 0.251149 0.532611 0.637410 0.117267 0.761549
0.343822 0.466138 0.537319 0.000628 -0.980543 -0.196303
0.432254 0.945415 0.062038 0.128578 0.558163 0.819709
0.279311 0.486991 0.202168 0.000587 -0.999098 -0.042454
0.339298 0.472961 0.507402 0.001428 -0.987516 -0.157511
0.099356 0.745092 0.047285 -0.707353 0.032244 -0.706125
0.458398 0.302140 0.179627 -0.910788 -0.092096 0.402471
0.110127 0.728761 0.042332 -0.306268 0.130373 -0.942976
0.372837 0.722559 0.064985 -0.032620 -0.129650 0.991023
0.257126 0.682556 0.028427 -0.031003 -0.166374 -0.985575
0.329577 0.496427 0.112314 -0.002655 -0.995141 -0.098427
0.462314 0.283897 0.162206 -0.680627 0.039116 -0.731585
0.230357 0.487987 0.169240 0.001836 -0.996339 -0.085476
0.219910 0.925726 0.063954 0.024424 0.133484 0.990750
0.123699 0.374090 0.170631 0.873105 0.005677 -0.487499
0.228449 0.652597 0.034853 0.817984 -0.078776 -0.569821
0.152775 0.485410 0.237972 0.005044 -0.998755 -0.049627
0.402502 0.476290 0.479502 0.006007 -0.993371 -0.114794
0.304808 0.807366 0.039663 0.007933 0.013791 -0.999873
0.223872 0.476638 0.472681 -0.003950 -0.994944 -0.100356
0.310378 0.754010 0.037721 0.011344 0.066300 -0.997735
0.238990 0.485198 0.257150 0.002140 -0.999463 -0.032698
0.497426 0.481243 0.419986 -0.010113 -0.999139 -0.040236
0.289217 0.883962 0.038010 -0.000921 -0.058721 -0.998274
0.272321 0.470743 0.517062 -0.000894 -0.985552 -0.169372
0.503518 0.484803 0.207300 -0.174194 -0.984373 -0.025821
0.060301 0.474183 0.147730 0.846646 -0.387104 0.365158
0.123277 0.457343 0.576191 0.010525 -0.960407 -0.278400
0.350625 0.486218 0.223528 -0.002790 -0.999334 -0.036390
0.225408 0.736603 0.037222 -0.025038 0.095471 -0.995117
0.054940 0.483654 0.253678 0.582681 -0.807280 -0.093714
0.229232 0.480435 0.391424 -0.002251 -0.999306 -0.037188
0.102330 0.052182 0.154044 0.509208 -0.116552 0.852715
0.337785 0.671570 0.042719 0.081881 -0.988388 0.128002
0.250063 0.485214 0.257106 0.001833 -0.999456 -0.032941
0.287206 0.493457 0.128669 0.000401 -0.994260 -0.106988
0.108109 0.164835 0.166008 0.524686 -0.116421 0.843297
0.370347 0.473590 0.504325 0.002830 -0.987991 -0.154487
0.123318 0.780010 0.076259 0.116530 -0.066972 0.990927
0.141817 0.933376 0.065082 0.030432 0.267649 0.963036
0.387647 0.485347 0.247416 -0.003779 -0.999513 -0.030983
0.480749 0.066249 0.136176 -0.257931 0.085747 -0.962351
0.056305 0.455899 0.558754 0.698391 -0.316373 -0.641996
0.477006 0.819311 0.085363 0.393829 -0.013994 0.919077
0.125076 0.701197 0.050733 -0.594677 -0.803587 -0.024635
0.316081 0.876258 0.067239 -0.013490 0.052960 0.998506
0.086434 0.151852 0.538147 -0.645819 0.117980 0.754320
0.079402 0.090198 0.539519 -0.918268 0.093628 0.384731
0.222624 0.481991 0.348858 -0.001015 -0.999394 -0.034791
0.109311 0.424052 0.512018 -0.168472 0.115078 0.978966
0.127592 0.743004 0.042953 -0.147742 0.134723 -0.979807
0.401244 0.764682 0.041374 0.062500 0.064849 -0.995936
0.526172 0.470188 0.178507 -0.895840 -0.395614 0.202385
0.540355 0.483261 0.362218 -0.506744 -0.861390 0.034905
0.379838 0.857314 0.070012 -0.047920 0.036888 0.998170
0.385660 0.902252 0.067565 -0.041624 0.096638 0.994449
0.270318 0.485879 0.236889 0.001306 -0.999367 -0.035539
0.322432 0.464244 0.545586 0.000057 -0.978525 -0.206128
0.480684 0.164372 0.146250 0.151100 0.110577 -0.982314
0.099905 0.036274 0.548148 0.843873 0.010065 0.536449
0.109673 0.318531 0.184443 0.080691 -0.108705 0.990794
0.475244 0.069036 0.138925 -0.639814 0.045029 -0.767210
0.406844 0.492251 0.135733 -0.007426 -0.994629 -0.103238
0.319537 0.921614 0.034974 0.009796 -0.118069 -0.992957
0.480332 0.271532 0.181555 0.584122 -0.051996 0.809999
0.245843 0.828295 0.040202 -0.022284 -0.005815 -0.999735
0.225269 0.477596 0.462987 -0.004078 -0.996453 -0.084048
0.322559 0.901899 0.065627 -0.014185 0.084341 0.996336
0.271306 0.429431 0.622234 0.016041 -0.207417 -0.978121
0.196938 0.485558 0.241526 0.004121 -0.999456 -0.032708
0.514965 0.483674 0.291110 -0.232665 -0.972531 0.007158
0.470554 0.433980 0.508324 0.904470 0.093813 0.416094
0.352446 0.776998 0.039796 0.032963 0.043747 -0.998499
0.246758 0.481943 0.349578 -0.000456 -0.999363 -0.035692
0.083612 0.164285 0.521756 -0.936971 0.015403 -0.349067
0.169030 0.484328 0.277595 0.001955 -0.999314 -0.036975
0.352207 0.753624 0.038555 0.030817 0.070406 -0.997042
0.455365 0.480444 0.420245 0.014029 -0.998925 -0.044183
0.296145 0.486208 0.227009 -0.000089 -0.999313 -0.037058
0.148046 0.760131 0.042588 -0.094024 0.084669 -0.991963
0.392452 0.855196 0.070695 -0.057158 0.036032 0.997715
0.271812 0.480768 0.381048 -0.000022 -0.999295 -0.037546
0.094067 0.220544 0.150963 -0.700470 0.111001 -0.704997
0.113935 0.334524 0.159715 0.296820 0.084719 -0.951168
0.364428 0.689399 0.030226 0.038869 0.024176 -0.998952
0.238749 0.797518 0.040157 -0.024968 0.023265 -0.999417
0.099254 0.360274 0.182127 -0.854329 -0.010642 0.519623
0.103621 0.481737 0.376488 -0.008850 -0.999626 -0.025881
0.380834 0.488203 0.158080 -0.004469 -0.994832 -0.101441
0.167313 0.476373 0.478726 -0.007673 -0.993562 -0.113033
0.391296 0.435406 0.615237 -0.136540 -0.329051 -0.934388
0.322113 0.482806 0.325866 0.000855 -0.999375 -0.035328
0.118085 0.486415 0.181500 0.020470 -0.988830 -0.147637
0.141681 0.705932 0.035178 -0.109796 0.118827 -0.986826
0.193864 0.486498 0.208038 0.005324 -0.999266 -0.037937
0.408196 0.848171 0.043213 0.078678 -0.029611 -0.996460
0.290169 0.479957 0.402786 0.000476 -0.999242 -0.038920
0.354082 0.673186 0.034399 0.133426 -0.953693 -0.269570
0.465970 0.378373 0.495447 0.299769 -0.087489 -0.949992
0.094089 0.132233 0.516582 -0.043337 -0.104451 -0.993585
0.484227 0.877289 0.065551 0.999217 0.029692 -0.026160
0.388252 0.483131 0.317640 0.001359 -0.999475 -0.032363
0.396684 0.874680 0.070061 -0.056238 0.058017 0.996730
0.235069 0.834823 0.040485 -0.027656 -0.011695 -0.999549
0.258522 0.485352 0.253402 0.001499 -0.999457 -0.032915
0.484228 0.851159 0.084604 0.739136 0.051914 0.671553
0.103089 0.212484 0.173309 -0.039028 -0.102963 0.993919
0.249067 0.851837 0.039870 -0.020414 -0.028131 -0.999396
0.223349 0.703661 0.032914 -0.022342 0.132496 -0.990932
0.051715 0.464238 0.546298 0.564561 -0.672041 -0.479200
0.370690 0.482602 0.332501 0.001899 -0.999433 -0.033625
0.450889 0.324579 0.514564 -0.997287 -0.047810 0.055976
0.449807 0.813595 0.048310 0.229675 0.010406 -0.973212
0.366257 0.549100 0.061505 0.892818 0.059041 0.446532
0.109083 0.353975 0.161289 -0.137760 0.110911 -0.984236
0.083410 0.485102 0.209856 0.075049 -0.995045 -0.065217
0.095121 0.480445 0.434186 -0.009531 -0.998578 -0.052443
0.465545 0.257445 0.508221 -0.187458 -0.116290 -0.975365
0.025687 0.469680 0.460606 0.853543 -0.511248 -0.100450
0.344329 0.745405 0.066440 -0.026039 -0.081264 0.996352
0.143941 0.882987 0.042953 -0.106326 -0.085795 -0.990623
0.105175 0.207527 0.533889 0.489824 0.065295 0.869373
0.207638 0.485580 0.241819 0.003781 -0.999453 -0.032856
0.254076 0.950453 0.059400 0.007002 0.247800 0.968786
0.442473 0.695767 0.054334 0.485021 -0.864920 0.129106
0.177468 0.480474 0.397673 -0.006013 -0.999374 -0.034851
0.119103 0.298620 0.161603 0.837024 0.013774 -0.546992
0.055430 0.482255 0.393674 0.162903 -0.986636 -0.003472
0.390099 0.847365 0.070839 -0.056604 0.027720 0.998012
0.214971 0.479890 0.409123 -0.004059 -0.999204 -0.039690
0.108587 0.072784 0.149442 0.922263 -0.088139 0.376381
0.243217 0.475519 0.483190 -0.002498 -0.993069 -0.117510
0.410277 0.960320 0.029996 0.321396 0.799876 -0.506856
0.318566 0.480204 0.396860 0.002069 -0.999266 -0.038259
0.296746 0.732031 0.036016 0.004522 0.095670 -0.995403
0.402118 0.923795 0.036887 0.035717 -0.148239 -0.988306
0.492830 0.441344 0.583835 -0.582102 -0.140996 -0.800798
0.401430 0.453841 0.591237 -0.021704 -0.934511 -0.355272
0.316175 0.710331 0.033563 0.010014 0.141584 -0.989876
0.110726 0.713856 0.059788 -0.715400 -0.688567 0.118649
0.318252 0.743532 0.036999 0.014167 0.081005 -0.996613
0.370206 0.488105 0.161275 -0.003991 -0.995245 -0.097319
0.221515 0.443992 0.620794 0.068277 -0.620186 -0.781478
0.476318 0.325066 0.507697 0.870646 -0.006899 -0.491862
0.215361 0.476007 0.479400 -0.004396 -0.993716 -0.111846
0.250473 0.482404 0.336712 -0.000001 -0.999369 -0.035515
0.367679 0.574991 0.052999 0.999961 -0.003048 -0.008302
0.481090 0.137051 0.170068 0.128472 -0.095855 0.987070
0.262593 0.800640 0.068524 0.012946 -0.020063 0.999715
0.244078 0.499038 0.097819 0.017938 -0.988847 0.147851
0.102214 0.120947 0.521000 0.608691 -0.119325 -0.784383
0.548272 0.469882 0.421716 -0.877607 -0.476732 0.050326
0.431023 0.497672 0.105570 -0.085141 -0.966677 0.241427
0.247009 0.852215 0.068631 0.021250 0.028768 0.999360
0.362012 0.627092 0.037213 0.443684 -0.120764 -0.888010
0.549067 0.463808 0.430432 -0.962423 -0.265559 0.056754
0.351480 0.816560 0.040837 0.033773 0.005026 -0.999417
0.178254 0.479168 0.438226 -0.007326 -0.998220 -0.059183
0.062330 0.481639 0.415050 0.031478 -0.999028 -0.030866
0.232289 0.487050 0.196980 0.002990 -0.998778 -0.049340
0.366164 0.748653 0.038615 0.036208 0.080225 -0.996119
0.137267 0.801166 0.046001 -0.153293 0.026440 -0.987827
0.087722 0.482516 0.350593 0.020892 -0.999615 -0.018285
0.095451 0.189290 0.510685 -0.166133 -0.096019 -0.981417
0.247033 0.487217 0.194218 0.002305 -0.998594 -0.052969
0.114665 0.438665 0.197203 0.013488 -0.105650 0.994312
0.106173 0.486375 0.172716 0.029422 -0.993977 -0.105567
0.333681 0.746458 0.037499 0.021339 0.078251 -0.996705
0.457744 0.457819 0.574137 -0.018047 -0.959539 -0.280997
0.134777 0.482539 0.337053 -0.002235 -0.999615 -0.027663
0.115739 0.783573 0.077747 0.119496 -0.066710 0.990591
0.181664 0.484623 0.269810 0.002531 -0.999390 -0.034823
0.191471 0.678079 0.043626 -0.184490 -0.982801 -0.008096
0.076049 0.489213 0.152741 0.283332 -0.957358 0.056466
0.481305 0.835716 0.058088 0.827872 -0.020648 -0.560537
0.097970 0.483496 0.304054 0.025982 -0.999449 -0.020680
0.451194 0.441095 0.195177 -0.887995 -0.095825 0.449758
0.286779 0.852555 0.039237 -0.002747 -0.027209 -0.999626
0.550227 0.473718 0.480876 -0.688861 -0.703185 -0.176069
0.341104 0.971425 0.025977 0.096196 0.847120 -0.522623
0.470261 0.437466 0.495407 0.852210 -0.011291 -0.523077
0.474922 0.036047 0.137449 -0.793749 0.020117 -0.607913
0.208857 0.478531 0.451227 -0.005312 -0.997594 -0.069127
0.117628 0.315137 0.506785 0.967273 -0.080618 -0.240591
0.310331 0.898637 0.065787 -0.008303 0.079359 0.996812
0.204477 0.491029 0.142360 0.003687 -0.994957 -0.100235
0.109286 0.927813 0.057460 -0.770640 0.637230 0.007149
0.188878 0.925721 0.036163 -0.032834 -0.148490 -0.988369
0.119717 0.422262 0.488739 0.691408 -0.116272 -0.713047
0.086781 0.187086 0.532496 -0.782145 0.110694 0.613185
0.159855 0.684981 0.045952 -0.296998 -0.954826 -0.009939
0.225264 0.482709 0.328241 0.000031 -0.999403 -0.034538
0.494172 0.485566 0.184005 -0.079839 -0.994469 -0.068245
0.198160 0.479092 0.436000 -0.005764 -0.998287 -0.058221
0.448481 0.481801 0.368098 0.009154 -0.999550 -0.028575
0.105227 0.233316 0.148387 0.058369 0.101662 -0.993105
0.428055 0.843797 0.044756 0.112601 -0.025988 -0.993300
0.435535 0.859530 0.044796 0.124720 -0.048920 -0.990985
0.120493 0.440534 0.196132 0.440702 -0.116891 0.890010
0.245065 0.457243 0.576407 0.000766 -0.967675 -0.252198
0.210934 0.475403 0.485725 -0.004320 -0.992415 -0.122859
0.276334 0.753728 0.066345 0.003922 -0.067641 0.997702
0.429520 0.439158 0.608484 -0.194995 -0.370174 -0.908266
0.123904 0.795859 0.076997 0.131086 -0.041214 0.990514
0.175112 0.487816 0.161218 0.003496 -0.995681 -0.092772
0.491088 0.462264 0.554747 -0.054016 -0.957599 -0.282997
0.211815 0.567399 0.055976 -0.927881 0.051363 0.369322
0.354722 0.544215 0.048102 -0.355638 -0.125126 -0.926210
0.077203 0.483257 0.314648 0.062047 -0.997996 -0.012428
0.530187 0.471575 0.211908 -0.874055 -0.480709 0.070338
0.090536 0.174742 0.537506 -0.423283 0.120684 0.897924
0.450957 0.740699 0.072002 -0.067484 -0.155054 0.985598
0.346801 0.904329 0.037329 0.023607 -0.090449 -0.995621
0.171069 0.480746 0.390403 -0.005852 -0.999408 -0.033912
0.037982 0.470165 0.302038 0.885161 -0.461437 0.059723
0.459326 0.446818 0.202061 -0.300905 -0.114837 0.946715
0.360793 0.687754 0.029779 0.046053 -0.043407 -0.997995
0.456935 0.881272 0.075384 -0.084865 0.108955 0.990417
0.329234 0.482026 0.347444 0.001480 -0.999364 -0.035632
0.402462 0.485634 0.235329 -0.005161 -0.999484 -0.031696
0.277755 0.486667 0.212214 0.000781 -0.999229 -0.039249
0.335225 0.801822 0.040036 0.024851 0.018833 -0.999514
0.439135 0.881120 0.043966 0.129993 -0.087215 -0.987672
0.446927 0.485367 0.231371 -0.009148 -0.999560 -0.028219
0.133792 0.863463 0.045801 -0.169417 -0.059274 -0.983760
0.111101 0.485522 0.212492 0.047585 -0.977952 -0.203336
0.259692 0.669938 0.050868 -0.038986 -0.895073 0.444212
0.208641 0.487063 0.193092 0.004032 -0.998537 -0.053920
0.532493 0.483337 0.241837 -0.584908 -0.810143 0.039371
0.080745 0.124147 0.534218 -0.962453 0.082444 0.258627
0.116164 0.201205 0.157803 0.998152 -0.048402 -0.036736
0.117229 0.241778 0.167764 0.922363 -0.088110 0.376142
0.246845 0.484544 0.276398 0.001451 -0.999431 -0.033710
0.450763 0.459111 0.568447 -0.012480 -0.963808 -0.266304
0.312207 0.675704 0.026699 0.028425 -0.529926 -0.847567
0.357939 0.917334 0.036273 0.024917 -0.117132 -0.992804
0.452135 0.476766 0.480276 0.009526 -0.992658 -0.120576
0.295395 0.839315 0.039534 0.002433 -0.016139 -0.999867
0.461242 0.224005 0.535399 -0.649488 0.047358 0.758896
0.260393 0.710433 0.062291 0.007289 -0.140900 0.989997
0.272151 0.804204 0.068440 0.008030 -0.016623 0.999830
0.412719 0.810477 0.043752 0.088958 0.012351 -0.995959
0.353102 0.970756 0.040980 0.122655 0.989178 0.080519
0.113768 0.188358 0.163576 0.871919 -0.096402 0.480067
0.334175 0.428732 0.620801 -0.067605 -0.178774 -0.981565
0.151120 0.857966 0.044033 -0.109269 -0.042661 -0.993096
0.250911 0.901190 0.036977 -0.016572 -0.083560 -0.996365
0.183551 0.486082 0.219984 0.004712 -0.999234 -0.038838
0.150486 0.841477 0.044557 -0.112507 -0.022773 -0.993390
0.469791 0.329663 0.501384 0.415637 -0.076541 -0.906304
0.471748 0.099314 0.143694 -0.762786 0.025796 -0.646136
0.468186 0.483773 0.293164 -0.005117 -0.999741 -0.022197
0.252603 0.499831 0.080213 0.026487 -0.873318 0.486431
0.094509 0.743242 0.072281 -0.907444 -0.366814 0.204920
0.322661 0.796828 0.039601 0.017928 0.023541 -0.999562
0.473196 0.095801 0.162506 -0.635309 -0.114543 0.763716
0.109408 0.326161 0.496313 0.326523 -0.119751 -0.937573
0.278180 0.676874 0.027009 -0.023325 -0.438184 -0.898583
0.164130 0.842300 0.072330 0.087444 0.022890 0.995906
0.276340 0.484776 0.270360 0.000827 -0.999426 -0.033862
0.476765 0.248051 0.155083 0.226858 0.113310 -0.967314
0.246037 0.429906 0.621309 0.050588 -0.213838 -0.975558
0.118649 0.280808 0.173240 0.882843 -0.094856 0.459989
0.348313 0.574158 0.054411 -0.993108 0.017341 0.115913
0.225501 0.537945 0.047747 0.470594 -0.118904 -0.874301
0.317097 0.775189 0.038828 0.014917 0.043762 -0.998931
0.319884 0.933559 0.033570 0.007632 -0.142804 -0.989722
0.250497 0.479346 0.421178 -0.001843 -0.998805 -0.048838
0.421362 0.467309 0.532351 0.002411 -0.980586 -0.196075
0.479361 0.156460 0.544593 0.416766 0.120676 0.900968
0.111923 0.712047 0.045306 -0.772699 -0.580297 -0.257279
0.467862 0.784719 0.079935 0.009064 -0.077090 0.996983
0.075992 0.491543 0.139724 0.368453 -0.920117 0.132769
0.162091 0.887447 0.070266 0.080552 0.082037 0.993369
0.410482 0.912315 0.038672 0.048650 -0.128382 -0.990531
0.413213 0.827370 0.072741 -0.089848 0.007016 0.995931
0.471033 0.476049 0.490644 0.009630 -0.989902 -0.141429
0.444004 0.791484 0.075356 -0.130120 -0.043547 0.990541
0.223118 0.486652 0.053853 0.196281 -0.132076 -0.971612
0.139538 0.483269 0.313387 0.000254 -0.999613 -0.027804
0.281467 0.723504 0.063726 0.001027 -0.112894 0.993606
0.252740 0.779758 0.067947 0.017655 -0.040638 0.999018
0.377028 0.486555 0.083668 -0.114077 -0.518758 0.847276
0.462909 0.231339 0.173435 -0.852747 -0.100520 0.512561
0.217437 0.598247 0.039015 -0.335649 -0.126725 -0.933424
0.140785 0.491221 0.094529 0.234950 -0.433984 0.869745
0.212590 0.628662 0.049187 -0.867040 0.068199 0.493548
0.238824 0.472811 0.508060 -0.002052 -0.987377 -0.158374
0.229621 0.774416 0.039624 -0.027682 0.047417 -0.998492
0.478322 0.391314 0.188002 0.920751 0.009845 0.390026
0.263561 0.920373 0.063817 0.010960 0.114199 0.993397
0.118123 0.414238 0.488719 0.604384 -0.119417 -0.787693
0.111218 0.228603 0.512624 0.848253 -0.104102 -0.519259
0.395466 0.963863 0.028880 0.231270 0.828085 -0.510675
0.379721 0.818817 0.070796 -0.050888 -0.002723 0.998701
0.418980 0.487346 0.169763 -0.007093 -0.996054 -0.088463
0.360136 0.479109 0.433191 0.004870 -0.998370 -0.056861
0.427003 0.499302 0.096515 -0.125959 -0.900533 0.416144
0.439433 0.726036 0.068551 -0.060877 -0.173741 0.982908
0.196753 0.876961 0.069186 0.047501 0.057449 0.997218
0.315056 0.823474 0.068725 -0.014136 0.001492 0.999899
0.484227 0.820501 0.069417 0.996852 -0.005503 -0.079093
0.291186 0.494395 0.123500 0.000381 -0.994170 -0.107824
0.489398 0.050055 0.160231 0.401409 -0.072847 0.912997
0.481399 0.142499 0.170581 0.170926 -0.092843 0.980900
0.357544 0.546209 0.066808 0.006567 0.135311 0.990781
0.130000 0.478978 0.456038 -0.012895 -0.997027 -0.075972
0.262428 0.711936 0.062458 0.006688 -0.137719 0.990449
0.492898 0.138089 0.154672 0.979435 0.073284 -0.187981
0.549619 0.469057 0.441705 -0.883334 -0.468528 0.014242
0.422268 0.482348 0.343656 0.004292 -0.999535 -0.030178
0.186107 0.890068 0.068722 0.051068 0.078098 0.995637
0.397996 0.767711 0.070061 -0.059096 -0.059683 0.996467
0.040185 0.483211 0.339707 0.478422 -0.877531 0.032432
0.113205 0.484089 0.279903 0.004197 -0.999530 -0.030365
0.397893 0.685608 0.029687 0.199450 -0.591930 -0.780922
0.297210 0.859001 0.067794 -0.004298 0.035022 0.999377
0.409075 0.839024 0.072188 -0.081268 0.020324 0.996485
0.270211 0.478823 0.435504 -0.000780 -0.998274 -0.058722
0.071881 0.490809 0.143913 0.413248 -0.896737 0.158395
0.085930 0.112088 0.142987 -0.881619 0.094915 -0.462320
0.430894 0.862736 0.072933 -0.111333 0.052072 0.992418
0.187210 0.480855 0.384368 -0.004481 -0.999385 -0.034767
0.229426 0.759654 0.038842 -0.027043 0.063402 -0.997622
0.049656 0.481849 0.439934 0.192297 -0.980275 -0.045630
0.163375 0.771825 0.042509 -0.078614 0.061006 -0.995037
0.363963 0.484833 0.266392 -0.001648 -0.999493 -0.031806
0.455675 0.477655 0.471520 0.010996 -0.994384 -0.105259
0.364898 0.471585 0.513401 0.002052 -0.986055 -0.166406
0.110769 0.279575 0.525009 0.604064 0.050992 0.795303
0.213451 0.763908 0.039582 -0.034380 0.059132 -0.997658
0.292365 0.891866 0.037451 0.000454 -0.069378 -0.997590
0.094664 0.133750 0.164000 -0.358286 -0.079567 0.930215
0.213040 0.652725 0.035216 -0.807020 -0.078624 -0.585266
0.365627 0.802871 0.041074 0.041369 0.018942 -0.998964
0.152168 0.494055 0.126832 0.008362 -0.992651 -0.120721
0.263380 0.850482 0.068350 0.012950 0.026742 0.999558
0.378409 0.884131 0.039957 0.042502 -0.067667 -0.996802
0.128182 0.836362 0.047887 -0.217517 -0.017962 -0.975891
0.445212 0.480801 0.401154 0.012026 -0.999432 -0.031490
0.289114 0.800101 0.068122 -0.000796 -0.020184 0.999796
0.073341 0.483258 0.315890 0.067174 -0.997678 -0.011217
0.088248 0.205506 0.513538 -0.770821 -0.025143 -0.636556
0.229500 0.542041 0.052048 0.907070 -0.058370 -0.416913
0.168037 0.486792 0.088786 0.199917 -0.379944 0.903148
0.285676 0.702591 0.032288 -0.000356 0.135440 -0.990785
0.473276 0.410860 0.503758 0.991561 0.039648 -0.123430
0.442877 0.484059 0.286310 -0.001690 -0.999669 -0.025683
0.297870 0.844119 0.068262 -0.004876 0.020687 0.999774
0.455833 0.480080 0.434399 0.014392 -0.998382 -0.055016
0.307051 0.691503 0.059031 -0.006453 -0.251878 0.967737
0.098571 0.357450 0.495423 -0.607523 -0.050998 -0.792663
0.484160 0.205484 0.153121 0.600046 0.115779 -0.791543
0.464424 0.734487 0.072092 0.025181 -0.236738 0.971247
0.107818 0.263078 0.504026 0.454139 -0.121116 -0.882660
0.506247 0.484121 0.258564 -0.142968 -0.989724 -0.002616
0.143938 0.867514 0.044081 -0.115625 -0.060069 -0.991475
0.381125 0.488135 0.158457 -0.004475 -0.994838 -0.101379
0.094026 0.335411 0.501717 -0.862804 -0.005796 -0.505505
0.433990 0.480462 0.408978 0.010750 -0.999259 -0.036946
0.268900 0.489944 0.078707 0.021704 -0.612333 0.790302
0.083591 0.053728 0.526615 -0.506125 -0.063884 -0.860091
0.362419 0.963842 0.027961 0.126299 0.643539 -0.754921
0.188401 0.481469 0.366193 -0.003328 -0.999422 -0.033820
0.410903 0.482815 0.328445 0.002698 -0.999523 -0.030763
0.476684 0.034837 0.135656 -0.674177 0.040092 -0.737481
0.111110 0.713275 0.040710 -0.773666 -0.516455 -0.367034
0.320222 0.483690 0.301310 0.000181 -0.999394 -0.034820
0.451437 0.739668 0.043034 0.170542 0.154651 -0.973139
0.180834 0.895683 0.039758 -0.050178 -0.089750 -0.994699
0.178579 0.471357 0.514425 -0.004200 -0.985480 -0.169737
0.463371 0.224819 0.158768 -0.856258 0.007172 -0.516498
0.441570 0.869812 0.074084 -0.113791 0.066699 0.991263
0.528995 0.451480 0.544651 -0.753721 -0.352535 -0.554638
0.076789 0.049754 0.543033 -0.938772 0.089129 0.332810
0.116951 0.491572 0.139963 0.025035 -0.991911 -0.124443
0.084215 0.063299 0.136256 -0.800731 0.104194 -0.589893
0.397757 0.824413 0.042964 0.062206 -0.001755 -0.998062
0.117091 0.479682 0.449121 -0.015121 -0.997700 -0.066069
0.471841 0.061674 0.154861 -0.868136 -0.098626 0.486429
0.081385 0.485777 0.172191 0.065886 -0.991805 -0.109464
0.127067 0.421574 0.185989 0.959428 -0.078957 0.270673
0.155629 0.479315 0.441578 -0.009606 -0.998073 -0.061309
0.257768 0.960940 0.028520 -0.009851 0.069658 -0.997522
0.250290 0.461419 0.558015 -0.000460 -0.974700 -0.223516
0.434037 0.873001 0.072685 -0.111663 0.065813 0.991564
0.128893 0.459939 0.181412 0.924030 -0.007965 -0.382237
0.356458 0.774287 0.068527 -0.033718 -0.047856 0.998285
0.475368 0.481350 0.393985 0.011156 -0.999572 -0.027030
0.384228 0.485347 0.247920 -0.003586 -0.999508 -0.031168
0.353275 0.607762 0.040212 -0.490343 -0.116076 -0.863765
0.357779 0.902937 0.066455 -0.028700 0.090570 0.995476
0.390586 0.689524 0.030671 0.106637 -0.247193 -0.963081
0.477923 0.325016 0.513426 0.995617 0.044333 -0.082354
0.534116 0.481709 0.255312 -0.627755 -0.777057 0.045884
0.413074 0.831446 0.072639 -0.088849 0.012290 0.995969
0.310259 0.494218 0.079263 -0.026963 -0.740288 0.671749
0.120005 0.761562 0.075153 0.083663 -0.108841 0.990532
0.443884 0.821298 0.047246 0.191190 0.001052 -0.981552
0.361107 0.492857 0.132192 -0.003852 -0.994399 -0.105616
0.265247 0.482931 0.322080 0.000549 -0.999371 -0.035460
0.159905 0.746540 0.069554 0.069916 -0.099607 0.992568
0.092657 0.100451 0.519943 -0.023710 -0.105652 -0.994120
0.221657 0.495315 0.081913 0.070600 -0.772841 0.630661
0.099827 0.404176 0.178471 -0.996684 0.057768 -0.057311
0.243708 0.811067 0.040169 -0.022935 0.010418 -0.999683
0.124159 0.489487 0.151501 0.008986 -0.992916 -0.118481
0.287278 0.478417 0.446642 0.000107 -0.997790 -0.066440
0.281425 0.968794 0.055280 0.002148 0.789793 0.613369
0.283655 0.713310 0.062527 0.000245 -0.133163 0.991094
0.435057 0.797636 0.074006 -0.127829 -0.031528 0.991295
0.201818 0.480070 0.405602 -0.004895 -0.999310 -0.036816
0.349644 0.498770 0.058362 -0.858158 -0.067822 -0.508886
0.116088 0.276532 0.176247 0.703860 -0.111026 0.701608
0.481106 0.284546 0.162400 0.712252 0.111621 -0.692992
0.474725 0.082887 0.140203 -0.621053 0.047608 -0.782322
0.086321 0.480430 0.445262 -0.001621 -0.998144 -0.060876
0.479825 0.435881 0.590194 -0.516863 -0.074442 -0.852826
0.091716 0.291033 0.506081 -0.851041 -0.008575 -0.525030
0.164982 0.479782 0.422563 -0.008038 -0.998846 -0.047352
0.101960 0.376646 0.186259 -0.711210 -0.037216 0.701994
0.406805 0.840542 0.071990 -0.077236 0.021696 0.996777
0.247690 0.467967 0.529308 -0.001215 -0.982660 -0.185414
0.061309 0.484136 0.213520 0.488019 -0.865834 -0.110310
0.268768 0.487734 0.180229 0.000517 -0.997478 -0.070974
0.457432 0.748114 0.073813 -0.068539 -0.147243 0.986723
0.348491 0.665036 0.039123 -0.970341 -0.031018 -0.239742
0.397261 0.837014 0.071399 -0.062415 0.016766 0.997909
0.490736 0.028514 0.132816 0.311125 0.115519 -0.943322
0.297620 0.481220 0.368825 0.000936 -0.999315 -0.036999
0.139056 0.878152 0.072692 0.114464 0.077691 0.990385
0.462432 0.797633 0.078905 -0.140433 -0.043561 0.989131
0.429097 0.946887 0.061646 0.142289 0.591133 0.793925
0.468093 0.194639 0.173078 -0.627037 -0.114788 0.770486
0.240592 0.671347 0.034008 -0.085222 -0.976288 -0.198994
0.541781 0.469032 0.344782 -0.897009 -0.435979 0.072784
0.122933 0.481986 0.360589 -0.006417 -0.999614 -0.027049
0.363045 0.484766 0.268553 -0.001475 -0.999489 -0.031945
0.442646 0.948036 0.043086 0.541604 0.809978 -0.224945
0.196561 0.875111 0.069273 0.047895 0.055428 0.997313
0.209054 0.481212 0.371156 -0.002358 -0.999378 -0.035180
0.452311 0.369627 0.518671 -0.697791 0.039926 0.715188
0.481194 0.232021 0.530719 0.868642 0.099487 0.485349
0.266198 0.904910 0.065330 0.010130 0.087566 0.996107
0.114276 0.337112 0.185502 0.362922 -0.116318 0.924531
0.266986 0.747254 0.065930 0.007954 -0.076626 0.997028
0.529728 0.482393 0.424341 -0.260668 -0.965123 -0.024270
0.092059 0.802806 0.087628 -0.668360 -0.041676 0.742669
0.105447 0.473160 0.506743 -0.009146 -0.985828 -0.167508
0.245270 0.486883 0.203780 0.002759 -0.999173 -0.040561
0.482790 0.459548 0.566626 -0.054449 -0.951753 -0.301997
0.356970 0.908351 0.066028 -0.027564 0.097723 0.994832
0.493673 0.479254 0.119579 -0.661918 -0.232753 0.712525
0.323430 0.438755 0.622626 -0.038277 -0.505607 -0.861914
0.324387 0.485206 0.257430 -0.000902 -0.999457 -0.032943
0.318370 0.467765 0.530103 0.000130 -0.982480 -0.186368
0.186421 0.485915 0.226530 0.004513 -0.999295 -0.037266
0.467132 0.484209 0.274696 -0.008362 -0.999734 -0.021473
0.294459 0.471283 0.514607 -0.000302 -0.986091 -0.166205
0.101080 0.301777 0.498705 -0.194806 -0.093801 -0.976346
0.457336 0.778546 0.077019 -0.120670 -0.074673 0.989880
0.469400 0.088621 0.147596 -0.965730 -0.025938 -0.258248
0.164752 0.486737 0.193175 0.004734 -0.998237 -0.059162
0.212113 0.540583 0.060520 -0.877752 0.065649 0.474597
0.361283 0.763860 0.068250 -0.035895 -0.058135 0.997663
0.460136 0.865382 0.077486 -0.115459 0.073931 0.990557
0.544620 0.477869 0.379420 -0.691456 -0.720586 0.051426
0.255652 0.920684 0.035093 -0.013261 -0.115680 -0.993198
0.464880 0.162176 0.521251 -0.597344 -0.118358 -0.793203
0.224125 0.728325 0.036352 -0.023277 0.112083 -0.993426
0.286025 0.483050 0.319075 0.000431 -0.999363 -0.035690
0.367048 0.548848 0.059395 0.961068 0.035548 0.274014
0.431435 0.481811 0.362827 0.006770 -0.999522 -0.030170
0.502411 0.469035 0.525151 -0.043937 -0.972306 -0.229542
0.279403 0.679923 0.027781 -0.021269 -0.261345 -0.965011
0.544726 0.477165 0.380585 -0.710288 -0.701902 0.053140
0.476253 0.108824 0.166411 -0.339902 -0.115632 0.933325
0.337367 0.727027 0.064581 -0.020193 -0.110558 0.993665
0.314277 0.973993 0.026834 0.042151 0.815208 -0.577633
0.379287 0.677160 0.054871 0.131019 -0.910662 0.391827
0.548070 0.469421 0.419266 -0.886077 -0.460399 0.053861
0.222164 0.484598 0.273387 0.002242 -0.999463 -0.032682
0.452311 0.299166 0.517810 -0.995124 -0.044161 0.088193
0.101989 0.900650 0.075540 -0.520606 0.296206 0.800769
0.113055 0.497191 0.108163 0.215572 -0.756081 0.617957
0.205370 0.968212 0.052696 -0.116812 0.884297 0.452077
