0.045352 0.424000 0.269123 -0.303241 -0.947240 -0.103830
0.033286 0.057472 0.059213 -0.958615 -0.029374 -0.283186
0.263559 0.397129 0.120000 0.000000 0.000000 1.000000
0.053500 0.200824 0.181427 0.440911 0.000000 0.897551
0.039549 0.722591 0.085722 -0.612307 0.010761 0.790547
0.406588 0.500000 0.286263 0.019875 0.999522 -0.023675
0.037507 0.312085 0.050624 -0.676463 -0.009724 -0.736413
0.528500 0.380716 0.454203 -0.274169 0.000000 0.961682
0.059110 0.407926 0.516573 0.395916 -0.012061 -0.918207
0.536055 0.482945 0.140791 0.398522 0.888950 -0.225716
0.053500 0.164356 0.406111 0.470802 0.000000 0.882239
0.372324 0.400968 0.538000 -0.033446 0.000000 0.999441
0.528500 0.397176 0.304030 -0.621141 0.000000 0.783699
0.155812 0.424000 0.172665 -0.176712 -0.978006 -0.110801
0.557000 0.425700 0.345359 0.338899 -0.939546 -0.048990
0.133504 0.424000 0.417841 -0.098375 -0.994243 0.042453
0.194288 0.401036 0.538000 -0.039778 0.000000 0.999209
0.053500 0.369194 0.068683 -0.249381 0.000000 0.968405
0.457267 0.861578 0.045389 0.179223 -0.027728 -0.983418
0.063388 0.735811 0.048095 0.543267 0.007106 -0.839530
0.073034 0.424000 0.288244 -0.247290 -0.965780 -0.078214
0.053500 0.403960 0.137411 -0.774051 0.000000 0.633123
0.089692 0.424000 0.162169 -0.291472 -0.944743 -0.150018
0.510220 0.378801 0.538000 -0.090092 0.000000 0.995933
0.381271 0.493410 0.520538 0.076381 0.973615 0.215034
0.363014 0.424000 0.322107 0.045213 -0.998331 0.035919
0.280777 0.500000 0.252817 -0.001757 0.999557 -0.029709
0.033165 0.240324 0.529754 -0.907103 -0.046714 -0.418307
0.053500 0.391790 0.337426 -0.546608 0.000000 0.837389
0.544953 0.424000 0.565935 0.157367 -0.984083 0.082556
0.198441 0.395487 0.120000 0.000000 0.000000 1.000000
0.053500 0.172221 0.198232 0.830888 0.000000 0.556439
0.062596 0.364706 0.087733 0.485424 -0.006226 0.874256
0.294069 0.424000 0.406577 0.001932 -0.986207 0.165508
0.053250 0.424000 0.266514 -0.291966 -0.951009 -0.101674
0.516265 0.778102 0.057680 0.203074 -0.058673 -0.977404
0.178816 0.817714 0.034349 -0.134709 -0.025364 -0.990561
0.155577 0.424000 0.319280 -0.092399 -0.995567 -0.017566
0.196542 0.488861 0.539639 -0.152274 0.939685 0.306276
0.421666 0.424000 0.149152 0.182737 -0.975363 -0.123585
0.437244 0.424000 0.345098 0.095421 -0.995415 -0.006688
0.042234 0.145290 0.086834 -0.333863 -0.021566 0.942375
0.526251 0.267551 0.560818 -0.097212 -0.026921 0.994900
0.472070 0.751982 0.067473 -0.171525 -0.017191 0.985030
0.087118 0.424000 0.548075 -0.127047 -0.985704 0.110664
0.114102 0.424000 0.200904 -0.229708 -0.966607 -0.113604
0.356965 0.491173 0.533964 0.089279 0.958940 0.269189
0.531284 0.853144 0.090347 0.158652 0.011446 0.987268
0.307359 0.415951 0.538000 -0.006723 0.000000 0.999977
0.053500 0.400676 0.522027 -0.129015 0.000000 0.991643
0.379609 0.940336 0.032384 0.118304 0.050728 -0.991681
0.505229 0.063674 0.539157 -0.985790 -0.150570 -0.074479
0.070650 0.336206 0.083686 0.770233 0.002986 0.637755
0.489582 0.494996 0.511025 0.212405 0.966591 0.143475
0.054274 0.441797 0.091179 0.135439 -0.003503 0.990779
0.193065 0.424000 0.165228 -0.118919 -0.988191 -0.096628
0.213758 0.424000 0.225228 -0.050431 -0.997577 -0.047917
0.551493 0.560087 0.065922 0.993838 0.004709 -0.110742
0.049036 0.486036 0.223165 -0.368063 0.920669 -0.129989
0.374516 0.500000 0.357441 0.015993 0.999862 -0.004525
0.225217 0.862324 0.030482 -0.077921 0.049682 -0.995721
0.534156 0.424000 0.219053 0.327004 -0.935459 -0.134109
0.318098 0.424000 0.280169 0.017047 -0.999078 0.039413
0.047081 0.326175 0.046659 -0.271208 -0.003181 -0.962515
0.485463 0.499107 0.386690 0.087191 0.996192 -0.000418
0.051486 0.373113 0.560916 -0.205917 -0.021182 0.978340
0.074247 0.178806 0.545250 0.951637 -0.053274 0.302571
0.468287 0.424000 0.285460 0.181492 -0.981573 -0.059787
0.528500 0.382665 0.258537 -0.418312 0.000000 0.908303
0.539760 0.303909 0.048664 0.495692 -0.007625 -0.868465
0.427642 0.880175 0.039217 0.163274 -0.018173 -0.986413
0.528500 0.416295 0.092162 -0.900896 0.000000 0.434035
0.416972 0.956000 0.050196 -0.141164 0.459102 -0.877097
0.053500 0.395717 0.098218 -0.667313 0.000000 0.744777
0.551716 0.342933 0.066461 0.999906 -0.010365 -0.008993
0.071270 0.551795 0.082187 0.767865 0.011524 0.640508
0.053500 0.213861 0.123003 0.233792 0.000000 0.972287
0.095849 0.498970 0.290835 -0.074751 0.996641 -0.033441
0.266791 0.406060 0.120000 0.000000 0.000000 1.000000
0.509618 0.419178 0.526247 -0.922020 -0.023955 -0.386399
0.528500 0.420220 0.201303 -0.811505 0.000000 0.584346
0.054353 0.718561 0.044353 0.190724 0.009505 -0.981598
0.072074 0.956000 0.059738 -0.145897 0.222566 -0.963939
0.076933 0.377898 0.066984 0.996923 -0.020313 -0.075711
0.449705 0.500000 0.199322 0.027273 0.998557 -0.046267
0.509697 0.150069 0.526056 -0.811628 -0.070298 -0.579930
0.076220 0.129039 0.535513 0.973076 -0.135445 -0.186488
0.507270 0.424000 0.533912 0.134587 -0.986955 0.088356
0.534898 0.409607 0.559100 0.429552 -0.018311 0.902857
0.150373 0.442161 0.091500 -0.352084 -0.402160 -0.845165
0.528500 0.415880 0.413430 -0.368329 0.000000 0.929695
0.528500 0.381953 0.149768 -0.433655 0.000000 0.901079
0.437236 0.424000 0.417551 0.091472 -0.994457 0.051844
0.050847 0.265883 0.560651 -0.129641 -0.032462 0.991029
0.080601 0.495920 0.253517 -0.138835 0.985572 -0.096816
0.053500 0.201381 0.436378 0.410326 0.000000 0.911939
0.528500 0.176185 0.182833 0.805177 0.000000 0.593034
0.528500 0.374134 0.328915 -0.258774 0.000000 0.965938
0.511940 0.220149 0.084641 -0.763990 -0.001872 0.645226
0.510708 0.342500 0.552384 -0.713542 -0.012956 0.700493
0.184200 0.463299 0.092799 -0.319197 0.575232 -0.753141
0.234190 0.726006 0.029734 -0.061772 -0.055549 -0.996543
0.053500 0.181900 0.409254 0.464513 0.000000 0.885566
0.177610 0.497630 0.495219 -0.049220 0.993038 0.107014
0.507408 0.424000 0.253656 0.264532 -0.959235 -0.099454
0.056694 0.482619 0.090177 0.220712 -0.003089 0.975334
0.303942 0.492955 0.134729 0.002238 0.970276 -0.241991
0.084296 0.794082 0.072813 0.183092 -0.003399 0.983090
0.097701 0.709490 0.051021 -0.187442 -0.118718 -0.975075
0.072535 0.217772 0.056367 0.807918 -0.026408 -0.588703
0.531077 0.313056 0.560683 0.173287 -0.027811 0.984479
0.065335 0.878397 0.086598 0.441448 0.008087 0.897250
0.528500 0.386692 0.447587 -0.289184 0.000000 0.957274
0.532450 0.364010 0.045636 0.145049 -0.001861 -0.989423
0.035648 0.211132 0.081990 -0.676457 -0.018719 0.736244
0.425948 0.807394 0.038864 0.152853 -0.044788 -0.987233
0.050162 0.151944 0.515632 -0.148757 -0.037401 -0.988166
0.494057 0.490877 0.122261 0.198276 0.952031 -0.233073
0.047178 0.484178 0.402223 -0.465274 0.882618 0.067130
0.264138 0.424000 0.325296 -0.016928 -0.996858 0.077386
0.222785 0.424000 0.223112 -0.042474 -0.998177 -0.042881
0.285902 0.424000 0.491409 -0.003188 -0.972471 0.233000
0.379294 0.494332 0.515008 0.051860 0.979130 0.196509
0.372463 0.424000 0.519822 0.051033 -0.980066 0.192004
0.084350 0.452003 0.091500 -0.741861 0.253823 -0.620658
0.461517 0.500000 0.201428 0.029303 0.998512 -0.046000
0.528500 0.183952 0.300356 0.674231 0.000000 0.738521
0.053500 0.193101 0.319243 0.567502 0.000000 0.823372
0.538229 0.305957 0.518280 0.354994 -0.023836 -0.934565
0.052560 0.424000 0.458952 -0.181875 -0.983124 0.019689
0.165161 0.500000 0.407493 -0.042376 0.998985 0.015265
0.075558 0.424000 0.267746 -0.254903 -0.962767 -0.090020
0.405559 0.467773 0.097273 0.268606 0.649517 -0.711322
0.343775 0.722772 0.029398 0.057365 -0.058929 -0.996613
0.374233 0.424000 0.307480 0.052137 -0.998540 0.014140
0.417678 0.777446 0.056141 -0.156120 0.020330 0.987529
0.533819 0.056631 0.046203 0.302345 -0.019079 -0.953008
0.370929 0.424000 0.451225 0.050249 -0.989321 0.136821
0.484978 0.753588 0.051162 0.193681 -0.102508 -0.975694
0.037927 0.335255 0.555300 -0.723290 -0.031533 0.689824
0.557000 0.428540 0.271747 0.465969 -0.882068 -0.069490
0.380260 0.782994 0.032438 0.099821 -0.010060 -0.994955
0.075500 0.137665 0.071975 0.996740 -0.037174 0.071609
0.307950 0.723956 0.026413 0.018410 -0.059700 -0.998047
0.550413 0.703311 0.072186 0.988230 0.012939 0.152430
0.058729 0.071150 0.516416 0.169135 -0.038512 -0.984840
0.053500 0.211343 0.246424 0.271917 0.000000 0.962321
0.445748 0.401812 0.538000 -0.063644 0.000000 0.997973
0.505504 0.588703 0.069572 -0.993396 0.019674 0.113038
0.531121 0.952734 0.090415 0.179917 0.017446 0.983527
0.528500 0.185368 0.274108 0.686260 0.000000 0.727357
0.162794 0.424000 0.249423 -0.120682 -0.990986 -0.058165
0.555615 0.463385 0.456654 0.882177 0.349529 0.315584
0.053500 0.212545 0.534183 0.223747 0.000000 0.974647
0.259850 0.498361 0.167165 -0.005378 0.995546 -0.094122
0.516290 0.757817 0.076685 -0.178499 -0.048209 0.982758
0.436562 0.901108 0.041076 0.168884 -0.004171 -0.985627
0.291028 0.801432 0.044002 -0.000030 -0.078679 0.996900
0.528500 0.370290 0.257848 -0.217651 0.000000 0.976027
0.136287 0.478494 0.107994 -0.208444 0.819646 -0.533603
0.545979 0.274358 0.522859 0.710009 -0.038555 -0.703136
0.143323 0.500000 0.366681 -0.045186 0.998970 0.004197
0.514353 0.790346 0.085641 -0.546858 0.004356 0.837214
0.036071 0.473071 0.414322 -0.722488 0.670921 0.166962
0.409829 0.500000 0.339358 0.028301 0.999574 -0.007124
0.528500 0.375059 0.208321 -0.305139 0.000000 0.952308
0.536861 0.140717 0.517713 0.385370 -0.046699 -0.921580
0.498153 0.424000 0.252177 0.250202 -0.963437 -0.095855
0.359149 0.800000 0.030679 0.074444 0.017847 -0.997065
0.528500 0.171979 0.399897 0.483231 0.000000 0.875493
0.328783 0.923707 0.028149 0.047355 0.108057 -0.993016
0.241539 0.500000 0.368537 -0.008504 0.999962 -0.001718
0.512028 0.726505 0.084677 -0.641283 0.005385 0.767286
0.544578 0.524600 0.084841 0.637807 0.000219 0.770196
0.526834 0.424000 0.171505 0.341251 -0.926206 -0.160285
0.068747 0.221754 0.520565 0.655439 -0.022885 -0.754902
0.043391 0.308673 0.557563 -0.499115 -0.034836 0.865835
0.457373 0.492889 0.134336 0.128480 0.970124 -0.205796
0.030481 0.061299 0.069516 -0.972785 -0.029915 0.229772
0.053500 0.161877 0.449323 0.384643 0.000000 0.923065
0.144033 0.424000 0.263861 -0.143537 -0.987921 -0.058387
0.048883 0.424000 0.337995 -0.258332 -0.964286 -0.058457
0.037918 0.474918 0.327078 -0.635158 0.772314 -0.010280
0.486179 0.424000 0.495106 0.121681 -0.989784 0.074308
0.025000 0.447351 0.369495 -0.926728 -0.279998 0.250552
0.316495 0.944060 0.046125 -0.027743 0.048781 0.998424
0.419734 0.425190 0.091500 0.221118 -0.955900 -0.193290
0.146124 0.373375 0.120000 0.000000 0.000000 1.000000
0.293408 0.793607 0.044201 -0.002629 -0.086536 0.996245
0.341015 0.424000 0.188161 0.031101 -0.997932 -0.056260
0.368949 0.918852 0.031496 0.101328 0.055938 -0.993279
0.292128 0.424000 0.525794 0.000702 -0.964615 0.263663
0.053500 0.194927 0.142190 0.537928 0.000000 0.842991
0.138768 0.915845 0.061465 0.159748 0.057771 0.985466
0.317976 0.424000 0.412564 0.016987 -0.988527 0.150085
0.071825 0.227648 0.551099 0.813472 -0.020147 0.581256
0.095934 0.424000 0.462837 -0.121475 -0.991449 0.047681
0.073805 0.350159 0.529684 0.957886 -0.051851 -0.282428
0.321663 0.496181 0.154083 0.005312 0.988015 -0.154268
0.280545 0.816274 0.044871 0.011426 -0.067229 0.997672
0.156386 0.872290 0.038795 -0.160649 -0.019892 -0.986811
0.039898 0.476898 0.528379 -0.672455 0.656609 0.341570
0.528500 0.392255 0.209111 -0.591082 0.000000 0.806611
0.053500 0.421629 0.286737 -0.657805 0.000000 0.753188
0.080924 0.495985 0.234450 -0.134180 0.985710 -0.101844
0.035844 0.080271 0.552714 -0.651441 -0.073106 0.755169
0.528500 0.191685 0.460431 0.362765 0.000000 0.931881
0.383259 0.878976 0.032688 0.115717 0.022807 -0.993020
0.407171 0.786868 0.053952 -0.146411 0.015090 0.989109
0.048077 0.708558 0.089254 -0.236088 0.004613 0.971721
0.527751 0.424000 0.267775 0.289639 -0.951856 -0.100394
0.053500 0.422262 0.073821 -0.939698 0.000000 0.342005
0.068804 0.456705 0.091500 -0.736163 0.463099 -0.493562
0.035302 0.653124 0.054346 -0.739690 0.010821 -0.672861
0.164416 0.928908 0.037122 -0.160991 0.006856 -0.986932
0.044221 0.481221 0.530318 -0.579731 0.756644 0.302327
0.238678 0.709000 0.033154 -0.093351 -0.148250 -0.984534
0.065506 0.377492 0.048973 0.517984 -0.000117 -0.855390
0.549394 0.046281 0.074646 0.878044 -0.031543 0.477539
0.528500 0.420584 0.141932 -0.887287 0.000000 0.461217
0.357656 0.424000 0.159328 0.070469 -0.993938 -0.084387
0.546095 0.925394 0.082609 0.813639 0.024361 0.580860
0.260655 0.424000 0.511313 -0.018975 -0.973467 0.228040
0.185524 0.436772 0.566500 -0.407977 -0.782099 0.471037
0.034965 0.289725 0.550590 -0.856657 -0.042290 0.514150
0.473605 0.424000 0.376773 0.137242 -0.990527 -0.004585
0.424233 0.709000 0.040465 0.155080 -0.102728 -0.982546
0.055027 0.025000 0.525801 0.026675 -0.190931 -0.981241
0.502857 0.799163 0.054887 0.197287 -0.049015 -0.979120
0.300263 0.424000 0.524664 0.005772 -0.966627 0.256123
0.526455 0.490909 0.396472 0.322910 0.944346 0.062773
0.070794 0.337627 0.083336 0.780080 0.004230 0.625665
0.512952 0.429099 0.085060 -0.687452 0.000303 0.726229
0.053500 0.194696 0.375686 0.531431 0.000000 0.847102
0.413120 0.953105 0.055192 -0.130694 0.044280 0.990433
0.517650 0.416737 0.120000 0.000000 0.000000 1.000000
0.157536 0.500000 0.448955 -0.052373 0.998201 0.029184
0.250388 0.830491 0.028384 -0.044386 0.046432 -0.997935
0.521043 0.975000 0.067828 -0.971595 0.171449 0.163119
0.038539 0.344095 0.555553 -0.710001 -0.030212 0.703552
0.278328 0.424000 0.275530 -0.007979 -0.998819 0.047920
0.515661 0.708471 0.086182 -0.523594 0.002075 0.851965
0.053500 0.387909 0.511421 -0.150511 0.000000 0.988608
0.262955 0.908178 0.046337 0.030604 0.014779 0.999422
0.255273 0.424000 0.133322 -0.034491 -0.995777 -0.085082
0.197370 0.464364 0.564136 -0.306028 0.575663 0.758261
0.053500 0.164182 0.108465 0.913247 0.000000 0.407407
0.518396 0.193029 0.518435 -0.435152 -0.018828 -0.900160
0.528500 0.212097 0.497931 0.260387 0.000000 0.965504
0.189981 0.424000 0.471042 -0.063437 -0.988790 0.135167
0.032671 0.886312 0.074801 -0.974045 0.025623 0.224898
0.216047 0.424000 0.241798 -0.046718 -0.998356 -0.033193
0.063786 0.056343 0.557489 0.602529 -0.035181 0.797321
0.519387 0.427330 0.047774 -0.426402 0.002338 -0.904531
0.126931 0.500000 0.341084 -0.048109 0.998839 -0.002504
0.490011 0.424000 0.219024 0.255759 -0.960119 -0.112954
0.524766 0.150799 0.089954 -0.344193 -0.013881 0.938796
0.528500 0.412159 0.069199 -0.869015 0.000000 0.494786
0.044191 0.424000 0.473985 -0.186930 -0.982055 0.025008
0.399618 0.709000 0.058253 -0.058143 -0.159710 0.985450
0.272848 0.424000 0.291969 -0.011433 -0.998310 0.056973
0.528500 0.374816 0.513115 -0.147047 0.000000 0.989130
0.060594 0.491919 0.493360 -0.321656 0.934134 0.154699
0.438724 0.419354 0.120000 0.000000 0.000000 1.000000
0.053500 0.167714 0.168611 0.865708 0.000000 0.500550
0.073698 0.851260 0.076325 0.868665 0.037951 0.493944
0.540230 0.468371 0.097871 0.632970 0.704640 -0.320674
0.534244 0.845113 0.089121 0.291933 0.013197 0.956348
0.506708 0.071040 0.072477 -0.996355 -0.045319 0.072270
0.528500 0.388019 0.116545 -0.542384 0.000000 0.840131
0.350705 0.954319 0.029975 0.080924 0.092265 -0.992441
0.205131 0.392051 0.120000 0.000000 0.000000 1.000000
0.077122 0.857387 0.074308 0.195978 0.042796 0.979674
0.134340 0.424000 0.140947 -0.230536 -0.962676 -0.141805
0.053500 0.383686 0.277337 -0.430905 0.000000 0.902397
0.475918 0.424000 0.311264 0.179186 -0.982685 -0.047151
0.295182 0.380391 0.120000 0.000000 0.000000 1.000000
0.477089 0.411392 0.538000 -0.076512 0.000000 0.997069
0.076899 0.727258 0.066902 0.998837 0.029324 0.038278
0.548036 0.567422 0.057575 0.857073 0.006406 -0.515156
0.518544 0.121563 0.518374 -0.391020 -0.026242 -0.920008
0.364496 0.500000 0.299762 0.012637 0.999732 -0.019392
0.164607 0.384322 0.538000 -0.051988 0.000000 0.998648
0.120421 0.495647 0.507116 -0.152761 0.978215 0.140566
0.053500 0.205862 0.165152 0.358490 0.000000 0.933534
0.115067 0.500000 0.298509 -0.046319 0.998814 -0.015032
0.077503 0.464854 0.563646 -0.725773 0.378175 0.574663
0.517049 0.935918 0.086757 -0.410243 0.010564 0.911915
0.076492 0.486910 0.065919 0.996074 -0.008859 -0.088082
0.557000 0.428681 0.212559 0.503274 -0.857252 -0.108782
0.327412 0.709000 0.048037 -0.001454 -0.179160 0.983819
0.343312 0.763561 0.029359 0.057056 -0.018964 -0.998191
0.361772 0.925531 0.030898 0.092433 0.067483 -0.993429
0.247349 0.500000 0.463827 -0.016038 0.999537 0.025843
0.452013 0.500000 0.388122 0.054413 0.998443 0.012244
0.500748 0.496050 0.158692 0.120055 0.984873 -0.124948
0.211398 0.762754 0.050634 0.101632 -0.040287 0.994006
0.233626 0.709000 0.046517 -0.119731 -0.332037 0.935637
0.249120 0.424000 0.358290 -0.026387 -0.995403 0.092069
0.025000 0.454317 0.563586 -0.875272 -0.054580 0.480542
0.532287 0.277488 0.560181 0.194512 -0.033314 0.980334
0.053500 0.417004 0.338918 -0.543186 0.000000 0.839612
0.506328 0.357922 0.063940 -0.974367 -0.034985 -0.222226
0.547151 0.471849 0.152568 0.617000 0.752693 -0.229704
0.158685 0.415255 0.538000 -0.054423 0.000000 0.998518
0.241107 0.424000 0.411433 -0.031417 -0.991079 0.129523
0.061575 0.206088 0.047345 0.319907 -0.006630 -0.947426
0.258833 0.418816 0.120000 0.000000 0.000000 1.000000
0.433893 0.500000 0.308111 0.033617 0.999323 -0.014937
0.032096 0.781706 0.062087 -0.929317 0.020374 -0.368721
0.232394 0.823405 0.048884 0.065627 -0.061795 0.995929
0.161868 0.424000 0.365436 -0.080722 -0.996468 0.023152
0.033585 0.569104 0.077008 -0.900432 0.001812 0.434994
0.382928 0.479119 0.108619 0.102176 0.812171 -0.574402
0.371108 0.424000 0.275038 0.050064 -0.998695 -0.010118
0.041288 0.242299 0.049058 -0.553704 -0.011955 -0.832628
0.354149 0.424000 0.259541 0.039505 -0.999183 -0.008564
0.488237 0.394598 0.538000 -0.081085 0.000000 0.996707
0.506331 0.264385 0.541816 -0.975990 -0.049723 0.212064
0.528500 0.377039 0.150127 -0.352232 0.000000 0.935913
0.402530 0.880951 0.034294 0.141651 -0.000514 -0.989917
0.063557 0.607664 0.048165 0.512818 0.004987 -0.858483
0.256458 0.424000 0.543031 -0.021529 -0.968019 0.249951
0.058333 0.770805 0.089498 0.193795 0.007203 0.981016
0.053500 0.378765 0.153686 -0.379667 0.000000 0.925123
0.053500 0.411299 0.194515 -0.821484 0.000000 0.570232
0.556091 0.424000 0.145180 0.399642 -0.896939 -0.189175
0.042738 0.424000 0.419522 -0.221154 -0.975189 -0.009833
0.540698 0.478302 0.518929 0.641237 0.701377 0.311263
0.447976 0.424000 0.119710 0.243096 -0.957466 -0.155444
0.448683 0.459076 0.091500 0.523203 0.514003 -0.679750
0.046878 0.424000 0.360044 -0.248899 -0.967463 -0.045443
0.362873 0.372182 0.538000 -0.029557 0.000000 0.999563
0.025890 0.462890 0.405267 -0.891006 0.390470 0.231608
0.346913 0.879066 0.048659 -0.061102 -0.018871 0.997953
0.125443 0.859603 0.045241 -0.179491 -0.031071 -0.983269
0.463473 0.747881 0.046682 0.175684 -0.091116 -0.980221
0.528500 0.397256 0.068396 -0.695111 0.000000 0.718903
0.170692 0.424000 0.125349 -0.179188 -0.974701 -0.133601
0.071471 0.529819 0.053798 0.799187 -0.012022 -0.600962
0.528500 0.423202 0.444774 -0.295604 0.000000 0.955311
0.067659 0.108702 0.085636 0.723975 -0.005635 0.689803
0.265153 0.420453 0.120000 0.000000 0.000000 1.000000
0.222079 0.424000 0.136714 -0.087129 -0.991164 -0.100013
0.557000 0.452056 0.486524 0.905665 -0.122552 0.405896
0.247101 0.932270 0.047658 0.047839 0.033621 0.998289
0.540283 0.052788 0.556870 0.347220 -0.069406 0.935212
0.062673 0.492335 0.380723 -0.276297 0.960650 0.028471
0.053500 0.158468 0.510345 0.267245 0.000000 0.963629
0.222960 0.500000 0.402780 -0.016667 0.999824 0.008557
0.188665 0.424000 0.550047 -0.063990 -0.977914 0.198970
0.053500 0.166574 0.341573 0.597948 0.000000 0.801535
0.053500 0.403374 0.479877 -0.217193 0.000000 0.976129
0.053500 0.162599 0.257833 0.745908 0.000000 0.666049
0.262094 0.500000 0.455190 -0.008279 0.999729 0.021757
0.408121 0.907070 0.035150 0.150662 0.004368 -0.988576
0.025000 0.426982 0.413245 -0.334006 -0.942510 0.010709
0.421438 0.485633 0.542867 0.214701 0.908277 0.359076
0.194705 0.439714 0.091500 -0.247589 -0.594185 -0.765273
0.053500 0.170909 0.261019 0.740832 0.000000 0.671690
0.528500 0.184867 0.093984 0.693459 0.000000 0.720496
0.464918 0.424000 0.560281 0.108579 -0.983249 0.146394
0.377180 0.424000 0.296666 0.053916 -0.998542 0.002648
0.194538 0.840939 0.033038 -0.116665 0.003050 -0.993167
0.057969 0.099242 0.559899 0.355887 -0.039524 0.933693
0.182626 0.500000 0.312027 -0.019353 0.999672 -0.016786
0.053500 0.199939 0.353442 0.455524 0.000000 0.890224
0.517097 0.086591 0.518973 -0.428171 -0.028093 -0.903261
0.528500 0.381073 0.421338 -0.348652 0.000000 0.937252
0.533337 0.935222 0.089496 0.277290 0.018178 0.960614
0.528500 0.418567 0.372127 -0.465781 0.000000 0.884900
0.544760 0.195793 0.520985 0.675062 -0.049418 -0.736104
0.443421 0.413199 0.538000 -0.062688 0.000000 0.998033
0.528500 0.379252 0.257087 -0.361207 0.000000 0.932486
0.057652 0.861871 0.089781 0.134925 0.011013 0.990795
0.535671 0.539850 0.088530 0.265318 -0.003682 0.964154
0.507747 0.685857 0.074986 -0.921218 0.039329 0.387055
0.340940 0.472355 0.556145 0.083339 0.759111 0.645605
0.501182 0.413540 0.538000 -0.086390 0.000000 0.996261
0.412054 0.424000 0.456633 0.075959 -0.991461 0.105992
0.541392 0.477608 0.479874 0.645886 0.722519 0.246573
0.188055 0.491161 0.534034 -0.148901 0.954897 0.256906
0.053500 0.160025 0.288000 0.695893 0.000000 0.718146
0.053500 0.368912 0.225313 -0.205312 0.000000 0.978697
0.142507 0.379163 0.120000 0.000000 0.000000 1.000000
0.284692 0.904289 0.044526 0.006879 0.016124 0.999846
0.161866 0.731019 0.037653 -0.138530 -0.070087 -0.987875
0.134054 0.856935 0.062447 0.170866 0.051761 0.983934
0.528500 0.379405 0.360718 -0.336572 0.000000 0.941658
0.508159 0.254887 0.529771 -0.932311 -0.088154 -0.350751
0.408303 0.470046 0.099546 0.237845 0.683500 -0.690114
0.511145 0.415220 0.553440 -0.633991 -0.008057 0.773299
0.053500 0.159853 0.285072 0.700930 0.000000 0.713230
0.053500 0.416838 0.212741 -0.793914 0.000000 0.608030
0.528500 0.423358 0.159842 -0.867122 0.000000 0.498095
0.140867 0.424000 0.273443 -0.143251 -0.988219 -0.053868
0.463367 0.500000 0.360419 0.054823 0.998486 0.004418
0.124745 0.500000 0.347263 -0.050054 0.998746 -0.000333
0.067596 0.907598 0.076293 0.206434 0.076226 0.975487
0.365679 0.933182 0.031223 0.098652 0.065487 -0.992965
0.528500 0.173108 0.115052 0.838150 0.000000 0.545439
0.043233 0.645992 0.048252 -0.349810 0.012586 -0.936736
0.405471 0.424000 0.098299 0.185002 -0.971535 -0.147965
0.273268 0.500000 0.334209 -0.003049 0.999949 -0.009585
0.053500 0.178694 0.143381 0.775630 0.000000 0.631187
0.521809 0.424000 0.113781 0.363945 -0.911125 -0.193379
0.079595 0.952578 0.073793 0.202762 0.100920 0.974014
0.490750 0.762686 0.052365 0.199470 -0.102697 -0.974508
0.551813 0.424000 0.458706 0.218991 -0.975688 0.008668
0.521239 0.870743 0.088493 -0.261873 0.010036 0.965050
0.072835 0.161893 0.527340 0.850176 -0.081865 -0.520095
0.036593 0.591863 0.051229 -0.643140 0.006191 -0.765724
0.528500 0.416010 0.303442 -0.622413 0.000000 0.782689
0.507272 0.815367 0.073838 -0.925794 0.045747 0.375249
0.405289 0.864782 0.034560 0.143166 -0.009913 -0.989649
0.438253 0.500000 0.232749 0.025312 0.998969 -0.037698
0.436360 0.424000 0.311162 0.113491 -0.993156 -0.027570
0.189978 0.500000 0.292813 -0.017370 0.999613 -0.021725
0.067044 0.837401 0.085890 0.513846 0.005616 0.857864
0.524888 0.671245 0.090004 -0.176175 0.003898 0.984351
0.520104 0.667679 0.088022 -0.371449 0.001583 0.928452
0.053500 0.191770 0.403385 0.476257 0.000000 0.879306
0.557000 0.440815 0.376773 0.793514 -0.579517 0.185731
0.275714 0.461840 0.566500 -0.050924 0.580668 0.812546
0.189851 0.424000 0.217067 -0.094429 -0.993399 -0.065129
0.053500 0.166599 0.426418 0.430185 0.000000 0.902741
0.319042 0.761887 0.027337 0.030569 -0.021948 -0.999292
0.078564 0.420507 0.538000 -0.087314 0.000000 0.996181
0.291486 0.411185 0.120000 0.000000 0.000000 1.000000
0.471590 0.771234 0.048373 0.185199 -0.087393 -0.978807
0.054070 0.045150 0.044236 -0.041515 -0.015664 -0.999015
0.077164 0.469385 0.559115 -0.674088 0.509380 0.534917
0.052194 0.083887 0.514791 -0.095336 -0.043196 -0.994507
0.215109 0.500000 0.464996 -0.030135 0.999121 0.029122
0.053500 0.375366 0.229303 -0.304621 0.000000 0.952474
0.527801 0.266334 0.091210 -0.189365 -0.009989 0.981856
0.420313 0.500000 0.297145 0.025975 0.999469 -0.019656
0.283816 0.424000 0.272530 -0.004525 -0.998733 0.050124
0.284569 0.500000 0.400813 -0.001105 0.999973 0.007266
0.404627 0.427306 0.091500 0.209684 -0.944816 -0.251704
0.543625 0.393206 0.050265 0.624901 -0.004497 -0.780691
0.221841 0.500000 0.449651 -0.024746 0.999415 0.023619
0.069443 0.228829 0.520853 0.683466 -0.023263 -0.729611
0.415284 0.398707 0.538000 -0.051120 0.000000 0.998693
0.254014 0.709761 0.047082 0.050224 -0.110821 0.992571
0.090551 0.892959 0.052510 -0.177566 0.054211 -0.982615
0.547788 0.766195 0.078523 0.893753 0.015206 0.448301
0.053500 0.192081 0.157317 0.583821 0.000000 0.811882
0.248739 0.825124 0.047522 0.046207 -0.066283 0.996730
0.505406 0.381941 0.539584 -0.979063 -0.023092 0.202243
0.053500 0.194155 0.513301 0.261767 0.000000 0.965131
0.482588 0.909377 0.050664 0.173097 0.063609 -0.982849
0.078702 0.464250 0.093750 -0.614510 0.648209 -0.449668
0.033654 0.258041 0.547425 -0.914827 -0.049366 0.400818
0.071781 0.189156 0.054546 0.747254 -0.020036 -0.664236
0.482131 0.499774 0.359776 0.067505 0.997717 0.002049
0.053500 0.417273 0.484685 -0.206778 0.000000 0.978388
0.505321 0.424000 0.452878 0.145534 -0.988970 0.027523
0.315232 0.500000 0.427106 0.004165 0.999901 0.013432
0.353757 0.500000 0.232545 0.010788 0.999297 -0.035907
0.528500 0.415168 0.378758 -0.450141 0.000000 0.892958
0.033497 0.042222 0.058702 -0.952036 -0.030337 -0.304477
0.151176 0.490506 0.537965 -0.222731 0.940548 0.256439
0.516792 0.424000 0.337792 0.231577 -0.971503 -0.050541
0.053500 0.401464 0.499108 -0.176066 0.000000 0.984378
0.494579 0.388362 0.120000 0.000000 0.000000 1.000000
0.528500 0.170311 0.080207 0.864939 0.000000 0.501877
0.158631 0.500000 0.376274 -0.040134 0.999177 0.005883
0.253976 0.499112 0.486330 -0.016012 0.998266 0.056653
0.457055 0.387880 0.538000 -0.068288 0.000000 0.997666
0.205907 0.373732 0.120000 0.000000 0.000000 1.000000
0.528500 0.408504 0.287067 -0.657120 0.000000 0.753786
0.528500 0.382319 0.425155 -0.340904 0.000000 0.940098
0.321210 0.393238 0.538000 -0.012418 0.000000 0.999923
0.303379 0.800067 0.026032 0.013511 0.014804 -0.999799
0.557000 0.441672 0.474333 0.757328 -0.586167 0.287858
0.545751 0.531327 0.052060 0.688590 0.002881 -0.725145
0.524080 0.765645 0.089669 -0.178343 0.007181 0.983942
0.064396 0.659938 0.086987 0.467462 0.000146 0.884013
0.040511 0.088494 0.086120 -0.393940 -0.024579 0.918807
0.493202 0.774943 0.071875 -0.178801 -0.015468 0.983764
0.247250 0.497561 0.495631 -0.018997 0.994525 0.102753
0.053500 0.412030 0.288215 -0.654732 0.000000 0.755861
0.202588 0.424000 0.464925 -0.055549 -0.988463 0.140906
0.053500 0.394558 0.149466 -0.639924 0.000000 0.768438
0.053500 0.414836 0.376806 -0.454748 0.000000 0.890620
0.399392 0.814955 0.034033 0.129342 -0.021708 -0.991362
0.528500 0.193035 0.442018 0.399115 0.000000 0.916901
0.224579 0.424000 0.468650 -0.041734 -0.985777 0.162792
0.175674 0.956000 0.035453 -0.147719 0.040045 -0.988218
0.390426 0.819418 0.052285 -0.121269 -0.002546 0.992616
0.346147 0.856339 0.048596 -0.060292 -0.039997 0.997379
0.392346 0.861917 0.033446 0.125777 0.004942 -0.992046
0.131796 0.772018 0.062918 0.172368 0.016930 0.984887
0.160183 0.476940 0.106440 -0.159965 0.779916 -0.605097
0.230416 0.424000 0.156675 -0.061982 -0.994623 -0.082969
0.534926 0.562841 0.088839 0.237987 -0.002372 0.971265
0.054116 0.104208 0.091245 0.237560 -0.015878 0.971243
0.329575 0.387073 0.120000 0.000000 0.000000 1.000000
0.033622 0.220597 0.547349 -0.902324 -0.055795 0.427432
0.138267 0.761224 0.061569 0.169435 0.013308 0.985452
0.248562 0.824008 0.028537 -0.046382 0.040133 -0.998117
0.066415 0.522484 0.086151 0.577800 -0.000577 0.816178
0.254769 0.918521 0.047019 0.039518 0.022560 0.998964
0.385454 0.785888 0.051871 -0.118761 -0.014958 0.992810
0.373658 0.500000 0.404645 0.023278 0.999674 0.010468
0.528500 0.210366 0.210574 0.287027 0.000000 0.957922
0.248839 0.500000 0.378269 -0.007249 0.999973 0.000868
0.287258 0.424000 0.564514 -0.002317 -0.956463 0.291846
0.052408 0.489408 0.435236 -0.368060 0.923439 0.108588
0.039122 0.270364 0.049955 -0.630154 -0.011400 -0.776387
0.377912 0.918996 0.032243 0.113427 0.044747 -0.992538
0.296934 0.424000 0.364581 0.003742 -0.991740 0.128207
0.241026 0.424000 0.307611 -0.031420 -0.998593 0.042717
0.053500 0.390202 0.526390 -0.120315 0.000000 0.992736
0.552125 0.164019 0.068051 0.991491 -0.022647 0.128193
0.044199 0.725780 0.087648 -0.418506 0.008224 0.908177
0.073108 0.255362 0.528000 0.900564 -0.084416 -0.426448
0.410229 0.500000 0.238789 0.020496 0.999156 -0.035584
0.511539 0.409471 0.051360 -0.698220 -0.005110 -0.715865
0.334442 0.500000 0.403699 0.007468 0.999946 0.007180
0.053500 0.161437 0.499381 0.287757 0.000000 0.957703
0.528500 0.416174 0.331341 -0.560490 0.000000 0.828161
0.107535 0.424000 0.370003 -0.142598 -0.989737 -0.009257
0.071524 0.898518 0.053925 0.867939 0.004867 -0.496648
0.554466 0.464534 0.388576 0.868832 0.456995 0.190491
0.542502 0.456671 0.085701 0.539866 -0.005072 0.841735
0.251690 0.937238 0.047276 0.042818 0.039294 0.998310
0.090953 0.497991 0.408709 -0.117234 0.993064 -0.008944
0.045554 0.278401 0.517541 -0.289429 -0.026183 -0.956841
0.074005 0.405766 0.120000 0.000000 0.000000 1.000000
0.408312 0.809716 0.035190 0.138809 -0.032745 -0.989778
0.071493 0.170368 0.524100 0.766534 -0.051476 -0.640137
0.076287 0.868905 0.074482 0.198205 0.051567 0.978803
0.457223 0.424000 0.480320 0.103929 -0.990784 0.086870
0.368924 0.469898 0.558602 0.154081 0.715266 0.681655
0.194865 0.922652 0.033011 -0.126248 0.034575 -0.991396
0.508443 0.120154 0.058833 -0.855273 -0.037247 -0.516838
0.173802 0.424000 0.253395 -0.100130 -0.993712 -0.050113
0.528500 0.209470 0.210316 0.301011 0.000000 0.953621
0.038970 0.309927 0.555732 -0.670535 -0.035441 0.741031
0.123162 0.500000 0.226106 -0.031062 0.998762 -0.038851
0.053500 0.384703 0.499983 -0.174229 0.000000 0.984705
0.331949 0.500000 0.182474 0.007036 0.998828 -0.047894
0.053500 0.166263 0.103786 0.898403 0.000000 0.439173
0.244549 0.424000 0.136424 -0.050266 -0.994796 -0.088624
0.041315 0.320463 0.049047 -0.529844 -0.007169 -0.848065
0.521758 0.572496 0.088708 -0.335320 -0.001294 0.942103
0.466156 0.911548 0.047241 0.170642 0.045769 -0.984269
0.486098 0.400065 0.120000 0.000000 0.000000 1.000000
0.267296 0.424000 0.515661 -0.014808 -0.971385 0.237048
0.053500 0.198612 0.113115 0.477434 0.000000 0.878668
0.464318 0.435071 0.091500 0.390452 -0.713177 -0.582173
0.053500 0.395365 0.224481 -0.637539 0.000000 0.770418
0.547331 0.181444 0.055873 0.875147 -0.018457 -0.483505
0.357940 0.424000 0.370771 0.042124 -0.995829 0.080938
0.085990 0.424000 0.451211 -0.131134 -0.990882 0.030940
0.076088 0.736032 0.074523 0.172837 -0.057624 0.983263
0.364374 0.500000 0.326843 0.012617 0.999841 -0.012636
0.064987 0.492797 0.172518 -0.196297 0.964855 -0.174707
0.048698 0.055761 0.089511 0.009082 -0.021384 0.999730
0.343615 0.805080 0.048385 -0.059738 -0.073394 0.995512
0.073904 0.372714 0.120000 0.000000 0.000000 1.000000
0.053500 0.395889 0.436952 -0.313561 0.000000 0.949568
0.528500 0.165621 0.174825 0.858817 0.000000 0.512282
0.260464 0.921393 0.027545 -0.037198 0.116192 -0.992530
0.551566 0.096320 0.536348 0.996636 -0.078502 0.023528
0.427620 0.387172 0.538000 -0.056193 0.000000 0.998420
0.251790 0.493244 0.136463 -0.006784 0.972032 -0.234749
0.383487 0.424000 0.181971 0.100232 -0.991486 -0.083126
0.510956 0.075278 0.523016 -0.677998 -0.042764 -0.733819
0.505712 0.793159 0.070072 -0.977866 0.050460 0.203057
0.390039 0.424000 0.175231 0.114993 -0.989209 -0.090782
0.318357 0.424000 0.458053 0.017185 -0.982159 0.187267
0.035937 0.499377 0.082688 -0.722491 -0.001251 0.691379
0.448053 0.500000 0.254654 0.031047 0.999046 -0.030720
0.046127 0.225736 0.517304 -0.292547 -0.031495 -0.955732
0.447421 0.728976 0.043338 0.160331 -0.088129 -0.983121
0.143045 0.500000 0.442414 -0.057562 0.997938 0.028398
0.391865 0.424000 0.428800 0.063373 -0.992949 0.100182
0.493129 0.746675 0.071860 -0.173283 -0.038585 0.984116
0.072736 0.468442 0.056851 0.867107 -0.023926 -0.497547
0.065749 0.397613 0.120000 0.000000 0.000000 1.000000
0.053500 0.203082 0.269070 0.403761 0.000000 0.914864
0.051966 0.487270 0.541230 -0.439321 0.860200 0.258946
0.091396 0.795688 0.071334 0.182427 0.003673 0.983213
0.073912 0.494582 0.389829 -0.212437 0.977110 0.011289
0.248272 0.380348 0.538000 -0.017566 0.000000 0.999846
0.272604 0.379387 0.538000 -0.007560 0.000000 0.999971
0.439103 0.424000 0.236477 0.161311 -0.983939 -0.076445
0.453643 0.500000 0.379744 0.053759 0.998507 0.009715
0.528500 0.166000 0.085947 0.900363 0.000000 0.435140
0.278168 0.495097 0.147582 -0.002224 0.982985 -0.183672
0.528500 0.206822 0.379576 0.343028 0.000000 0.939325
0.462381 0.500000 0.382592 0.057989 0.998252 0.011410
0.053500 0.399803 0.513718 -0.145816 0.000000 0.989312
0.396850 0.424000 0.281865 0.065925 -0.997480 -0.026233
0.218149 0.492092 0.528450 -0.079052 0.965515 0.248056
0.279105 0.946366 0.025991 -0.014920 0.148547 -0.988793
0.433811 0.424000 0.415318 0.089357 -0.994593 0.052922
0.335395 0.367242 0.120000 0.000000 0.000000 1.000000
0.079883 0.412971 0.538000 -0.086773 0.000000 0.996228
0.530787 0.379116 0.515197 -0.036880 -0.012368 -0.999243
0.395778 0.424000 0.422247 0.065811 -0.993641 0.091356
0.101026 0.418590 0.120000 0.000000 0.000000 1.000000
0.406402 0.807063 0.034792 0.136925 -0.032545 -0.990047
0.053500 0.169732 0.219013 0.803482 0.000000 0.595330
0.508425 0.035698 0.058877 -0.840824 -0.038969 -0.539904
0.556755 0.462245 0.207950 0.829110 0.546812 -0.116507
0.557000 0.424664 0.219604 0.380725 -0.914140 -0.139270
0.321908 0.761397 0.046576 -0.035543 -0.111772 0.993098
0.128390 0.424000 0.238826 -0.184121 -0.979458 -0.082233
0.073898 0.269871 0.059657 0.898538 -0.037324 -0.437305
0.539050 0.280556 0.518620 0.403730 -0.026656 -0.914490
0.528500 0.203566 0.451978 0.379399 0.000000 0.925233
0.515323 0.038516 0.556292 -0.706958 -0.031746 0.706543
0.250451 0.424000 0.516024 -0.025363 -0.974413 0.223330
0.271674 0.500000 0.227981 -0.003322 0.999343 -0.036095
0.400990 0.454229 0.566500 0.523212 0.162326 0.836600
0.035639 0.774255 0.081969 -0.805218 0.014709 0.592796
0.466266 0.424000 0.116347 0.274825 -0.946986 -0.166398
0.109918 0.500000 0.410453 -0.066673 0.997550 0.021175
0.230487 0.500000 0.182149 -0.010398 0.998774 -0.048402
0.426737 0.500000 0.460014 0.055138 0.997936 0.032914
0.486198 0.470789 0.557711 0.591274 0.587581 0.552398
0.214693 0.709060 0.050359 0.103810 -0.053361 0.993165
0.317570 0.424000 0.237753 0.016668 -0.999851 0.004475
0.511463 0.352065 0.051544 -0.690232 -0.006596 -0.723558
0.515131 0.835749 0.049537 -0.687106 0.005528 -0.726537
0.542193 0.424000 0.202281 0.348732 -0.925421 -0.148263
0.053500 0.372993 0.236923 -0.264833 0.000000 0.964294
0.305718 0.424000 0.320933 0.009280 -0.996407 0.084183
0.085830 0.709000 0.065084 -0.182134 -0.832727 0.522869
0.525690 0.227782 0.515414 -0.162531 -0.023927 -0.986413
0.439565 0.852442 0.060701 -0.164634 0.045738 0.985294
0.151185 0.438278 0.091500 -0.341121 -0.614919 -0.710993
0.195533 0.439353 0.091500 -0.244767 -0.614393 -0.750073
0.229479 0.909196 0.049127 0.067141 0.008044 0.997711
0.053500 0.400960 0.268267 -0.695145 0.000000 0.718870
0.523489 0.424000 0.480102 0.159701 -0.986521 0.035677
0.144220 0.424000 0.545060 -0.091794 -0.983309 0.157090
0.258902 0.439269 0.566500 -0.170021 -0.628093 0.759337
0.227182 0.500000 0.195954 -0.010967 0.998925 -0.045040
0.548346 0.203130 0.058325 0.926708 -0.018081 -0.375348
0.388277 0.442402 0.566500 0.494553 -0.555795 0.668213
0.073863 0.494573 0.302951 -0.183148 0.979607 -0.082621
0.025000 0.432955 0.357188 -0.557450 -0.828777 0.048763
0.441321 0.500000 0.445662 0.059105 0.997811 0.029646
0.500906 0.496019 0.351386 0.156577 0.986527 -0.047407
0.075617 0.494923 0.164075 -0.146731 0.978909 -0.142151
0.183785 0.404480 0.120000 0.000000 0.000000 1.000000
0.082427 0.709000 0.071280 0.135237 -0.155299 0.978567
0.039311 0.728302 0.085623 -0.622806 0.011226 0.782295
0.053500 0.159713 0.108350 0.921501 0.000000 0.388377
0.268020 0.827265 0.045915 0.025125 -0.059840 0.997892
0.258568 0.723300 0.046703 0.042336 -0.115376 0.992419
0.046224 0.210292 0.088486 -0.165224 -0.016831 0.986112
0.136175 0.424000 0.295202 -0.138440 -0.989464 -0.042375
0.189956 0.769538 0.052420 0.129588 -0.007826 0.991537
0.245298 0.848281 0.028808 -0.049943 0.064273 -0.996682
0.061624 0.291491 0.558385 0.345318 -0.022380 0.938219
0.085870 0.386547 0.538000 -0.084320 0.000000 0.996439
0.090520 0.853452 0.071517 0.193327 0.050378 0.979840
0.549794 0.129660 0.543930 0.935326 -0.072814 0.346213
0.512473 0.424000 0.268645 0.264274 -0.960011 -0.092406
0.436247 0.500000 0.225309 0.024966 0.998907 -0.039507
0.341499 0.500000 0.251954 0.008681 0.999488 -0.030805
0.075080 0.343020 0.072990 0.981728 -0.002760 0.190272
0.526694 0.116022 0.561002 -0.229883 -0.040035 0.972394
0.488589 0.498482 0.217260 0.073905 0.995132 -0.065201
0.025000 0.428961 0.565297 -0.291364 -0.945949 0.142431
0.053500 0.380014 0.079016 -0.418986 0.000000 0.907993
0.513750 0.957141 0.050109 -0.755385 0.006057 -0.655254
0.528500 0.382788 0.435058 -0.317932 0.000000 0.948114
0.528500 0.174300 0.334742 0.610958 0.000000 0.791663
0.528500 0.372102 0.515282 -0.142631 0.000000 0.989776
0.313839 0.380678 0.120000 0.000000 0.000000 1.000000
0.285793 0.495652 0.507086 -0.002266 0.987863 0.155309
0.549510 0.902229 0.061135 0.893081 0.028158 -0.449014
0.211408 0.761586 0.050633 0.101762 -0.040482 0.993985
0.048676 0.858450 0.089502 -0.253323 0.013339 0.967290
0.178966 0.743042 0.053336 0.147441 0.004151 0.989062
0.173723 0.778561 0.054183 0.148334 0.014523 0.988831
0.025000 0.446397 0.240942 -0.978671 -0.202839 -0.032547
0.509061 0.930670 0.078157 -0.805085 0.032590 0.592264
0.218321 0.500000 0.250423 -0.012494 0.999420 -0.031671
0.389888 0.500000 0.349592 0.021354 0.999756 -0.005649
0.527695 0.422517 0.044333 -0.092040 -0.001566 -0.995754
0.511423 0.769930 0.056671 0.203761 -0.074840 -0.976156
0.360161 0.734162 0.030763 0.075253 -0.046885 -0.996062
0.457820 0.905804 0.064504 -0.172791 0.065520 0.982777
0.163654 0.424000 0.486480 -0.079853 -0.988891 0.125372
0.172633 0.424000 0.126074 -0.175541 -0.975561 -0.132155
0.096866 0.387856 0.120000 0.000000 0.000000 1.000000
0.085554 0.496911 0.258728 -0.116894 0.990043 -0.078430
0.043048 0.444465 0.048329 -0.417994 0.001396 -0.908449
0.283850 0.495094 0.510439 -0.003111 0.985120 0.171839
0.075058 0.415574 0.543291 0.921511 -0.017646 0.387951
0.053500 0.164817 0.123978 0.908881 0.000000 0.417056
0.074735 0.378449 0.061679 0.947355 -0.040519 -0.317611
0.344455 0.418414 0.538000 -0.021979 0.000000 0.999758
0.423070 0.424000 0.290983 0.103120 -0.994097 -0.033728
0.523661 0.491468 0.242539 0.254802 0.960559 -0.111371
0.098170 0.385015 0.120000 0.000000 0.000000 1.000000
0.528983 0.060574 0.091300 -0.206396 -0.017584 0.978310
0.185962 0.424000 0.458111 -0.065967 -0.990460 0.120986
0.044710 0.424000 0.326673 -0.271662 -0.960009 -0.067692
0.128544 0.424000 0.330587 -0.130605 -0.991150 -0.023757
0.053500 0.372266 0.374495 -0.217461 0.000000 0.976069
0.119428 0.424000 0.206586 -0.217635 -0.970111 -0.107333
0.025380 0.462380 0.100296 -0.743238 0.604906 -0.285809
0.341575 0.498936 0.487386 0.021887 0.997771 0.063034
0.433623 0.807809 0.040463 0.159136 -0.049490 -0.986015
0.483679 0.499464 0.269178 0.059877 0.997690 -0.032088
0.214066 0.424000 0.138280 -0.099514 -0.989677 -0.103135
0.264353 0.462605 0.565895 -0.081024 0.590989 0.802600
0.505529 0.343947 0.065870 -0.989972 -0.029500 -0.138152
0.479433 0.424000 0.304668 0.188871 -0.980565 -0.053099
0.120832 0.424000 0.454444 -0.106284 -0.992401 0.062004
0.032155 0.456004 0.061944 -0.961023 -0.001199 -0.276465
0.526397 0.201681 0.044871 -0.071581 -0.009362 -0.997391
0.412932 0.900150 0.036153 0.153741 -0.001292 -0.988110
0.245761 0.887750 0.047770 0.049427 -0.008283 0.998743
0.518088 0.246254 0.557437 -0.476947 -0.024027 0.878603
0.046989 0.778836 0.046697 -0.131481 0.015920 -0.991191
0.053500 0.374164 0.389076 -0.243311 0.000000 0.969948
0.505648 0.410833 0.069918 -0.997603 -0.004633 0.069039
0.120889 0.424000 0.246059 -0.192414 -0.977935 -0.081365
0.073196 0.424000 0.111302 -0.345181 -0.919276 -0.189161
0.212435 0.424000 0.427162 -0.049418 -0.991784 0.117992
0.510634 0.552143 0.081956 -0.774651 0.012365 0.632268
0.056952 0.424000 0.321208 -0.254757 -0.964808 -0.065157
0.053500 0.376491 0.417965 -0.273020 0.000000 0.962008
0.239045 0.371742 0.538000 -0.021362 0.000000 0.999772
0.551747 0.450988 0.068964 0.997075 -0.003734 0.076332
0.301103 0.874250 0.044842 -0.011036 -0.012842 0.999857
0.501779 0.495844 0.250380 0.140060 0.985171 -0.099103
0.528500 0.384989 0.250356 -0.459872 0.000000 0.887985
0.152017 0.383675 0.120000 0.000000 0.000000 1.000000
0.528500 0.421168 0.142018 -0.887196 0.000000 0.461393
0.062877 0.262218 0.557866 0.425371 -0.024026 0.904700
0.194089 0.500000 0.433675 -0.034133 0.999196 0.021020
0.194910 0.874544 0.052007 0.109980 0.001032 0.993933
0.543394 0.038188 0.520419 0.702822 -0.073843 -0.707523
0.038573 0.424000 0.566384 -0.156454 -0.984087 0.084228
0.528500 0.210679 0.532389 0.226965 0.000000 0.973903
0.220351 0.498328 0.166970 -0.012199 0.995318 -0.095883
0.291097 0.424000 0.458720 0.000061 -0.977540 0.210750
0.522487 0.659880 0.089009 -0.278690 0.002381 0.960378
0.542436 0.424000 0.468360 0.197865 -0.980040 0.019265
0.368294 0.413303 0.538000 -0.031788 0.000000 0.999495
0.241573 0.500000 0.449567 -0.016219 0.999631 0.021813
0.484757 0.415205 0.538000 -0.079658 0.000000 0.996822
0.499623 0.478146 0.107646 0.375865 0.841544 -0.387981
0.552096 0.557594 0.068121 0.999991 0.003786 -0.001665
0.542335 0.391634 0.556020 0.707329 -0.022884 0.706514
0.384973 0.424000 0.548800 0.058754 -0.976993 0.205016
0.493291 0.424000 0.184175 0.280792 -0.949994 -0.136630
0.305833 0.492156 0.528064 0.006426 0.966291 0.257371
0.540423 0.458062 0.048938 0.478123 0.001302 -0.878292
0.071002 0.312959 0.522916 0.805594 -0.037832 -0.591259
0.025000 0.433021 0.139903 -0.656981 -0.725630 -0.204542
0.537775 0.487142 0.047842 0.352465 0.004641 -0.935813
0.071223 0.122183 0.053199 0.687705 -0.015991 -0.725814
0.053500 0.422417 0.458537 -0.264401 0.000000 0.964413
0.470964 0.491013 0.123079 0.173107 0.955582 -0.238531
0.303786 0.500000 0.430029 0.002198 0.999894 0.014409
0.508476 0.171938 0.529003 -0.891360 -0.096327 -0.442943
0.166378 0.947422 0.055713 0.133431 0.045006 0.990036
0.528500 0.194576 0.244329 0.543646 0.000000 0.839315
0.528500 0.381103 0.523376 -0.126316 0.000000 0.991990
0.053500 0.402137 0.067793 -0.761063 0.000000 0.648678
0.372309 0.424000 0.287012 0.050861 -0.998705 -0.001219
0.149825 0.822810 0.040162 -0.159839 -0.042869 -0.986212
0.360433 0.424000 0.168867 0.069608 -0.994384 -0.079723
0.545388 0.652660 0.084317 0.702311 0.008031 0.711825
0.429545 0.856950 0.058614 -0.155949 0.040047 0.986953
0.524357 0.491329 0.375393 0.304184 0.951978 0.034781
0.528500 0.189533 0.229446 0.623864 0.000000 0.781533
0.038828 0.036008 0.520327 -0.696585 -0.074046 -0.713643
0.511570 0.776952 0.084215 -0.649539 0.007536 0.760291
0.540394 0.975000 0.086232 0.609662 0.026195 0.792229
0.379338 0.886966 0.032362 0.111432 0.030765 -0.993296
0.506967 0.094262 0.543353 -0.983596 -0.105722 0.146157
0.034333 0.025134 0.549066 -0.742762 -0.088071 0.663738
0.259758 0.493056 0.135338 -0.005404 0.970845 -0.239646
0.235606 0.790147 0.048616 0.065377 -0.071612 0.995288
0.528500 0.168020 0.333149 0.613973 0.000000 0.789327
0.528500 0.171438 0.134771 0.854508 0.000000 0.519438
0.039232 0.403275 0.520160 -0.497806 -0.014741 -0.867163
0.033580 0.381588 0.547247 -0.953206 -0.027408 0.301077
0.329073 0.500000 0.290595 0.006546 0.999760 -0.020903
0.191223 0.940946 0.033315 -0.133338 0.036964 -0.990381
0.557000 0.446237 0.267746 0.969538 -0.242682 0.033178
0.479147 0.952842 0.049947 0.163487 0.113184 -0.980031
0.430766 0.836672 0.058868 -0.159447 0.037723 0.986485
0.457761 0.857394 0.064492 -0.178742 0.058077 0.982180
0.158776 0.500000 0.476918 -0.056352 0.997688 0.037987
0.044304 0.424000 0.237289 -0.322606 -0.938329 -0.124357
0.179273 0.424000 0.126972 -0.163961 -0.978100 -0.128211
0.034807 0.126287 0.550209 -0.773171 -0.069665 0.630360
0.515955 0.692206 0.049196 -0.623506 0.004107 -0.781808
0.031148 0.805277 0.071126 -0.997873 0.020403 0.061916
0.349967 0.780793 0.048914 -0.071402 -0.067809 0.995140
0.291376 0.728953 0.025031 0.000408 -0.055688 -0.998448
0.528500 0.395722 0.508077 -0.157389 0.000000 0.987537
0.338113 0.368219 0.538000 -0.019370 0.000000 0.999812
0.069499 0.808177 0.050626 0.755531 0.002771 -0.655108
0.528500 0.369637 0.326433 -0.190091 0.000000 0.981766
0.550848 0.249316 0.064366 0.996526 -0.016534 -0.081620
0.349090 0.500000 0.314921 0.009988 0.999833 -0.015276
0.182567 0.729089 0.053036 0.144392 -0.003229 0.989515
0.053500 0.396068 0.524739 -0.123596 0.000000 0.992333
0.059523 0.467460 0.561040 -0.748035 0.415104 0.517816
0.354045 0.921777 0.049254 -0.068751 0.019446 0.997444
0.516921 0.720445 0.086704 -0.475602 0.002116 0.879658
0.263880 0.788285 0.046260 0.029621 -0.097215 0.994823
0.553639 0.424000 0.104068 0.416396 -0.883997 -0.212519
0.325581 0.407779 0.538000 -0.014215 0.000000 0.999899
0.068422 0.174370 0.085319 0.730208 -0.003979 0.683214
0.134701 0.402370 0.538000 -0.064281 0.000000 0.997932
0.449661 0.892100 0.062804 -0.167897 0.058233 0.984083
0.287880 0.500000 0.329469 -0.000536 0.999945 -0.010448
0.458474 0.718219 0.064640 -0.163156 -0.033841 0.986020
0.290490 0.492302 0.130815 -0.000088 0.965809 -0.259254
0.052114 0.424000 0.380310 -0.228512 -0.973078 -0.030012
0.509299 0.441793 0.566500 0.658980 -0.614023 0.434421
0.514243 0.424000 0.241986 0.282288 -0.952981 -0.110184
0.220241 0.500000 0.179347 -0.012158 0.998709 -0.049322
0.071638 0.054456 0.081299 0.880808 -0.012860 0.473299
0.300482 0.424000 0.105300 0.007609 -0.995971 -0.089353
0.532003 0.136592 0.090049 -0.043926 -0.017191 0.998887
0.104245 0.879556 0.068657 0.192102 0.074170 0.978568
0.531225 0.708848 0.090371 0.110907 0.005307 0.993817
0.328034 0.424000 0.428278 0.023308 -0.987716 0.154512
0.546919 0.603402 0.080620 0.812065 0.004470 0.583550
0.402345 0.950851 0.034279 0.149921 0.026256 -0.988349
0.223429 0.946020 0.049631 0.073549 0.040985 0.996449
0.072454 0.271147 0.056170 0.813246 -0.024792 -0.581392
0.114949 0.466630 0.561870 -0.586673 0.507798 0.630838
0.030655 0.467655 0.256060 -0.754113 0.652209 -0.077054
0.329295 0.844331 0.028191 0.041848 0.059961 -0.997323
0.036446 0.602097 0.083917 -0.704164 0.005033 0.710019
0.414719 0.403652 0.120000 0.000000 0.000000 1.000000
0.053500 0.393486 0.106613 -0.631864 0.000000 0.775079
0.218142 0.385947 0.120000 0.000000 0.000000 1.000000
0.053500 0.201678 0.145018 0.426833 0.000000 0.904331
0.544139 0.394970 0.555273 0.764984 -0.022390 0.643660
0.176521 0.424000 0.368843 -0.071713 -0.996682 0.038504
0.058479 0.423214 0.538000 -0.095535 0.000000 0.995426
0.473044 0.424000 0.198918 0.239336 -0.963812 -0.117413
0.050709 0.254302 0.090344 0.037657 -0.012099 0.999218
