0.664611 0.193797 0.048331 -0.000480 -0.003387 -0.999994
0.715214 0.213151 0.068370 0.035911 -0.986759 0.158168
0.523275 0.171957 0.049098 -0.025603 -0.075679 -0.996803
0.566123 0.145509 0.054923 -0.128254 -0.297128 0.946185
0.381427 0.252434 0.056047 -0.014275 0.977266 -0.211534
0.860681 0.224710 0.079795 -0.356469 0.934173 -0.015831
0.783410 0.071030 0.050846 0.020536 -0.020293 0.999583
0.343780 0.254446 0.052687 -0.144306 0.511851 0.846867
0.700516 0.124941 0.053981 0.029246 -0.031468 0.999077
0.710303 0.299513 0.048370 0.737558 0.152771 0.657776
0.735749 0.271143 0.048288 0.014933 0.000694 -0.999888
0.534412 0.259067 0.048424 -0.002659 0.010412 -0.999942
0.726602 0.323101 0.031466 0.109932 -0.006837 -0.993916
0.786576 0.431951 0.049964 -0.021381 0.178051 -0.983789
0.503053 0.203734 0.048500 -0.002762 -0.016191 -0.999865
0.686353 0.221741 0.046330 0.048238 -0.106368 -0.993156
0.478461 0.169434 0.050628 -0.301501 -0.951692 -0.058127
0.626750 0.215890 0.043824 0.038100 -0.078512 -0.996185
0.659692 0.223114 0.058060 0.047315 0.000170 0.998880
0.542066 0.218727 0.042824 -0.001477 -0.027025 -0.999634
0.709144 0.265125 0.054881 0.044586 0.015148 0.998891
0.779172 0.383826 0.050614 -0.001746 0.059495 0.998227
0.776225 0.037744 0.050332 -0.015762 -0.161127 0.986808
0.850317 0.229394 0.152335 0.344981 0.673634 -0.653609
0.323264 0.213409 0.050063 -0.029293 -0.752940 -0.657437
0.348802 0.252392 0.060077 -0.013958 0.982175 -0.187447
0.619707 0.127928 0.049022 -0.040468 -0.074517 -0.996398
0.499465 0.222693 0.062694 -0.007987 -0.024174 0.999676
0.685286 0.111039 0.048600 -0.006602 -0.011820 -0.999908
0.905493 0.237374 0.068499 0.759006 0.612271 -0.221437
0.710181 0.316359 0.046908 0.480518 0.125997 0.867887
0.686674 0.300694 0.055411 0.037154 0.029030 0.998888
0.688542 0.152043 0.027304 -0.199362 -0.014773 0.979815
0.305889 0.242801 0.046399 -0.026549 0.524381 -0.851070
0.717059 0.139970 0.034528 -0.729091 0.067557 0.681075
0.312342 0.241321 0.085116 -0.015515 0.465451 0.884938
0.354861 0.221507 0.085893 -0.009078 -0.422533 0.906302
0.776175 0.054200 0.049653 -0.005017 -0.113905 -0.993479
0.791927 0.063826 0.050064 0.007790 -0.093283 -0.995609
0.731098 0.234065 0.047924 0.045792 0.090103 -0.994879
0.377451 0.220846 0.048360 -0.001335 -0.017384 -0.999848
0.285804 0.238908 0.051186 -0.211384 0.546717 0.810196
0.616803 0.158387 0.057834 0.004790 -0.067343 0.997718
0.647588 0.255143 0.058428 0.040533 0.023600 0.998899
0.366102 0.249716 0.077114 -0.007046 0.849537 0.527481
0.586166 0.128003 0.049503 -0.212869 -0.425758 -0.879441
0.721758 0.112686 0.053023 0.028255 -0.025917 0.999265
0.448197 0.236883 0.043033 -0.007268 0.042462 -0.999072
0.490509 0.227884 0.087259 0.002084 -0.160414 0.987048
0.640882 0.200359 0.048339 -0.001352 -0.003938 -0.999991
0.222709 0.248229 0.055446 -0.023498 0.897603 -0.440179
0.530445 0.252006 0.062123 0.000042 0.072626 0.997359
0.722193 0.229290 0.082886 0.464538 0.192030 -0.864482
0.833382 0.239924 0.081645 -0.116596 -0.992622 -0.033260
0.777966 0.314631 0.044485 0.733130 0.040330 0.678892
0.630735 0.328033 0.051717 -0.171294 0.066903 0.982946
0.790776 0.041830 0.050406 0.004511 -0.056349 0.998401
0.332700 0.228571 0.052632 0.127024 -0.863013 -0.488951
0.523446 0.218141 0.048334 -0.001325 -0.006143 -0.999980
0.441549 0.213704 0.061197 -0.037060 -0.121861 0.991855
0.518748 0.213248 0.043142 -0.010627 -0.190178 -0.981692
0.624962 0.138633 0.027960 0.277452 -0.062932 0.958676
0.705304 0.304984 0.031139 0.020769 -0.005715 -0.999768
0.793604 0.418304 0.050430 -0.038391 0.156395 0.986948
0.823423 0.236035 0.053060 0.089340 0.301043 -0.949416
0.761366 0.245918 0.052502 0.045829 0.005434 0.998935
0.544383 0.241368 0.062235 0.009402 0.037947 0.999236
0.502278 0.300694 0.050006 -0.347210 0.923801 0.161359
0.146639 0.245334 0.073400 -0.083083 0.834429 0.544818
0.731124 0.268230 0.053838 0.044107 0.010990 0.998966
0.669346 0.248997 0.072861 0.034377 0.944511 0.326676
0.668162 0.295951 0.034479 -0.419740 -0.010451 -0.907584
0.885116 0.227309 0.148201 -0.182097 0.983128 -0.017333
0.442742 0.209594 0.072381 0.000431 -0.939795 0.341738
0.285876 0.237502 0.052282 -0.168146 0.375007 0.911645
0.640570 0.210265 0.060910 0.036536 -0.998950 0.027645
0.841019 0.237977 0.106738 -0.070748 -0.996239 -0.050034
0.772482 0.341726 0.051320 0.025891 0.018574 0.999492
0.453527 0.280968 0.053571 -0.146475 0.541175 0.828055
0.274635 0.240002 0.045585 -0.024317 0.417459 -0.908370
0.696409 0.221993 0.055851 0.050330 0.001096 0.998732
0.736812 0.153232 0.040562 -0.950770 0.117830 0.286623
0.706366 0.123079 0.031333 -0.854324 0.100936 0.509846
0.680652 0.069530 0.051147 -0.211097 -0.483624 0.849438
0.524271 0.217604 0.048337 -0.001354 -0.006385 -0.999979
0.827142 0.216965 0.071450 0.052387 -0.949478 0.309430
0.511408 0.250760 0.062227 -0.006965 0.077307 0.996983
0.678415 0.390933 0.049040 -0.212339 0.445664 -0.869653
0.770980 0.165241 0.037652 -0.402149 -0.001314 0.915573
0.765354 0.231902 0.108875 -0.067126 0.525649 0.848049
0.585588 0.234027 0.042833 0.015596 0.042783 -0.998963
0.720814 0.171732 0.054190 0.043480 -0.011811 0.998985
0.372791 0.247794 0.057619 -0.073374 0.218405 0.973096
0.341330 0.243308 0.083788 -0.011566 0.562379 0.826798
0.276026 0.209900 0.070455 -0.022511 -0.972308 0.232617
0.670509 0.090682 0.048915 -0.050561 -0.084070 -0.995176
0.571068 0.242374 0.061584 0.019499 0.027403 0.999434
0.659019 0.122305 0.051269 -0.042463 0.090668 -0.994975
0.512856 0.296847 0.054602 -0.120874 0.374145 0.919459
0.735731 0.240797 0.072443 0.066802 -0.979950 -0.187711
0.753054 0.417315 0.050139 -0.087736 0.310046 0.946665
0.732403 0.199935 0.053857 0.045713 -0.003304 0.998949
0.820500 0.244553 0.064526 0.059692 0.986469 -0.152695
0.507631 0.253060 0.046866 -0.008157 0.983610 -0.180125
0.555871 0.321876 0.049736 -0.439235 0.869829 -0.224655
0.820976 0.237657 0.114569 -0.007150 -0.996374 -0.084779
0.742037 0.156019 0.048407 0.015833 -0.002155 -0.999872
0.697940 0.052653 0.049120 -0.364294 -0.711124 -0.601326
0.687172 0.144407 0.052384 -0.207117 0.102387 -0.972944
0.724381 0.375620 0.048576 0.001772 0.023829 -0.999714
0.608800 0.188071 0.048418 -0.002608 -0.007353 -0.999970
0.724706 0.119915 0.053142 0.031355 -0.021696 0.999273
0.742941 0.221765 0.048722 0.051539 -0.209001 -0.976556
0.373334 0.209270 0.070751 -0.009042 -0.964610 0.263527
0.416391 0.213248 0.048493 -0.002156 -0.022440 -0.999746
0.803205 0.218819 0.055150 0.089560 -0.820286 -0.564898
0.638607 0.131420 0.055912 -0.008344 -0.092296 0.995697
0.629991 0.162374 0.027934 0.243848 -0.059491 0.967987
0.707618 0.366855 0.048592 -0.001441 0.019710 -0.999805
0.742845 0.141023 0.050515 -0.171992 0.033923 -0.984514
0.668329 0.373884 0.052387 -0.063826 0.163231 0.984521
0.443497 0.251852 0.048493 -0.002937 0.019751 -0.999801
0.576133 0.282919 0.048603 -0.005065 0.012001 -0.999915
0.517377 0.176501 0.057852 -0.073674 -0.232837 0.969721
0.328036 0.239642 0.051871 -0.166404 0.736772 -0.655345
0.712913 0.282837 0.054590 0.042708 0.017534 0.998934
0.718167 0.172779 0.054323 0.043700 -0.012011 0.998972
0.725537 0.235465 0.054360 0.048220 0.004245 0.998828
0.749744 0.184074 0.052944 0.044274 -0.005129 0.999006
0.736595 0.323532 0.039314 0.944122 0.151516 0.292706
0.524439 0.253169 0.051308 -0.005585 0.992795 -0.119699
0.845586 0.241617 0.073384 0.196352 0.827495 0.526021
0.700794 0.135737 0.048474 0.002395 -0.004856 -0.999985
0.587160 0.275513 0.048460 -0.003264 0.007964 -0.999963
0.156296 0.220792 0.049849 -0.022576 -0.544346 -0.838557
0.138293 0.231666 0.080608 -0.152943 0.038174 0.987497
0.414487 0.229476 0.043062 -0.007894 -0.075521 -0.997113
0.321483 0.237133 0.055912 -0.078585 0.158977 0.984150
0.522927 0.221093 0.062873 0.000226 -0.028585 0.999591
0.481860 0.219341 0.062277 -0.016781 -0.047798 0.998716
0.619043 0.167062 0.032449 0.682982 -0.102364 0.723227
0.729590 0.181836 0.053884 0.044291 -0.006651 0.998997
0.624565 0.251200 0.069475 0.026940 0.971318 0.236252
0.498583 0.244135 0.062341 -0.009608 0.065753 0.997790
0.776842 0.221367 0.084811 0.004547 0.995214 -0.097615
0.406480 0.209080 0.053146 -0.016630 -0.978646 -0.204878
0.258051 0.224706 0.085571 -0.027766 -0.296745 0.954553
0.601500 0.221222 0.042827 0.026092 0.013329 -0.999571
0.441876 0.229184 0.087695 0.000269 -0.080806 0.996730
0.641216 0.233155 0.044525 0.038611 0.071422 -0.996699
0.704559 0.123042 0.030894 -0.797739 0.087956 0.596553
0.673573 0.312543 0.026572 0.108278 -0.023262 -0.993848
0.536277 0.218096 0.062491 0.005014 -0.025068 0.999673
0.703887 0.138137 0.054274 0.034780 -0.024420 0.999097
0.567026 0.170114 0.048746 -0.006335 -0.016794 -0.999839
0.752264 0.366542 0.051703 0.019304 0.029219 0.999387
0.326319 0.242143 0.065659 -0.255893 0.942295 0.215866
0.434150 0.187739 0.049330 -0.038865 -0.165062 -0.985517
0.498184 0.169164 0.049419 -0.048048 -0.155952 -0.986595
0.352405 0.231198 0.042846 -0.011459 -0.013170 -0.999848
0.643190 0.125175 0.055476 -0.014155 -0.105281 0.994342
0.589524 0.324251 0.054477 -0.090460 0.240167 0.966507
0.704312 0.237292 0.047012 0.047182 0.134992 -0.989723
0.757368 0.216884 0.074132 0.031191 -0.900434 0.433873
0.357897 0.201095 0.049280 -0.144387 -0.573238 -0.806567
0.583593 0.207641 0.048351 -0.001772 -0.005849 -0.999981
0.484122 0.213946 0.043361 -0.014318 -0.241341 -0.970335
0.717000 0.166010 0.046926 -0.974857 0.155667 -0.159442
0.910303 0.231188 0.070280 -0.827651 0.560888 0.019961
0.592271 0.128552 0.049299 -0.063850 -0.128768 -0.989617
0.636273 0.354995 0.049133 -0.073139 0.127371 -0.989155
0.723420 0.330913 0.031355 0.114786 -0.006951 -0.993366
0.901672 0.229422 0.083628 -0.681935 0.731331 0.010967
0.059181 0.235896 0.052597 -0.670287 0.713798 -0.202997
0.699427 0.169472 0.055133 0.043703 -0.017130 0.998898
0.676748 0.211727 0.057324 0.042883 -0.997228 -0.060812
0.666717 0.381464 0.049071 -0.152841 0.311476 -0.937882
0.628071 0.251944 0.054245 0.034025 0.999409 -0.004977
0.706227 0.361718 0.052877 0.005346 0.059759 0.998199
0.531101 0.193398 0.048597 -0.004007 -0.016268 -0.999860
0.655073 0.219639 0.048284 -0.000175 -0.001713 -0.999999
0.731748 0.245385 0.050477 0.064225 0.710971 -0.700283
0.681278 0.220245 0.056625 0.050038 -0.001181 0.998747
0.490232 0.241257 0.042882 -0.003328 0.039360 -0.999220
0.819508 0.222082 0.077898 0.029770 -0.908621 0.416559
0.712117 0.217138 0.076763 0.024894 -0.867921 0.496077
0.561290 0.185341 0.059999 -0.007984 -0.086814 0.996193
0.511933 0.190974 0.060069 -0.035146 -0.139756 0.989562
0.602531 0.211523 0.073808 0.019311 -0.893620 0.448409
0.653190 0.237016 0.058440 0.045806 0.008375 0.998915
0.743012 0.089481 0.048605 0.007942 -0.021549 -0.999736
0.650307 0.273755 0.048347 -0.001130 0.003247 -0.999994
0.534429 0.221219 0.042825 -0.001708 -0.021776 -0.999761
0.722971 0.142309 0.053605 0.036751 -0.017682 0.999168
0.687519 0.311601 0.055054 0.032625 0.033127 0.998919
0.268459 0.233654 0.044104 -0.018985 0.125032 -0.991971
0.708529 0.092838 0.048643 -0.015478 -0.036816 -0.999202
0.540437 0.164027 0.056924 -0.089508 -0.242478 0.966019
0.571972 0.216670 0.081115 0.008875 -0.662349 0.749143
0.569443 0.266015 0.060640 0.008568 0.072488 0.997332
0.675559 0.299514 0.027014 0.096243 -0.024147 -0.995065
0.661074 0.316452 0.044502 -0.666004 0.020092 0.745678
0.833632 0.239327 0.056526 0.106591 0.622239 -0.775536
0.838312 0.238569 0.099183 -0.083821 -0.995450 -0.045321
0.413654 0.252836 0.057994 -0.010288 0.991916 -0.126480
0.682459 0.284464 0.056045 0.042337 0.024153 0.998811
0.663665 0.326607 0.055383 0.015259 0.056786 0.998270
0.309737 0.215013 0.048908 -0.084342 -0.318093 -0.944300
0.473321 0.216763 0.061982 -0.021713 -0.071508 0.997204
0.739676 0.229713 0.053678 0.047858 0.002181 0.998852
0.627379 0.123175 0.026146 0.141784 -0.047971 0.988735
0.685432 0.217440 0.079350 0.019353 -0.823612 0.566823
0.728065 0.359516 0.048490 0.009425 0.003696 -0.999949
0.851566 0.218681 0.068202 0.255928 -0.956312 0.141308
0.719603 0.230584 0.098503 -0.152204 -0.382600 0.911291
0.187313 0.212238 0.063086 -0.036705 -0.991930 -0.121358
0.240477 0.240713 0.047153 -0.023994 0.493462 -0.869436
0.713492 0.338497 0.033063 0.986358 0.143068 -0.081418
0.353466 0.224290 0.086760 -0.009457 -0.302289 0.953170
0.729618 0.129772 0.040441 -0.682800 0.141260 -0.716819
0.836042 0.223239 0.101485 -0.060172 0.996713 -0.054248
0.724660 0.152768 0.043747 -0.934715 0.155732 -0.319460
0.757988 0.276133 0.048883 0.020448 0.000529 -0.999791
0.316815 0.236251 0.055669 -0.079708 0.155256 0.984653
0.800287 0.232070 0.104901 0.066700 0.958431 0.277418
0.634175 0.178553 0.048430 -0.002778 -0.006275 -0.999976
0.531857 0.224785 0.042826 -0.001648 -0.010754 -0.999941
0.760660 0.054691 0.050703 0.004654 -0.063612 0.997964
0.724058 0.311017 0.051707 0.096133 0.034322 0.994777
0.725207 0.150142 0.031513 -0.074976 -0.006357 0.997165
0.747613 0.035426 0.049494 -0.184731 -0.923515 0.336148
0.768804 0.086832 0.049381 0.013039 -0.022006 -0.999673
0.663679 0.124605 0.025534 -0.136045 -0.021292 0.990474
0.599739 0.136789 0.055523 -0.078409 -0.195850 0.977494
0.160751 0.230975 0.083537 -0.053056 -0.039036 0.997828
0.760340 0.270279 0.048955 0.021090 0.000342 -0.999777
0.735344 0.137700 0.039608 -0.920266 0.152513 -0.360348
0.739762 0.140222 0.052812 0.035930 -0.014707 0.999246
0.757760 0.237096 0.091511 0.016476 0.919767 0.392120
0.808538 0.222561 0.097072 -0.026472 0.997008 -0.072627
0.703793 0.238238 0.055447 0.049348 0.005465 0.998767
0.769595 0.100855 0.051416 0.030248 -0.015127 0.999428
0.657880 0.107250 0.054197 -0.028663 -0.138548 0.989941
0.759081 0.304171 0.052283 0.037271 0.013956 0.999208
0.454833 0.240573 0.048331 -0.001275 0.007330 -0.999972
0.822144 0.225320 0.052853 0.104493 -0.368540 -0.923720
0.603543 0.239098 0.042924 0.029015 0.070820 -0.997067
0.682887 0.193553 0.056223 0.047012 -0.011434 0.998829
0.694688 0.328519 0.028791 0.353597 0.002659 -0.935394
0.757133 0.231528 0.108565 -0.165908 0.111946 0.979767
0.590292 0.250279 0.042840 0.020476 0.099446 -0.994832
0.507394 0.198922 0.048579 -0.003602 -0.018405 -0.999824
0.688823 0.152398 0.048420 -0.000195 -0.004356 -0.999991
0.688436 0.316897 0.052118 0.222836 0.103897 0.969304
0.758075 0.131953 0.048983 0.018894 -0.002585 -0.999818
0.498602 0.249303 0.043421 -0.018180 0.421363 -0.906710
0.451344 0.278556 0.054454 -0.118622 0.444341 0.887970
0.685535 0.140393 0.051430 0.047731 0.035399 -0.998233
0.116797 0.216855 0.055475 -0.094605 -0.917141 -0.387173
0.710365 0.059219 0.050952 -0.056629 -0.249951 0.966601
0.206448 0.212360 0.059260 -0.032803 -0.950363 -0.309409
0.761760 0.087503 0.049170 0.011606 -0.021991 -0.999691
0.487419 0.246931 0.062037 -0.015213 0.083682 0.996376
0.772769 0.041352 0.049621 -0.060331 -0.382498 -0.921985
0.692537 0.185361 0.048322 0.002253 -0.002712 -0.999994
0.763722 0.221800 0.052474 0.047106 0.001829 0.998888
0.697134 0.140989 0.054548 0.034703 -0.026610 0.999043
0.416969 0.220072 0.061258 -0.042512 -0.098457 0.994233
0.635898 0.210904 0.068634 0.028619 -0.969972 0.241526
0.238543 0.214489 0.053077 -0.030903 -0.801760 -0.596846
0.687870 0.112624 0.053975 0.022458 -0.042757 0.998833
0.687744 0.139815 0.031369 0.046994 -0.005802 0.998878
0.483396 0.173177 0.049421 -0.046759 -0.163630 -0.985413
0.660592 0.190108 0.048341 -0.000750 -0.003788 -0.999993
0.666573 0.268718 0.048311 -0.000043 0.001599 -0.999999
0.768281 0.157756 0.049252 0.021850 -0.001783 -0.999760
0.738460 0.062358 0.048641 -0.015822 -0.081154 -0.996576
0.858469 0.224315 0.110267 -0.162007 0.986528 -0.022730
0.741367 0.388526 0.048626 0.003750 0.031585 -0.999494
0.805699 0.235890 0.121722 0.130765 -0.949270 -0.285984
0.695283 0.316626 0.031096 -0.009993 -0.005552 -0.999935
0.793185 0.319196 0.041272 0.995238 0.034405 0.091204
0.649058 0.143632 0.048627 -0.004916 -0.008900 -0.999948
0.609905 0.134196 0.049033 -0.037475 -0.074629 -0.996507
0.352658 0.232339 0.087762 -0.010511 0.060231 0.998129
0.357656 0.238994 0.058197 -0.066798 0.116548 0.990936
0.763360 0.398632 0.049245 0.013075 0.017322 -0.999765
0.755609 0.216041 0.052873 0.047159 0.001121 0.998887
0.569942 0.199414 0.048393 -0.002168 -0.008441 -0.999962
0.743501 0.332756 0.032348 0.228443 -0.007220 -0.973530
0.291819 0.209373 0.070488 -0.019352 -0.973258 0.228898
0.727671 0.213958 0.048275 0.012784 -0.001096 -0.999918
0.558509 0.253378 0.045781 -0.003959 0.990898 -0.134560
0.124002 0.232953 0.046391 -0.014740 0.138928 -0.990193
0.790291 0.200223 0.051122 0.045860 0.000033 0.998948
0.096209 0.237342 0.048927 -0.109180 0.575357 -0.810582
0.751323 0.066378 0.048957 -0.008084 -0.069289 -0.997564
0.740242 0.377737 0.048547 0.007383 0.019822 -0.999776
0.553087 0.212535 0.076269 0.009232 -0.816451 0.577341
0.422550 0.227236 0.048290 -0.000663 -0.004603 -0.999989
0.763624 0.048346 0.049325 -0.014179 -0.124679 -0.992096
0.877304 0.235080 0.088757 -0.748661 -0.662913 -0.007305
0.671492 0.126147 0.051281 -0.087912 0.094196 -0.991665
0.701508 0.265401 0.055261 0.044977 0.015694 0.998865
0.651941 0.227093 0.058608 0.046696 0.001785 0.998908
0.706179 0.212652 0.062674 0.040308 -0.999186 0.001740
0.678967 0.386873 0.051780 -0.067843 0.166741 0.983664
0.662042 0.325713 0.055460 0.014813 0.057717 0.998223
0.721017 0.149028 0.044390 -0.787784 0.152045 -0.596891
0.648533 0.339111 0.054786 -0.021196 0.108115 0.993912
0.523138 0.213112 0.043114 -0.010234 -0.185059 -0.982674
0.311136 0.208649 0.062193 -0.020419 -0.996067 -0.086224
0.635710 0.268982 0.058913 0.035418 0.035308 0.998749
0.458373 0.218300 0.083454 0.003539 -0.567462 0.823392
0.495270 0.242083 0.062386 -0.010160 0.061648 0.998046
0.557445 0.208220 0.057945 0.005197 -0.999419 0.033671
0.216923 0.249896 0.069733 -0.028297 0.968805 0.246202
0.293716 0.240317 0.045185 -0.024958 0.412226 -0.910739
0.275200 0.225592 0.048518 -0.095117 -0.104624 -0.989953
0.751314 0.369459 0.051627 0.015884 0.035913 0.999229
0.630534 0.131040 0.055550 -0.038807 -0.131227 0.990592
0.643007 0.094853 0.051975 -0.297277 -0.566369 0.768669
0.737004 0.400543 0.050872 -0.023376 0.111396 0.993501
0.910457 0.231233 0.084025 -0.920699 0.389753 0.020165
0.204936 0.235186 0.084139 -0.040624 0.213511 0.976096
0.698991 0.212365 0.066569 0.036496 -0.993846 0.104586
0.528667 0.231593 0.042829 -0.001454 0.011040 -0.999938
0.710337 0.245889 0.074925 0.032302 0.929386 0.367692
0.691901 0.293183 0.055405 0.040477 0.024795 0.998873
0.629232 0.157112 0.048606 -0.005149 -0.009327 -0.999943
0.872375 0.235566 0.070593 -0.946800 -0.321785 -0.004966
0.663362 0.166598 0.048446 -0.002082 -0.005677 -0.999982
0.661767 0.345313 0.054222 -0.016022 0.098551 0.995003
0.638609 0.310478 0.048595 -0.004851 0.007982 -0.999956
0.676899 0.375495 0.052404 -0.050437 0.143219 0.988405
0.776013 0.378561 0.049566 0.021550 0.002703 -0.999764
0.510888 0.207679 0.048407 -0.001890 -0.012117 -0.999925
0.612122 0.308600 0.041770 -0.840575 -0.046121 0.539729
0.719618 0.127924 0.034718 -0.989355 0.145281 0.008340
0.430254 0.219684 0.043520 -0.014803 -0.219821 -0.975428
0.620102 0.122995 0.054513 -0.090326 -0.207944 0.973961
0.766425 0.235315 0.104245 0.336644 -0.693807 -0.636634
0.549672 0.203162 0.061548 0.003444 -0.060858 0.998141
0.507757 0.160971 0.049862 -0.279518 -0.795198 -0.538079
0.446445 0.185671 0.055048 -0.131200 -0.452385 0.882119
0.694242 0.330771 0.031063 -0.008295 -0.005697 -0.999949
0.092551 0.239553 0.063964 -0.276387 0.775860 0.567143
0.765896 0.217972 0.075221 0.032670 -0.886426 0.461717
0.587046 0.312917 0.056196 -0.050981 0.172929 0.983614
0.560381 0.318107 0.049388 -0.082601 0.157888 -0.983996
0.722272 0.414231 0.049749 -0.210566 0.539578 0.815180
0.596327 0.212095 0.074751 0.017950 -0.870088 0.492569
0.838663 0.242541 0.060537 0.181515 0.842084 -0.507885
0.639507 0.129811 0.048793 -0.018225 -0.030808 -0.999359
0.596277 0.225466 0.061061 0.030921 -0.000909 0.999521
0.677221 0.103826 0.048742 -0.025185 -0.042504 -0.998779
0.353143 0.245196 0.046203 -0.027538 0.573062 -0.819049
0.621774 0.222091 0.084792 0.000992 -0.512577 0.858640
0.791894 0.355535 0.050024 0.026909 0.001309 -0.999637
0.426089 0.236301 0.048299 -0.000906 0.004913 -0.999988
0.386482 0.224148 0.048325 -0.001056 -0.011968 -0.999928
0.374803 0.219742 0.048372 -0.001426 -0.019149 -0.999816
0.664046 0.165754 0.047651 0.465927 0.026536 -0.884425
0.764323 0.227550 0.052449 0.047243 0.002423 0.998881
0.663516 0.332913 0.048604 -0.004064 0.007192 -0.999966
0.849014 0.236988 0.118779 -0.056785 -0.996895 -0.054555
0.694365 0.219953 0.082230 0.009383 -0.817243 0.576217
0.614168 0.314764 0.044424 -0.744904 -0.026329 0.666652
0.244288 0.251045 0.061809 -0.021548 0.988969 -0.146548
0.615130 0.236339 0.048268 -0.000887 0.000153 -1.000000
0.746429 0.046812 0.048891 -0.042480 -0.211967 -0.976353
0.896356 0.232089 0.062845 0.701151 0.078947 -0.708629
0.763587 0.218536 0.049058 0.021911 -0.000677 -0.999760
0.783052 0.349569 0.051031 0.022513 0.017540 0.999593
0.497463 0.251692 0.072988 0.003186 0.928198 0.372072
0.638887 0.341680 0.048901 -0.037762 0.068873 -0.996910
0.733725 0.155674 0.053350 0.039745 -0.012911 0.999126
0.475127 0.208810 0.048690 -0.010018 -0.981328 -0.192079
0.710276 0.306163 0.054226 0.035706 0.025438 0.999039
0.312433 0.220207 0.045329 -0.020741 -0.397141 -0.917523
0.651068 0.250842 0.049289 0.045802 0.993586 -0.103390
0.467427 0.238346 0.042931 -0.005124 0.031721 -0.999484
0.727981 0.173073 0.048312 0.012266 -0.002093 -0.999923
0.671820 0.322810 0.048501 -0.002384 0.005235 -0.999983
0.539461 0.251614 0.072543 0.004371 0.928352 0.371676
0.615665 0.331335 0.054822 -0.060056 0.177662 0.982257
0.668574 0.251200 0.057210 0.045025 0.017006 0.998841
0.519137 0.289407 0.056881 -0.077096 0.266956 0.960620
0.699716 0.208511 0.048286 0.004800 -0.001516 -0.999987
0.417423 0.215025 0.045106 -0.022998 -0.470118 -0.882304
0.575633 0.235317 0.048272 -0.000932 0.000532 -0.999999
0.685353 0.315888 0.026784 0.196670 -0.015556 -0.980346
0.747878 0.132687 0.052487 0.035144 -0.014202 0.999281
0.791411 0.182458 0.051048 0.045360 -0.001758 0.998969
0.522178 0.256700 0.048428 -0.002664 0.011316 -0.999932
0.785148 0.344029 0.049800 0.025569 0.001260 -0.999672
0.402094 0.247796 0.079987 -0.001791 0.762458 0.647036
0.700506 0.112757 0.048541 0.001499 -0.005686 -0.999983
0.739749 0.271333 0.053417 0.043722 0.009698 0.998997
0.735009 0.312454 0.040693 0.988912 0.137552 -0.055963
0.711232 0.233310 0.076131 0.434184 -0.390455 -0.811806
0.610831 0.213808 0.048319 -0.001425 -0.003905 -0.999991
0.893734 0.237309 0.074212 0.642168 0.620607 0.449963
0.410751 0.228949 0.043127 -0.008485 -0.088795 -0.996014
0.910221 0.230205 0.128062 -0.907740 0.419417 0.009907
0.773713 0.087270 0.051178 0.026038 -0.017702 0.999504
0.607287 0.351303 0.049683 -0.477833 0.842431 0.248967
0.633234 0.236127 0.086609 -0.023250 0.309543 0.950601
0.691455 0.329244 0.051318 -0.027303 0.035580 0.998994
0.436728 0.252356 0.070866 -0.000063 0.964453 0.264255
0.661145 0.305261 0.026422 0.049536 -0.028313 -0.998371
0.703468 0.121866 0.048512 0.002685 -0.005269 -0.999983
0.319608 0.246630 0.052641 -0.146673 0.481260 0.864220
0.429542 0.241265 0.043459 -0.012728 0.148750 -0.988793
0.551168 0.247176 0.048322 -0.001504 0.003320 -0.999993
0.610869 0.127392 0.035478 0.757196 -0.106195 0.644497
0.725894 0.227039 0.095061 -0.039913 -0.823529 0.565869
0.646820 0.251155 0.053752 0.040509 0.998516 -0.036401
0.780395 0.332291 0.049642 0.024723 0.001175 -0.999694
0.636897 0.102179 0.052713 -0.159031 -0.321141 0.933583
0.270837 0.238574 0.085667 -0.023869 0.344122 0.938621
0.750057 0.266997 0.048618 0.018618 0.000425 -0.999827
0.761003 0.159169 0.049014 0.020228 -0.001837 -0.999794
0.906683 0.229825 0.121907 -0.593146 0.805071 0.006211
0.637484 0.353849 0.049098 -0.068152 0.119740 -0.990463
0.803306 0.240965 0.072744 -0.081824 -0.995418 -0.049484
0.727621 0.246785 0.054141 0.046373 0.007872 0.998893
0.497927 0.208268 0.065714 0.001897 -0.995340 0.096410
0.754861 0.394520 0.050707 -0.013987 0.089273 0.995909
0.738616 0.341354 0.052506 0.028923 0.023352 0.999309
0.632030 0.195698 0.048352 -0.001838 -0.004485 -0.999988
0.722595 0.202969 0.048289 0.011155 -0.001515 -0.999937
0.680594 0.342035 0.048564 -0.002908 0.005872 -0.999979
0.248637 0.232203 0.044325 -0.017776 0.068881 -0.997467
0.794143 0.226231 0.117663 0.215645 0.877268 -0.428833
0.716664 0.046468 0.049808 -0.246878 -0.958301 0.143910
0.679283 0.219562 0.046095 0.049722 -0.117196 -0.991863
0.402201 0.204497 0.048757 -0.004816 -0.037677 -0.999278
0.747440 0.241915 0.080988 0.034139 0.928469 0.369839
0.773748 0.229884 0.107969 -0.050063 -0.877156 0.477588
0.764878 0.225797 0.102514 0.272278 0.805839 -0.525821
0.532435 0.214308 0.048358 -0.001536 -0.007875 -0.999968
0.820026 0.224058 0.115305 -0.009395 0.996644 -0.081319
0.724255 0.142305 0.036356 -0.860789 0.095517 0.499919
0.439328 0.205948 0.059933 -0.050752 -0.169135 0.984285
0.285870 0.222003 0.050920 -0.257810 -0.704641 0.661071
0.678751 0.390705 0.051025 -0.167709 0.343449 0.924076
0.611466 0.320901 0.037053 -0.827808 -0.109892 -0.550143
0.729409 0.199722 0.048287 0.013074 -0.001395 -0.999914
0.738728 0.083987 0.051643 0.015956 -0.048828 0.998680
0.821532 0.217229 0.066261 0.057110 -0.995518 -0.075381
0.618449 0.127236 0.029322 0.425946 -0.078461 0.901340
0.083103 0.227373 0.047723 -0.131128 -0.310467 -0.941497
0.901653 0.232487 0.136084 -0.454982 -0.890497 -0.002459
0.780909 0.241821 0.076509 0.040793 0.909382 0.413956
0.903809 0.229730 0.070033 -0.754016 0.656683 0.015095
0.747742 0.231481 0.097504 0.457439 -0.261581 -0.849897
0.897272 0.232838 0.102395 -0.901450 -0.432834 0.006496
0.172377 0.216224 0.076042 -0.046442 -0.829943 0.555912
0.487871 0.246278 0.081185 0.004455 0.714866 0.699248
0.693337 0.301303 0.052647 0.311277 0.110209 0.943907
0.726420 0.161040 0.037424 -0.605965 0.041606 0.794402
0.574070 0.266430 0.048422 -0.002736 0.008092 -0.999964
0.407741 0.241585 0.048365 -0.001513 0.014206 -0.999898
0.501093 0.270566 0.048703 -0.005748 0.020993 -0.999763
0.617602 0.348351 0.049280 -0.129484 0.220385 -0.966780
0.789384 0.325195 0.040491 0.965570 0.037559 0.257417
0.463032 0.231343 0.087960 0.000625 0.028612 0.999590
0.697158 0.406467 0.049050 -0.386128 0.920051 -0.066412
0.732075 0.063206 0.048674 -0.021622 -0.084038 -0.996228
0.733090 0.105300 0.052487 0.027408 -0.023301 0.999353
0.791710 0.272595 0.049990 0.028534 0.000147 -0.999593
0.144743 0.245653 0.072630 -0.087040 0.856820 0.508216
0.422074 0.236843 0.043190 -0.010470 0.073516 -0.997239
0.503881 0.254090 0.048415 -0.002391 0.012224 -0.999922
0.735895 0.171503 0.053492 0.042899 -0.008626 0.999042
0.730365 0.353238 0.048458 0.010467 0.003190 -0.999940
0.920312 0.228182 0.075674 0.883103 -0.227879 0.410122
0.541958 0.163855 0.049138 -0.030561 -0.086425 -0.995790
0.703881 0.370288 0.048620 -0.004490 0.025712 -0.999659
0.652481 0.249808 0.046435 0.074191 0.794392 -0.602857
0.435080 0.270705 0.055435 -0.100974 0.410528 0.906240
0.400181 0.240997 0.043443 -0.014488 0.148677 -0.988780
0.288758 0.209560 0.059934 -0.025968 -0.972474 -0.231560
0.796839 0.229186 0.123203 0.427651 0.426465 -0.797021
0.742274 0.055733 0.048738 -0.019053 -0.093808 -0.995408
0.503028 0.232419 0.063023 -0.002967 0.011601 0.999928
0.419936 0.231251 0.048256 -0.000464 0.000423 -1.000000
0.599766 0.191623 0.060000 0.020701 -0.046402 0.998708
0.633051 0.233080 0.059830 0.043908 0.005317 0.999021
0.731580 0.149930 0.051527 -0.128416 0.033816 -0.991144
0.788735 0.228377 0.099759 0.006982 -0.947194 0.320585
0.376939 0.218804 0.058942 -0.061540 -0.153120 0.986290
0.664441 0.305750 0.055971 0.024379 0.047959 0.998552
0.358502 0.252723 0.069109 -0.008493 0.983941 0.178290
0.894016 0.238791 0.069072 0.656648 0.748774 -0.090285
0.765802 0.327901 0.046289 0.371604 0.035669 0.927706
0.326602 0.241362 0.044708 -0.024388 0.396754 -0.917601
0.642300 0.314384 0.056412 0.009613 0.068790 0.997585
0.746419 0.409513 0.048853 -0.001577 0.050997 -0.998698
0.485460 0.227222 0.087132 0.002090 -0.190946 0.981598
0.436958 0.278651 0.051406 -0.228550 0.861244 0.453899
0.635761 0.103366 0.049204 -0.092164 -0.155267 -0.983564
0.823384 0.226783 0.088630 0.011979 -0.951107 0.308631
0.714817 0.351686 0.048501 0.005814 0.004158 -0.999974
0.189823 0.249606 0.066522 -0.030695 0.993987 0.105111
0.147392 0.215119 0.071637 -0.083529 -0.913198 0.398864
0.781913 0.315192 0.051155 0.032369 0.013778 0.999381
0.569483 0.270743 0.048481 -0.003473 0.009653 -0.999947
0.393943 0.208256 0.064758 -0.008388 -0.999220 0.038577
0.605539 0.348190 0.049570 -0.496805 0.855355 -0.146807
0.713907 0.264276 0.048282 0.008901 0.000495 -0.999960
0.750562 0.320554 0.052365 0.033689 0.017874 0.999273
0.583630 0.251150 0.060963 0.021175 0.037925 0.999056
0.766082 0.075909 0.049351 0.003610 -0.045930 -0.998938
0.506728 0.271699 0.059636 -0.033137 0.162547 0.986144
0.632898 0.146570 0.026683 0.132028 -0.047041 0.990129
0.793092 0.305380 0.041883 0.830467 0.015581 -0.556850
0.770289 0.329246 0.045465 0.409710 0.035829 0.911512
0.254187 0.217366 0.081454 -0.028646 -0.650944 0.758585
0.607900 0.304052 0.057553 -0.002586 0.091014 0.995846
0.487399 0.233655 0.042828 -0.003280 0.000737 -0.999994
0.671035 0.240334 0.085047 -0.026368 0.654750 0.755385
0.748660 0.200205 0.053096 0.045668 -0.002254 0.998954
0.896167 0.233176 0.148493 -0.223762 -0.974409 -0.021391
0.459630 0.261832 0.048674 -0.004945 0.025623 -0.999659
0.883483 0.230449 0.060741 0.587938 -0.070698 -0.805811
0.478466 0.175590 0.054612 -0.142960 -0.455223 0.878826
0.574672 0.130453 0.049742 -0.364975 -0.740140 -0.564789
0.211903 0.219848 0.081439 -0.039799 -0.581875 0.812304
0.450015 0.246680 0.043911 -0.017557 0.324148 -0.945843
0.444722 0.229571 0.087761 0.000255 -0.064544 0.997915
0.339889 0.253072 0.063531 -0.013180 0.998591 -0.051394
0.719177 0.201108 0.048293 0.010141 -0.001661 -0.999947
0.862799 0.241081 0.072266 0.341633 0.855475 0.389165
0.785766 0.071469 0.049895 0.009185 -0.066123 -0.997769
0.730808 0.213939 0.055136 0.048073 -0.984737 -0.167277
0.593285 0.132826 0.054427 -0.118819 -0.268275 0.955986
0.851283 0.238024 0.076075 -0.416420 -0.908898 -0.022329
0.290591 0.225359 0.048408 -0.042244 -0.045372 -0.998077
0.511643 0.254523 0.048410 -0.002387 0.011478 -0.999931
0.593904 0.241072 0.083561 -0.002882 0.540685 0.841220
0.238974 0.212307 0.056319 -0.030083 -0.900552 -0.433707
0.541643 0.284050 0.058898 -0.027036 0.146226 0.988882
0.575359 0.248438 0.042839 0.007639 0.087531 -0.996133
0.761677 0.175172 0.052370 0.044104 -0.005365 0.999013
0.396326 0.261614 0.055456 -0.102325 0.401299 0.910214
0.713659 0.333938 0.053421 0.026222 0.032941 0.999113
0.737950 0.126705 0.031609 -0.190306 -0.007801 0.981694
0.780589 0.085494 0.050995 0.026255 -0.016516 0.999519
0.785224 0.227243 0.093630 0.010054 -0.934866 0.354858
0.603283 0.167676 0.058570 0.004254 -0.067829 0.997688
0.391069 0.217041 0.059501 -0.057628 -0.155130 0.986212
0.778090 0.235772 0.049923 0.061957 0.188545 -0.980108
0.575041 0.241200 0.083779 0.004017 0.558878 0.829240
0.690103 0.325787 0.054525 0.026785 0.038090 0.998915
0.670663 0.202253 0.057114 0.046333 -0.007957 0.998894
0.637507 0.202327 0.048333 -0.001411 -0.003719 -0.999992
0.702557 0.201254 0.048297 0.005426 -0.001886 -0.999983
0.537017 0.253253 0.058361 -0.002686 0.999276 -0.037939
0.703167 0.130229 0.030814 -0.565088 0.038906 0.824113
0.738586 0.209933 0.048272 0.015875 -0.000875 -0.999874
0.189508 0.214746 0.074834 -0.041685 -0.876760 0.479118
0.791366 0.160897 0.042297 -0.750728 0.011045 0.660519
0.099997 0.225535 0.047854 -0.086833 -0.423189 -0.901871
0.511415 0.239346 0.062763 -0.002551 0.039950 0.999198
0.197299 0.216083 0.077371 -0.041640 -0.791936 0.609183
0.746082 0.338802 0.032716 0.309484 -0.003700 -0.950898
0.078199 0.236092 0.049387 -0.232116 0.669343 -0.705764
0.762996 0.206604 0.052494 0.046721 0.000272 0.998908
0.709593 0.164813 0.032987 -0.401879 0.013345 0.915595
0.717656 0.327613 0.048404 0.007935 0.002779 -0.999965
0.758892 0.225512 0.048895 0.020917 -0.000496 -0.999781
0.718399 0.150791 0.048395 0.008418 -0.003458 -0.999959
0.811712 0.233983 0.129932 0.357302 -0.648996 -0.671669
0.713137 0.342664 0.053287 0.023827 0.034843 0.999109
0.878501 0.226784 0.075855 -0.539886 0.841733 -0.002856
0.341169 0.229470 0.043095 -0.012670 -0.069051 -0.997533
0.668918 0.294229 0.055050 0.146777 0.097859 0.984317
0.050780 0.229514 0.049962 -0.805533 -0.151262 -0.572920
0.676289 0.390046 0.049062 -0.242676 0.504338 -0.828705
0.699076 0.294801 0.030212 0.263709 -0.004614 -0.964591
0.676957 0.218858 0.048280 0.000667 -0.001450 -0.999999
0.737865 0.125445 0.031600 -0.192995 -0.007839 0.981168
0.748660 0.115395 0.048717 0.016345 -0.003136 -0.999861
0.444809 0.243355 0.043461 -0.011837 0.160549 -0.986957
0.791063 0.228256 0.119257 0.403838 0.516902 -0.754803
0.577892 0.253154 0.065856 0.008043 0.995562 0.093762
0.810649 0.226926 0.090351 0.015347 -0.948722 0.315738
0.159450 0.214197 0.057705 -0.033086 -0.907024 -0.419777
0.852966 0.242374 0.064238 0.288018 0.909521 -0.299697
0.741642 0.149713 0.032137 -0.159862 -0.006812 0.987116
0.499943 0.219089 0.048341 -0.001299 -0.008188 -0.999966
0.461623 0.239476 0.062102 -0.021985 0.056468 0.998162
0.490276 0.238920 0.048304 -0.001172 0.003312 -0.999994
0.848410 0.221486 0.075099 0.224727 -0.762635 0.606535
0.319598 0.209595 0.072384 -0.015371 -0.949240 0.314178
0.472592 0.186035 0.049025 -0.018797 -0.075927 -0.996936
0.764234 0.345878 0.051518 0.025619 0.020568 0.999460
0.542271 0.269888 0.060313 -0.011141 0.111903 0.993657
0.490644 0.213914 0.048379 -0.001583 -0.011525 -0.999932
0.653750 0.153589 0.056854 0.026565 -0.040355 0.998832
0.703558 0.108984 0.053426 0.023763 -0.036456 0.999053
0.691336 0.402746 0.050132 -0.255836 0.541037 0.801141
0.867290 0.225352 0.106097 -0.263906 0.964402 -0.016811
0.645637 0.323705 0.056031 0.007360 0.069885 0.997528
0.841262 0.243764 0.064565 0.191988 0.961312 -0.197535
0.453989 0.215530 0.048384 -0.001459 -0.013880 -0.999903
0.475706 0.231668 0.042827 -0.003926 -0.010915 -0.999933
0.631255 0.329545 0.055677 -0.023526 0.114457 0.993150
0.574632 0.239158 0.048288 -0.001124 0.001426 -0.999998
0.661154 0.163064 0.048478 -0.002567 -0.006250 -0.999977
0.663224 0.250054 0.068586 0.036446 0.981097 0.190053
0.750049 0.310790 0.033696 0.237390 -0.005415 -0.971399
0.727050 0.312381 0.042812 0.929719 0.154969 0.334075
0.828221 0.244165 0.065074 0.063823 0.979271 -0.192235
0.374191 0.250047 0.050364 -0.021011 0.890769 -0.453970
0.560382 0.195204 0.060822 0.001956 -0.069659 0.997569
0.782633 0.356339 0.051023 0.020642 0.018399 0.999618
0.777842 0.330900 0.044100 0.473219 0.035907 0.880213
0.702501 0.304424 0.054615 0.036157 0.026647 0.998991
0.764318 0.276267 0.052211 0.042044 0.010096 0.999065
0.860036 0.237181 0.112467 -0.111790 -0.993040 -0.037088
0.493759 0.241653 0.048322 -0.001380 0.004534 -0.999989
0.138509 0.214142 0.061224 -0.066394 -0.987930 -0.139950
0.687226 0.150150 0.031448 0.053465 -0.005914 0.998552
0.346673 0.242143 0.056607 0.381546 0.844572 -0.375661
0.529826 0.282162 0.048808 -0.007226 0.021507 -0.999743
0.813218 0.222179 0.091076 -0.044404 0.996988 -0.063582
0.585556 0.324731 0.049207 -0.068293 0.120852 -0.990319
0.608182 0.146444 0.056795 -0.022218 -0.110162 0.993665
0.778722 0.353491 0.051130 0.021877 0.018788 0.999584
0.629996 0.106591 0.049256 -0.114704 -0.196391 -0.973793
0.493421 0.177695 0.049182 -0.029233 -0.107965 -0.993725
0.430786 0.227341 0.062038 -0.031756 -0.019739 0.999301
0.657223 0.303026 0.054613 0.050132 0.090892 0.994598
0.749608 0.040603 0.049046 -0.114454 -0.567727 -0.815221
0.789010 0.129934 0.049933 0.025609 -0.001962 -0.999670
0.835823 0.234077 0.089614 0.161732 0.788523 0.593358
0.579094 0.189199 0.060142 0.006749 -0.064706 0.997882
0.721038 0.205077 0.048288 0.010737 -0.001509 -0.999941
0.612938 0.306157 0.042567 -0.810396 -0.039578 0.584545
0.736644 0.218188 0.077496 0.024517 -0.868902 0.494376
0.722824 0.313955 0.031452 0.070145 -0.006321 -0.997517
0.310542 0.239266 0.054422 -0.097799 0.258506 0.961046
0.433756 0.202414 0.048728 -0.004434 -0.031949 -0.999480
0.706344 0.333147 0.031013 0.042594 -0.006155 -0.999074
0.757469 0.221480 0.082480 0.035821 0.989478 -0.140177
0.300563 0.228952 0.043198 -0.015624 -0.082330 -0.996483
0.647351 0.132528 0.052493 -0.004549 0.087432 -0.996160
0.570947 0.179732 0.048619 -0.004865 -0.013676 -0.999895
0.665648 0.266619 0.057205 0.041839 0.023930 0.998838
0.778853 0.236544 0.087966 0.041050 0.943133 0.329870
0.705120 0.316841 0.048082 0.421703 0.121603 0.898543
0.567783 0.191585 0.060433 0.002296 -0.070575 0.997504
0.346205 0.215542 0.047322 -0.025236 -0.553615 -0.832390
0.604140 0.214927 0.042926 0.027625 -0.023263 -0.999348
0.679260 0.319050 0.051137 -0.138719 0.034217 0.989741
0.289573 0.233738 0.048297 -0.041635 0.021745 -0.998896
0.119213 0.237475 0.075785 -0.234743 0.418666 0.877277
0.559547 0.155754 0.049132 -0.034598 -0.087184 -0.995591
0.559344 0.148493 0.049293 -0.050851 -0.121768 -0.991255
0.507079 0.186204 0.048795 -0.005895 -0.024374 -0.999686
0.453597 0.240626 0.043207 -0.008759 0.097178 -0.995228
0.890583 0.233485 0.159108 -0.037723 -0.997619 -0.057734
0.746054 0.123740 0.048613 0.015956 -0.002950 -0.999868
0.155612 0.231878 0.046477 -0.013936 0.095846 -0.995299
0.505415 0.240356 0.085139 0.004319 0.496457 0.868051
0.784992 0.168264 0.051316 0.044713 -0.003875 0.998992
0.793937 0.329086 0.041238 0.795264 0.038431 0.605044
0.318675 0.238205 0.043971 -0.020688 0.248361 -0.968446
0.737920 0.298768 0.053261 0.039998 0.015494 0.999080
0.477472 0.215682 0.061988 -0.020656 -0.073054 0.997114
0.610898 0.222869 0.085201 -0.000639 -0.471964 0.881618
0.886349 0.227714 0.061676 0.610148 -0.308469 -0.729772
0.514652 0.242226 0.062678 -0.002352 0.046830 0.998900
0.536410 0.182518 0.048756 -0.005773 -0.020249 -0.999778
0.776709 0.100390 0.049576 0.021940 -0.002737 -0.999756
0.760451 0.165410 0.048097 -0.718752 0.044392 -0.693847
0.415885 0.255785 0.058792 -0.058266 0.227499 0.972034
0.498076 0.208364 0.066196 0.002129 -0.993309 0.115468
0.554371 0.231439 0.042831 -0.000258 0.021303 -0.999773
0.874690 0.227530 0.059949 0.508079 -0.317821 -0.800528
0.727081 0.227325 0.096005 -0.042191 -0.826491 0.561366
0.744081 0.319480 0.050342 0.186622 0.033968 0.981844
0.613578 0.189952 0.048385 -0.002217 -0.006443 -0.999977
0.839227 0.224478 0.117761 -0.035586 0.997186 -0.065990
0.619258 0.343586 0.053674 -0.089464 0.215010 0.972506
0.241861 0.232482 0.044554 -0.018280 0.083948 -0.996302
0.717302 0.228352 0.079413 0.450810 0.298602 -0.841194
0.555055 0.253371 0.063862 0.000312 0.999388 0.034992
0.289301 0.242005 0.084372 -0.019239 0.501578 0.864898
0.722423 0.047320 0.050055 -0.178606 -0.825489 0.535413
0.831914 0.234262 0.139091 0.178252 -0.913987 -0.364491
0.638729 0.221396 0.044229 0.037980 -0.042696 -0.998366
0.728158 0.377962 0.051700 -0.005438 0.074160 0.997231
0.717685 0.248448 0.059194 0.044450 0.998049 -0.043835
0.462178 0.189932 0.048962 -0.014600 -0.064857 -0.997788
0.695497 0.133083 0.029005 -0.363537 0.003970 0.931571
0.696210 0.218536 0.079966 0.017712 -0.836934 0.547017
0.678705 0.228041 0.045779 0.043093 -0.012696 -0.998990
0.667347 0.324086 0.052430 0.077707 0.093287 0.992602
0.656230 0.108695 0.054308 -0.028155 -0.137066 0.990162
0.834095 0.236654 0.125908 0.000578 -0.995710 -0.092530
0.729758 0.144044 0.041639 -0.906452 0.154189 -0.393155
0.463843 0.201659 0.059920 -0.045199 -0.168176 0.984720
0.669362 0.301338 0.034124 -0.351700 -0.009828 -0.936061
0.641477 0.171565 0.058064 0.029960 -0.036921 0.998869
0.835315 0.225593 0.086819 0.081957 -0.894222 0.440058
0.424626 0.199142 0.048862 -0.008505 -0.049948 -0.998716
0.689031 0.194495 0.048308 0.001484 -0.002247 -0.999996
0.668352 0.138436 0.034142 0.332956 -0.009343 0.942896
0.714902 0.306465 0.034323 0.502727 0.025941 -0.864056
0.632752 0.131603 0.048834 -0.021629 -0.036443 -0.999102
0.746667 0.315270 0.033044 0.215955 -0.006123 -0.976384
0.367370 0.250373 0.051221 -0.020296 0.907909 -0.418675
0.478411 0.245041 0.043230 -0.007568 0.126881 -0.991889
0.605838 0.289786 0.058337 0.005956 0.080998 0.996696
0.564942 0.154601 0.049091 -0.032581 -0.079112 -0.996333
0.082707 0.221890 0.057373 -0.244092 -0.968183 0.055147
0.643490 0.192884 0.048355 -0.001467 -0.004547 -0.999989
0.365199 0.224488 0.086800 -0.007798 -0.292960 0.956093
0.426548 0.203521 0.058863 -0.063656 -0.224957 0.972287
0.224341 0.221556 0.083083 -0.036590 -0.486566 0.872877
0.707754 0.152010 0.031165 -0.029366 -0.005843 0.999552
0.100693 0.218718 0.057908 -0.174268 -0.979114 -0.104718
0.449725 0.188097 0.056152 -0.110199 -0.377841 0.919289
0.737091 0.124704 0.048414 0.013680 -0.003164 -0.999901
0.656070 0.321972 0.025787 0.049434 -0.028520 -0.998370
0.782865 0.155638 0.043758 -0.997230 0.033157 0.066583
0.525830 0.257600 0.061925 -0.004826 0.087691 0.996136
0.218410 0.220548 0.048181 -0.022403 -0.498303 -0.866714
0.713501 0.284678 0.054551 0.042511 0.017740 0.998938
0.733737 0.263706 0.048282 0.014456 0.000502 -0.999895
0.609665 0.199432 0.060020 0.028262 -0.027151 0.999232
0.715633 0.238166 0.072222 0.225537 -0.866114 -0.446070
0.744678 0.245768 0.048425 0.017551 -0.000026 -0.999846
0.515931 0.252319 0.069605 0.001986 0.969613 0.244636
0.119172 0.216841 0.055206 -0.086789 -0.906235 -0.413770
0.711828 0.282433 0.048311 0.007988 0.001498 -0.999967
0.607125 0.342543 0.049300 -0.118716 0.203823 -0.971783
0.612746 0.237983 0.060395 0.035523 0.015598 0.999247
0.542828 0.160291 0.056259 -0.105383 -0.274485 0.955799
0.672938 0.190616 0.048327 -0.000174 -0.003111 -0.999995
0.339548 0.242143 0.055304 0.177081 0.885921 -0.428703
0.230914 0.248492 0.055400 -0.023028 0.898257 -0.438866
0.763379 0.086902 0.051435 0.024427 -0.020427 0.999493
0.664575 0.234419 0.057754 0.048067 0.006072 0.998826
0.426094 0.209561 0.060062 -0.052235 -0.168642 0.984292
0.413821 0.244547 0.048396 -0.001821 0.017983 -0.999837
0.470414 0.281400 0.055205 -0.107953 0.390264 0.914352
0.677665 0.139361 0.055240 0.029653 -0.035965 0.998913
0.726863 0.270464 0.048288 0.012454 0.000666 -0.999922
0.661188 0.316597 0.048498 -0.002736 0.005501 -0.999981
0.330175 0.213297 0.053632 -0.129294 -0.439747 0.888766
0.466993 0.175594 0.052540 -0.241243 -0.804267 0.543099
0.584849 0.325632 0.054108 -0.104074 0.262986 0.959170
0.822283 0.239246 0.054847 0.092681 0.535691 -0.839312
0.663514 0.281786 0.057158 0.038858 0.030452 0.998781
0.612278 0.252121 0.043574 0.064106 0.696535 -0.714653
0.428879 0.219207 0.084356 0.001615 -0.523321 0.852134
0.694596 0.249074 0.067409 0.034745 0.981820 0.186606
0.518161 0.161249 0.049552 -0.098855 -0.287702 -0.952605
0.708003 0.319524 0.047088 0.450394 0.124185 0.884151
0.745375 0.425119 0.048969 -0.265625 0.923392 -0.277112
0.173781 0.231391 0.083884 -0.049704 -0.012185 0.998690
0.789222 0.261288 0.051144 0.042186 0.006506 0.999089
0.547286 0.240577 0.048294 -0.001168 0.001790 -0.999998
0.321032 0.236432 0.053590 -0.702953 0.197771 -0.683187
0.792114 0.234724 0.091774 0.050320 0.952509 0.300325
0.641983 0.220324 0.083770 0.005354 -0.599961 0.800011
0.771995 0.318591 0.051482 0.032376 0.015543 0.999355
0.372862 0.208749 0.057235 -0.017041 -0.992142 -0.123952
0.676122 0.259326 0.056688 0.045229 0.017149 0.998829
0.583232 0.319152 0.055051 -0.082638 0.227269 0.970319
0.695990 0.182469 0.055449 0.045660 -0.013328 0.998868
0.438318 0.253214 0.061528 -0.005923 0.999499 -0.031106
0.902392 0.232407 0.137253 -0.451675 -0.892179 -0.002285
0.368488 0.221442 0.085849 -0.007154 -0.424818 0.905251
0.745178 0.135726 0.052604 0.035533 -0.014266 0.999267
0.705286 0.335016 0.031200 0.718000 0.069569 -0.692557
0.684981 0.247358 0.073929 0.028325 0.926433 0.375392
0.845379 0.219140 0.072125 0.184280 -0.889384 0.418374
0.285457 0.211717 0.076109 -0.020502 -0.877431 0.479265
0.744195 0.213850 0.069254 0.035281 -0.991492 0.125294
0.421917 0.246921 0.048429 -0.002193 0.018891 -0.999819
0.744108 0.057546 0.048784 -0.017106 -0.089582 -0.995833
0.670577 0.152136 0.055989 0.032232 -0.033398 0.998922
0.553905 0.175352 0.048751 -0.006105 -0.018294 -0.999814
0.714598 0.129369 0.048464 0.006486 -0.004401 -0.999969
0.707275 0.329196 0.048435 0.004739 0.003419 -0.999983
0.408238 0.219605 0.060841 -0.046661 -0.107440 0.993116
0.257409 0.246381 0.050823 -0.026142 0.756702 -0.653237
0.439892 0.208776 0.054959 -0.010681 -0.992220 -0.124036
0.100181 0.219144 0.061613 -0.212871 -0.953893 0.211599
0.471879 0.214195 0.079896 0.004685 -0.736263 0.676680
0.703731 0.315486 0.054236 0.031577 0.030709 0.999029
0.740491 0.150516 0.048370 0.015346 -0.002319 -0.999880
0.583138 0.234534 0.061498 0.026580 0.009945 0.999597
0.609198 0.233550 0.043168 0.029937 0.057392 -0.997903
0.787131 0.373242 0.049895 0.024893 0.001995 -0.999688
0.669952 0.162064 0.048457 -0.002022 -0.005634 -0.999982
0.170559 0.241577 0.050028 -0.023015 0.632872 -0.773915
0.740541 0.356743 0.052172 0.025020 0.025725 0.999356
0.456668 0.176945 0.049807 -0.234796 -0.833647 -0.499904
0.620266 0.300215 0.049996 -0.494382 0.019124 0.869034
0.850136 0.238184 0.082103 -0.315284 -0.948738 -0.022200
0.598180 0.222090 0.042827 0.023673 0.013813 -0.999624
0.684545 0.310600 0.031558 -0.072584 -0.006123 -0.997343
0.782845 0.371275 0.049765 0.023868 0.002034 -0.999713
0.618852 0.151771 0.049085 0.536850 0.011790 -0.843595
0.553228 0.221593 0.042826 -0.000811 -0.012635 -0.999920
0.413381 0.208910 0.054019 -0.014975 -0.986182 -0.164987
0.633656 0.159526 0.053976 0.130458 0.072314 -0.988813
0.667499 0.328876 0.048549 -0.003187 0.006119 -0.999976
0.679475 0.068027 0.050831 -0.327766 -0.689068 0.646340
0.784634 0.100167 0.049814 0.023642 -0.002541 -0.999717
0.633566 0.214506 0.077385 0.017217 -0.826106 0.563252
0.370666 0.218591 0.044471 -0.018793 -0.328938 -0.944165
0.927742 0.226238 0.071102 0.904219 -0.425702 -0.034142
0.703440 0.308083 0.054466 0.034661 0.027861 0.999011
0.380644 0.215958 0.082185 -0.005088 -0.663672 0.748007
0.720706 0.418733 0.049304 -0.276767 0.745399 0.606449
0.766117 0.328079 0.051570 0.030381 0.017898 0.999378
0.511269 0.290653 0.055970 -0.094390 0.316884 0.943756
0.468679 0.228629 0.062604 -0.016754 -0.010048 0.999809
0.590427 0.242702 0.060998 0.026330 0.023663 0.999373
0.803083 0.233245 0.097991 0.068939 0.952673 0.296076
0.771570 0.242472 0.052015 0.045931 0.004966 0.998932
0.778046 0.235844 0.051734 0.046459 0.003867 0.998913
0.699322 0.142312 0.049210 -0.348532 0.115866 -0.930108
0.786232 0.067908 0.050759 0.019613 -0.020549 0.999596
0.636709 0.177456 0.058474 0.030474 -0.036579 0.998866
0.790382 0.326864 0.049964 0.027315 0.000944 -0.999626
0.726087 0.332915 0.036315 0.949077 0.154042 0.274817
0.788728 0.134722 0.049923 0.025713 -0.001894 -0.999668
0.289421 0.212923 0.078150 -0.019544 -0.822119 0.568980
0.685630 0.095844 0.053067 -0.011690 -0.112270 0.993609
0.854070 0.237823 0.102291 -0.152122 -0.987948 -0.028590
0.909018 0.230303 0.076174 -0.760856 0.648697 0.017032
0.693339 0.364384 0.052988 -0.007927 0.081121 0.996673
0.729384 0.283405 0.048299 0.013007 0.001004 -0.999915
0.777514 0.177121 0.051697 0.045115 -0.003116 0.998977
0.625083 0.263975 0.048346 -0.001857 0.003362 -0.999993
0.647606 0.315435 0.048575 -0.004256 0.007306 -0.999964
0.778032 0.303538 0.051482 0.035821 0.012106 0.999285
0.376593 0.211066 0.050536 -0.029603 -0.827821 -0.560210
0.204369 0.250030 0.066882 -0.028827 0.992887 0.115521
