0.253519 0.071064 0.068295 0.506205 -0.167185 -0.846053
0.215000 0.085893 0.390307 -0.922584 -0.225215 -0.313237
0.257807 0.114522 0.859795 0.836939 0.533328 0.122862
0.444014 0.085690 0.660705 -0.183595 -0.967250 0.175270
0.313101 0.112279 0.593363 0.757127 0.650174 0.063496
0.221109 0.113665 0.346617 -0.978233 0.205666 -0.027594
0.236679 0.055773 0.815856 0.587599 -0.748333 0.307776
0.298541 0.113463 0.668544 0.979149 -0.171497 0.108889
0.230002 0.131359 0.281721 -0.800950 0.594558 -0.070566
0.219035 0.101168 0.922226 -0.328597 0.944437 0.007979
0.232397 0.047332 0.693840 0.038614 -0.998836 0.028904
0.273335 0.101430 0.930077 -0.377853 -0.925817 0.009499
0.237888 0.126579 0.765575 -0.424073 0.902378 0.076655
0.220117 0.110133 0.369216 -0.986507 0.145996 -0.074086
0.283713 0.098771 0.891709 -0.973174 -0.090141 -0.211675
0.269385 0.101894 0.217872 0.959462 0.259689 -0.109514
0.181129 0.113030 0.542787 -0.894171 0.445919 0.040168
0.246667 0.189369 0.919505 0.991548 0.127402 0.024507
0.209293 0.079395 0.440241 -0.791708 -0.532113 -0.300090
0.279113 0.037571 0.733365 -0.561359 -0.827451 0.014169
0.240748 0.091795 0.873702 -0.397183 -0.823300 0.405490
0.204168 0.097193 0.892660 0.285353 -0.958372 -0.009824
0.203331 0.120659 0.605239 -0.819052 0.571661 0.048553
0.239979 0.102635 0.158206 -0.255165 0.920267 -0.296648
0.219946 0.106339 0.350586 -0.993240 0.108082 -0.042341
0.259183 0.060650 0.162182 0.431068 -0.896653 -0.100967
0.263155 0.095752 0.865493 0.960742 -0.159285 0.227163
0.284660 0.086025 0.706618 0.993241 0.036656 0.110130
0.103419 0.096902 0.603118 0.320745 -0.936564 0.141317
0.295349 0.094884 0.902829 -0.346891 -0.937641 -0.022267
0.148547 0.078925 0.920741 -0.310080 0.950517 0.019174
0.195189 0.118420 0.456988 -0.942391 0.334327 0.011148
0.214560 0.047308 0.756981 -0.198436 -0.980114 -0.000412
0.179275 0.089101 0.911787 0.290583 -0.956775 -0.011952
0.289498 0.071763 0.809685 0.986322 0.005094 0.164752
0.246667 0.162160 0.874483 -0.983883 -0.178386 -0.012330
0.165905 0.109240 0.592552 -0.450295 -0.892662 -0.019728
0.265933 0.106433 0.801130 0.887098 0.442310 0.131980
0.239776 0.059394 0.204243 -0.193650 -0.980297 -0.038956
0.239305 0.056226 0.787643 0.452128 -0.872648 0.184568
0.201245 0.073708 0.620382 -0.988975 -0.146181 0.023645
0.278333 0.086229 0.390519 -0.808465 -0.588267 -0.018086
0.218699 0.100692 0.948271 -0.338116 0.941100 -0.002844
0.297604 0.115729 0.568636 0.706009 0.706795 0.044642
0.273439 0.083231 0.263746 0.995030 -0.096785 -0.023396
0.317584 0.112571 0.510468 0.532732 -0.846222 0.010227
0.251905 0.110505 0.927487 0.843658 -0.293062 0.449841
0.246667 0.180280 0.890668 -0.944047 -0.328785 -0.026003
0.267570 0.104432 0.864104 0.284964 0.958522 0.005657
0.299449 0.085295 0.447163 0.949305 -0.288118 -0.125729
0.244466 0.047701 0.678259 0.134355 -0.987407 0.083523
0.273205 0.057412 0.424157 0.688547 -0.722212 -0.065665
0.156319 0.106747 0.633393 -0.518179 0.855210 -0.010325
0.246667 0.144750 0.882559 -0.515442 0.835119 0.192080
0.261912 0.141649 0.451336 0.300940 0.953252 0.027290
0.395233 0.095093 0.685357 -0.184356 -0.981802 0.045590
0.201659 0.080644 0.426194 -0.792584 -0.518715 -0.320539
0.236382 0.051468 0.771244 0.369873 -0.921699 0.116894
0.231465 0.047550 0.710094 -0.034647 -0.999123 0.023496
0.287684 0.079616 0.438866 0.901101 -0.366598 -0.231565
0.250617 0.059870 0.186523 0.124598 -0.991120 -0.046444
0.425763 0.089089 0.696039 0.180981 0.983283 -0.020012
0.320807 0.110090 0.620168 0.342428 -0.938395 0.046458
0.215000 0.082692 0.381993 -0.961612 -0.138586 -0.236845
0.025000 0.082321 0.634472 -0.938029 0.342503 -0.052851
0.282686 0.051758 0.711470 0.857297 -0.514772 0.007185
0.246667 0.177059 0.931857 0.922707 0.377132 0.079892
0.222772 0.069133 0.224139 -0.904889 -0.422524 -0.051471
0.207829 0.129146 0.519519 -0.477789 0.878443 -0.007480
0.202719 0.069706 0.777932 -0.975503 -0.213800 0.051804
0.199606 0.096035 0.870948 0.284131 -0.958786 0.000039
0.231181 0.065375 0.147966 -0.815480 -0.558177 -0.153073
0.246667 0.154320 0.898138 -0.991116 -0.129928 0.028403
0.199744 0.076324 0.474792 -0.879110 -0.437769 -0.188478
0.231108 0.058980 0.225848 -0.421705 -0.905942 -0.037873
0.390556 0.095802 0.656211 -0.063729 -0.994189 0.086761
0.132888 0.103074 0.573507 -0.933278 -0.318492 0.165995
0.231384 0.066129 0.141443 -0.849627 -0.499378 -0.169574
0.339720 0.080352 0.929897 -0.310026 -0.950597 -0.015779
0.296360 0.089243 0.493067 0.988059 -0.154074 -0.000663
0.242185 0.143565 0.421121 -0.201032 0.979333 0.022193
0.208972 0.050688 0.525922 -0.635434 -0.771055 -0.041207
0.279395 0.033308 0.705489 -0.599313 -0.800498 0.005282
0.210771 0.050959 0.770607 -0.702149 -0.711658 0.023037
0.246667 0.176472 0.838273 0.833797 0.550673 0.039263
0.185814 0.113837 0.563426 -0.579360 -0.815072 -0.000333
0.223785 0.126770 0.337642 -0.894089 0.445795 -0.043256
0.209985 0.099088 0.881049 0.244889 -0.969503 0.009615
0.254778 0.124542 0.787862 0.646908 0.759265 0.070906
0.271592 0.075530 0.220396 0.974550 -0.213570 -0.068115
0.298549 0.114220 0.617007 0.976484 -0.205095 0.066452
0.048626 0.085603 0.646680 -0.173727 0.971292 0.162511
0.204424 0.120589 0.655281 -0.857921 0.503963 0.099966
0.298687 0.087224 0.459598 0.964195 -0.262263 -0.039325
0.221823 0.128570 0.419696 -0.813365 0.573523 -0.097510
0.229687 0.102943 0.840061 -0.931349 0.339315 0.132113
0.227993 0.101780 0.178810 -0.780816 0.590648 -0.203622
0.411997 0.092591 0.620267 0.232730 0.844799 0.481821
0.217286 0.049200 0.719052 -0.148541 -0.988818 0.013230
0.246667 0.129981 0.935932 -0.567807 0.778627 0.267084
0.270144 0.071659 0.208510 0.953892 -0.291326 -0.072245
0.203927 0.066498 0.623072 -0.949657 -0.312217 0.025920
0.246667 0.206912 0.892793 0.978617 0.205275 0.013103
0.206024 0.097954 0.874850 0.268211 -0.963341 0.006037
0.267928 0.060211 0.272136 0.609712 -0.791605 -0.040173
0.361650 0.101907 0.621895 0.415336 0.908565 0.044777
0.211476 0.090047 0.731789 -0.978294 0.151683 0.141181
0.102402 0.096583 0.610142 0.237643 -0.964416 0.115881
0.151305 0.105201 0.680148 -0.272034 0.962254 -0.008025
0.089859 0.093316 0.648646 -0.172797 0.984958 -0.000003
0.306594 0.091036 0.918436 -0.320578 -0.947109 -0.014643
0.460417 0.084675 0.628234 -0.639441 0.766432 -0.060806
0.253528 0.093483 0.120406 0.347608 0.869700 -0.350414
0.063350 0.088318 0.700312 0.176917 -0.983838 0.027635
0.153456 0.080086 0.952965 -0.338487 0.940964 0.003625
0.223083 0.099757 0.220914 -0.961963 0.254305 -0.099780
0.113966 0.099494 0.584507 0.257230 -0.965993 0.026285
0.269174 0.062838 0.327631 0.771075 -0.635578 -0.038525
0.246667 0.140406 0.864910 0.473812 0.872517 0.119232
0.212669 0.036744 0.758066 0.946319 -0.323233 0.001311
0.251258 0.052235 0.395287 0.100040 -0.993444 -0.055324
0.245953 0.084588 0.876065 -0.012255 -0.957478 0.288247
0.217081 0.122247 0.415475 -0.813201 0.479215 -0.330237
0.464903 0.085167 0.716507 -0.205271 0.978457 -0.022023
0.232580 0.133494 0.609068 -0.273239 0.960642 0.050082
0.258374 0.057221 0.273498 0.286654 -0.957048 -0.043462
0.280643 0.048522 0.629684 0.582964 -0.812448 0.009069
0.246667 0.154660 0.824507 0.774456 0.630732 0.048942
0.249208 0.132321 0.621754 0.006849 0.998858 0.047280
0.197737 0.121858 0.453514 -0.757455 0.650762 -0.052644
0.243472 0.139628 0.513408 -0.131545 0.990171 0.047517
0.246667 0.137958 0.914496 0.824139 0.555401 0.111018
0.288714 0.097264 0.896414 0.283102 0.959033 0.010439
0.268987 0.062516 0.268745 0.706620 -0.706352 -0.041887
0.246667 0.152588 0.778748 0.071189 0.995619 0.060625
0.246667 0.198916 0.923163 0.999776 0.020378 0.005683
0.253093 0.045361 0.600995 0.096677 -0.995008 0.024752
0.291020 0.123879 0.509243 0.612529 0.790436 -0.004343
0.241683 0.112344 0.193080 -0.229365 0.915586 -0.330295
0.246667 0.118482 0.907867 0.537653 0.821577 0.189582
0.268451 0.126455 0.611558 0.370608 0.928414 0.026392
0.464090 0.085167 0.651425 -0.027546 0.998332 -0.050739
0.096473 0.094663 0.688886 -0.147411 0.988721 0.026485
0.225161 0.074382 0.186550 -0.980140 -0.175458 -0.092413
0.278333 0.091100 0.381083 -0.951388 0.029659 0.306563
0.152073 0.105326 0.678126 -0.272846 0.962020 -0.008510
0.046741 0.085424 0.640898 -0.144620 0.923888 0.354283
0.034423 0.082808 0.669100 -0.187291 0.936036 0.297925
0.228988 0.140957 0.397842 -0.637670 0.770274 -0.007468
0.044028 0.084721 0.647218 -0.175558 0.969619 0.170347
0.124415 0.099769 0.655575 -0.178619 0.983904 -0.005285
0.270626 0.048363 0.693785 0.245805 -0.969290 0.007589
0.174333 0.109844 0.664245 -0.648308 0.760874 0.027696
0.238447 0.093617 0.120742 -0.615649 0.716743 -0.327499
0.127717 0.100381 0.644849 -0.254118 0.966456 -0.037247
0.232687 0.132009 0.258674 -0.736074 0.665076 -0.125974
0.223499 0.093605 0.803585 -0.929156 0.303788 0.210669
0.245703 0.056494 0.281355 -0.056016 -0.997657 -0.039275
0.246667 0.132824 0.819688 0.495841 0.865396 0.072333
0.257317 0.143954 0.401402 0.293757 0.955800 0.012361
0.182297 0.111876 0.620212 -0.748154 0.660355 0.064782
0.246667 0.208025 0.870630 0.949018 0.314553 0.020522
0.242557 0.076701 0.835909 0.059177 -0.938988 0.338821
0.240716 0.048407 0.708530 0.184825 -0.979786 0.076551
0.280243 0.050091 0.800596 0.345738 -0.930586 0.120312
0.246667 0.194220 0.927775 0.979267 0.201027 0.024970
0.246667 0.159105 0.833665 0.832427 0.552378 0.044084
0.243711 0.132188 0.627269 -0.079100 0.995659 0.049050
0.193516 0.113209 0.668280 -0.892225 0.443287 0.086201
0.271251 0.128915 0.394037 0.864914 0.494266 -0.087321
0.246667 0.162064 0.912279 -0.992977 -0.110723 0.041671
0.246667 0.143470 0.841358 0.809673 0.584413 0.053768
0.238706 0.131752 0.636071 -0.147600 0.987726 0.051105
0.124803 0.099815 0.628064 -0.375243 0.922643 -0.089006
0.236220 0.106520 0.926346 -0.331074 0.943594 0.004428
0.204033 0.066739 0.781385 -0.955254 -0.291833 0.048203
0.220919 0.099877 0.259695 -0.991512 0.123119 -0.041774
0.213977 0.049727 0.751856 -0.511079 -0.859534 0.000017
0.110744 0.097193 0.633960 0.214555 -0.976555 -0.017528
0.259175 0.130103 0.717139 0.144787 0.987407 0.063748
0.250400 0.051737 0.718921 -0.223686 -0.966089 0.128984
0.191540 0.114989 0.553319 -0.962403 -0.270043 0.029269
0.220866 0.066259 0.391408 -0.894346 -0.441749 -0.070736
0.197503 0.120601 0.461939 -0.860021 0.510253 -0.002452
0.296253 0.111008 0.545897 0.998974 -0.038318 0.024153
0.246667 0.184826 0.829007 0.729081 0.683153 0.041738
0.246667 0.209441 0.899711 0.980294 0.197099 0.013280
0.246667 0.130611 0.928448 0.000127 0.959515 0.281657
0.223081 0.130323 0.460320 -0.685356 0.727402 -0.034258
0.243005 0.074710 0.832455 0.136679 -0.937641 0.319607
0.220691 0.062316 0.404227 -0.811034 -0.580363 -0.073500
0.314024 0.112707 0.548624 0.950617 0.306572 0.048378
0.241982 0.064181 0.798146 0.287886 -0.923688 0.252830
0.138036 0.102613 0.647371 -0.195904 -0.979131 -0.054071
0.273347 0.091553 0.241471 0.998780 0.030283 -0.039013
0.270476 0.128824 0.371886 0.913553 0.403252 -0.052999
0.181482 0.089552 0.924633 0.284803 -0.958473 -0.014738
0.460417 0.081211 0.675412 -0.995689 -0.088471 -0.027861
0.219397 0.119214 0.730269 -0.730042 0.666990 0.148875
0.243836 0.141560 0.252957 -0.211982 0.951534 -0.222816
0.287767 0.096844 0.925869 -0.322296 -0.946588 -0.009871
0.188724 0.092066 0.897143 -0.361209 0.931681 0.038713
0.203096 0.070822 0.782386 -0.985866 -0.157624 0.056769
0.275010 0.074310 0.389856 0.940731 -0.304402 -0.149547
0.306083 0.112753 0.622157 0.848865 -0.521686 0.085275
0.145927 0.077870 0.958749 0.290264 -0.956784 -0.017652
0.246667 0.171089 0.857856 -0.999185 0.040138 -0.004259
0.241051 0.056462 0.288213 -0.208095 -0.977376 -0.037853
0.220821 0.069517 0.382114 -0.944293 -0.322200 -0.067064
0.251396 0.067926 0.816796 -0.375958 -0.825209 0.421527
0.191873 0.094309 0.416728 -0.915692 -0.320743 -0.242139
0.257106 0.046907 0.697059 0.150521 -0.988531 0.012271
0.215000 0.087785 0.383408 -0.967533 -0.022127 -0.251775
0.191328 0.114200 0.576588 -0.896136 0.441696 0.042943
0.336685 0.107253 0.600887 0.278518 -0.959297 0.046663
0.214925 0.048352 0.725039 -0.247967 -0.968721 0.009610
0.208185 0.094299 0.713025 -0.976303 0.176197 0.125647
0.048697 0.085570 0.678960 -0.191776 0.949119 0.249790
0.385290 0.096604 0.628158 0.303180 0.952622 0.024373
0.194163 0.119639 0.438113 -0.970637 0.237861 -0.035862
0.196823 0.100199 0.501896 -0.985142 -0.171720 -0.002899
0.246667 0.140612 0.928875 -0.972701 0.196295 0.123780
0.198065 0.095083 0.893690 -0.445497 0.892937 0.064778
0.249279 0.093331 0.903133 -0.054157 -0.931397 0.359954
0.233215 0.133340 0.260342 -0.726861 0.675445 -0.124283
0.192422 0.085456 0.424372 -0.926176 -0.314504 -0.208052
0.255072 0.065395 0.091213 0.421910 -0.725558 -0.543652
0.198402 0.105849 0.591344 -0.978447 0.203439 0.035423
0.265130 0.048333 0.471514 0.362374 -0.930923 -0.045459
0.246667 0.160480 0.888125 -0.974313 -0.225127 -0.005679
0.431774 0.087981 0.660814 -0.179266 -0.964281 0.195003
0.205275 0.064845 0.817650 -0.883462 -0.329717 0.332838
0.111022 0.097552 0.619908 0.222163 -0.974947 -0.011030
0.263351 0.096760 0.158241 0.906985 0.366497 -0.207506
0.238027 0.099336 0.144727 -0.402885 0.865849 -0.296632
0.193170 0.110776 0.439887 -0.999177 0.039902 -0.007277
0.267917 0.081795 0.181425 0.992047 -0.062554 -0.109224
0.246667 0.154154 0.873427 -0.999674 -0.020298 0.015457
0.207881 0.098052 0.900674 -0.368937 0.929194 0.022012
0.246667 0.159499 0.935868 -0.630171 0.718094 0.295340
0.146880 0.078053 0.945199 -0.314440 0.949189 0.012992
0.198143 0.089085 0.532818 -0.848348 -0.528521 -0.031165
0.232833 0.136644 0.554642 -0.348554 0.936283 0.043406
0.209573 0.054677 0.658766 -0.719977 -0.693735 0.019080
0.199097 0.114099 0.667016 -0.939706 0.329021 0.093268
0.246667 0.162601 0.798479 0.375439 0.925050 0.057686
0.280162 0.049822 0.762864 0.385353 -0.922525 0.021242
0.122890 0.101304 0.575693 0.185446 -0.981720 0.042848
0.244307 0.061218 0.754518 0.145403 -0.966139 0.213152
0.321288 0.086597 0.925783 0.289404 0.957107 0.013840
0.201155 0.117328 0.643037 -0.911249 0.403127 0.084344
0.206296 0.097962 0.886758 0.286655 -0.957992 -0.009010
0.214983 0.130147 0.504831 -0.443599 0.895889 -0.024566
0.315018 0.088890 0.901506 0.287558 0.957730 0.007995
0.173526 0.087262 0.897258 -0.339795 0.939592 0.041320
0.219390 0.066884 0.824583 -0.080458 -0.153153 0.984922
0.297009 0.107434 0.405000 0.919038 -0.010839 -0.394021
0.247742 0.074466 0.834902 -0.088395 -0.965643 0.244375
0.281336 0.084014 0.802712 0.856850 0.498313 0.132258
0.351392 0.103336 0.658387 0.926091 0.287681 0.244119
0.297735 0.095222 0.473885 0.991148 -0.132755 0.001114
0.246667 0.177661 0.876377 -0.362525 0.927496 0.091249
0.219742 0.087728 0.245255 -0.998297 -0.030046 -0.050013
0.282955 0.122116 0.423512 0.864565 0.394173 -0.311697
0.219824 0.082610 0.306592 -0.998227 -0.059469 -0.002541
0.246667 0.206934 0.889939 0.976662 0.214357 0.013530
0.204195 0.096474 0.932325 0.131823 -0.989596 -0.057645
0.408072 0.092465 0.647851 -0.174232 -0.983697 0.044523
0.363175 0.101061 0.652329 0.386191 0.920511 0.059300
0.246667 0.176229 0.886803 -0.958429 -0.284413 -0.022888
0.231375 0.046213 0.605464 -0.201079 -0.979492 0.012750
0.232661 0.121585 0.225099 -0.711835 0.669232 -0.213119
0.144294 0.077469 0.926654 -0.308661 0.951009 0.017640
0.109224 0.096880 0.652120 0.327411 -0.944319 0.032606
0.195274 0.116753 0.504528 -0.965756 -0.257890 0.028419
0.266365 0.137321 0.440108 0.518024 0.855346 -0.005960
0.296128 0.100241 0.518110 0.997927 -0.063308 0.011522
0.259604 0.046034 0.601594 0.202003 -0.979143 0.021759
0.238560 0.045320 0.501529 -0.136460 -0.990048 -0.034414
0.246667 0.121625 0.821125 0.810820 0.582790 0.054102
0.386085 0.096808 0.691247 -0.182104 -0.983279 -0.000388
0.251097 0.049642 0.432483 0.103727 -0.993479 -0.047340
0.424771 0.089484 0.642649 -0.158709 -0.961086 0.226109
0.417845 0.090448 0.660892 0.202054 0.957768 0.204586
0.312196 0.113095 0.548230 0.908349 0.415711 0.045681
0.259219 0.102228 0.155657 0.665652 0.692331 -0.278542
0.196686 0.114093 0.648227 -0.924586 0.371415 0.084806
0.245947 0.047515 0.458910 -0.028093 -0.998825 -0.039501
0.246667 0.200255 0.930656 0.989820 0.139402 0.028687
0.272839 0.101161 0.949443 -0.322028 -0.946720 -0.004280
0.246719 0.085511 0.879818 -0.063637 -0.959990 0.272706
0.249856 0.099351 0.144514 0.166210 0.926868 -0.336586
0.355677 0.104032 0.575089 0.782330 0.622809 0.008297
0.246667 0.137381 0.864931 0.632602 0.767485 0.103830
0.278333 0.092604 0.401128 0.899566 -0.184433 -0.395937
0.203530 0.068043 0.667952 -0.970764 -0.237436 0.035235
0.273143 0.086705 0.823899 0.373952 0.755298 0.538223
0.238138 0.102857 0.919767 -0.937257 -0.185637 0.295107
0.218393 0.123996 0.443518 -0.746114 0.610014 -0.266827
0.277610 0.126984 0.619199 0.430166 0.902115 0.033832
0.194790 0.116688 0.502350 -0.979047 -0.201434 0.029853
0.455003 0.083572 0.707103 0.170700 0.985255 -0.011552
0.205532 0.063677 0.648814 -0.911461 -0.410272 0.030271
0.256275 0.144900 0.366941 0.332060 0.943227 -0.007644
0.226832 0.056610 0.327224 -0.648415 -0.759753 -0.048307
0.061731 0.087991 0.699552 0.178432 -0.983664 0.023794
0.268216 0.104202 0.210533 0.938669 0.321218 -0.125376
0.246221 0.142035 0.251745 0.005872 0.966432 -0.256855
0.246667 0.131800 0.855709 0.750756 0.655875 0.078702
0.181378 0.089120 0.946437 0.262936 -0.964448 -0.026560
0.228625 0.140304 0.425426 -0.618705 0.785620 0.002234
0.199130 0.103063 0.620249 -0.979607 0.193784 0.053088
0.224989 0.132624 0.368964 -0.841497 0.538937 -0.037806
0.240902 0.073864 0.814180 -0.051079 -0.930668 0.362281
0.219876 0.083213 0.339359 -0.996103 -0.087876 -0.007539
0.364605 0.101310 0.624464 0.381808 0.923433 0.038662
0.253860 0.045149 0.588161 0.108483 -0.993978 0.015468
0.271846 0.108853 0.281734 0.967805 0.246251 -0.052100
0.332124 0.107818 0.626297 0.720154 0.686854 0.098029
0.292523 0.123443 0.472539 0.854911 0.518773 0.000813
0.315488 0.113135 0.502737 0.654247 -0.756146 0.014279
0.246667 0.173790 0.819602 0.656827 0.752495 0.048270
0.217353 0.047806 0.617877 -0.383376 -0.923573 0.006028
0.460417 0.077521 0.623476 -0.856552 -0.514831 -0.035602
0.244782 0.057282 0.726448 0.116149 -0.977657 0.175202
0.215000 0.096601 0.397523 -0.916640 -0.075509 -0.392516
0.246667 0.189665 0.906967 -0.790099 -0.611200 -0.046665
0.032917 0.085065 0.684629 0.593888 0.804222 -0.022902
0.213308 0.063783 0.824583 -0.286560 -0.201099 0.936719
0.228352 0.133529 0.323593 -0.774889 0.631104 -0.035418
0.035855 0.083074 0.665561 -0.185630 0.948252 0.257604
0.390884 0.095627 0.673238 0.205684 0.978431 0.019135
0.285119 0.130406 0.500798 0.544172 0.838537 -0.027070
0.278271 0.046811 0.552927 0.489566 -0.871650 -0.023481
0.215000 0.113693 0.386249 0.963603 0.259096 0.065869
0.256174 0.057300 0.267088 0.226360 -0.972902 -0.047140
0.286296 0.100450 0.712107 0.990998 0.035328 0.129128
0.224661 0.133168 0.444464 -0.734425 0.678434 -0.018626
0.200380 0.072588 0.578977 -0.970720 -0.239985 -0.010477
0.282110 0.051111 0.652896 0.709313 -0.704760 0.013722
0.391978 0.095481 0.651163 -0.174444 -0.984564 0.014217
0.253615 0.103324 0.160189 0.400327 0.858066 -0.321654
0.236527 0.138490 0.253685 -0.674955 0.721218 -0.155819
0.150159 0.104998 0.681668 -0.269629 0.962934 -0.007606
0.222074 0.068231 0.264371 -0.888310 -0.458590 -0.024512
0.222264 0.125493 0.716957 -0.623884 0.771959 0.121853
0.293770 0.121486 0.490788 0.806229 0.591527 0.009468
0.389416 0.096466 0.612187 0.731530 -0.679747 -0.052995
0.202638 0.076280 0.475293 -0.871757 -0.450212 -0.193256
0.246667 0.160426 0.903176 -0.982646 -0.185006 0.013389
0.214974 0.049608 0.784828 -0.509624 -0.857059 0.075725
0.297600 0.077937 0.459393 0.926976 -0.366358 -0.080610
0.195709 0.118546 0.460843 -0.925076 0.379440 0.016087
0.249651 0.080028 0.855412 -0.174144 -0.934644 0.310023
0.401759 0.094073 0.634487 -0.065937 -0.878357 0.473436
0.074524 0.091246 0.619375 0.148732 -0.403305 0.902897
0.282138 0.046722 0.530026 0.531691 -0.846081 -0.038089
0.252944 0.066861 0.824000 -0.721485 -0.209392 0.660010
0.175389 0.111774 0.556188 -0.917611 -0.397214 0.014505
0.210126 0.053437 0.660974 -0.691313 -0.722349 0.017280
0.137021 0.102954 0.618675 -0.201711 -0.978727 -0.037488
0.231593 0.104836 0.940952 -0.330623 0.943762 0.001476
0.242189 0.141677 0.464532 -0.215840 0.975846 0.033740
0.165838 0.109931 0.549005 -0.459674 0.887666 0.027351
0.343863 0.079028 0.955710 0.289715 0.956953 0.017521
0.242688 0.145264 0.336506 -0.280199 0.959644 -0.023905
0.203700 0.118971 0.680518 -0.872576 0.475013 0.113901
0.260745 0.126467 0.234092 0.823213 0.540777 -0.172859
0.435639 0.087413 0.643414 -0.161512 -0.950186 0.266573
0.230252 0.124688 0.244690 -0.779221 0.608750 -0.149124
0.216930 0.085266 0.782333 -0.961407 0.215738 0.170744
0.227038 0.088721 0.820542 -0.952136 -0.034111 0.303765
0.126757 0.100408 0.656775 -0.035067 -0.998677 -0.037614
0.234869 0.142805 0.423563 -0.442847 0.896501 0.013151
0.286756 0.060827 0.709433 0.939252 -0.341934 0.029792
0.231911 0.126422 0.763556 -0.423734 0.902174 0.080818
0.284843 0.130173 0.512944 0.536280 0.843785 -0.020748
0.319383 0.112188 0.510825 0.436874 -0.899498 0.006616
0.073815 0.090412 0.680448 -0.186666 0.978219 0.090791
0.460417 0.084876 0.602638 -0.487412 0.870263 -0.071216
0.275080 0.123810 0.398327 0.785171 0.562017 -0.260083
0.246667 0.209270 0.892715 0.976488 0.215114 0.014084
0.296869 0.102639 0.489972 0.999744 0.017514 0.014315
0.292358 0.071208 0.588040 0.975204 -0.221050 0.010712
0.246667 0.124891 0.822159 0.816290 0.575228 0.052754
0.241989 0.137942 0.541196 -0.128881 0.990419 0.049589
0.246667 0.120726 0.940558 -0.815877 0.539529 0.207974
0.264553 0.046554 0.497257 0.315563 -0.948052 -0.040216
0.246667 0.171569 0.905466 -0.968936 -0.247291 0.003298
0.275821 0.126294 0.641663 0.409620 0.911044 0.047008
0.209381 0.054655 0.816741 -0.647922 -0.689602 0.323492
0.184422 0.113017 0.570656 -0.801417 0.596165 0.048140
0.254356 0.145092 0.347607 0.266985 0.963401 -0.024018
0.179671 0.111678 0.601332 -0.706737 0.704933 0.059939
0.123213 0.100142 0.616822 -0.449944 -0.877232 -0.167376
0.191243 0.115843 0.508626 -0.994865 -0.095807 0.032632
0.246667 0.203758 0.901130 0.988474 0.151089 0.009510
0.042970 0.084466 0.691909 0.132139 -0.922436 0.362836
0.260983 0.127913 0.750540 0.444981 0.892438 0.074476
0.180871 0.112115 0.612478 -0.998104 0.060227 0.012681
0.321851 0.109882 0.637186 0.373355 -0.924675 0.074717
0.278333 0.104024 0.384867 0.460611 0.856898 -0.231436
0.256337 0.060500 0.165116 0.337567 -0.936821 -0.091730
0.209777 0.053477 0.758987 -0.772244 -0.635164 0.014329
0.145527 0.104452 0.627780 -0.239150 -0.970133 -0.040613
0.356784 0.102242 0.657201 0.306356 -0.939519 0.153137
0.203192 0.067613 0.612930 -0.960629 -0.277160 0.019324
0.246667 0.199603 0.914559 0.999823 -0.018768 -0.001418
0.247633 0.127948 0.749954 -0.143460 0.987617 0.063491
0.205143 0.073578 0.817267 -0.950759 0.088157 0.297130
0.133188 0.103408 0.565120 -0.219493 -0.967255 0.127442
0.204216 0.066435 0.708588 -0.957061 -0.287354 0.038241
0.198933 0.110168 0.405000 -0.901466 -0.090468 -0.423291
0.438590 0.087101 0.634965 -0.084352 -0.678029 0.730179
0.160902 0.107328 0.661599 -0.525814 0.850388 -0.018970
0.451329 0.084227 0.651452 -0.179621 -0.957450 0.225887
0.241069 0.130146 0.666325 -0.130606 0.990095 0.051525
0.228248 0.060689 0.209263 -0.583610 -0.810352 -0.052247
0.413044 0.091387 0.681212 0.190557 0.981675 -0.001305
0.356406 0.102544 0.618501 -0.052635 -0.991152 0.121848
0.196185 0.110734 0.507012 -0.957083 -0.289439 0.014743
0.282013 0.124121 0.704412 0.667643 0.728133 0.155161
0.265673 0.111972 0.779007 0.839686 0.526640 0.132579
0.246667 0.159235 0.881243 -0.982408 -0.186686 -0.004728
0.072677 0.090747 0.627093 0.275198 -0.651040 0.707399
0.274041 0.096154 0.288805 0.998202 0.057397 -0.017283
0.271620 0.099881 0.237176 0.982647 0.169650 -0.074992
0.273727 0.087491 0.816873 0.785147 0.549511 0.285625
0.259734 0.047201 0.697182 0.164730 -0.986275 0.011220
0.246667 0.167883 0.859762 -0.998974 -0.044460 -0.008589
0.029757 0.085167 0.700939 -0.051842 0.998221 -0.029462
0.215000 0.110912 0.375498 0.937422 0.078281 0.339283
0.206218 0.061919 0.709784 -0.913027 -0.406702 0.031235
0.230160 0.132877 0.287829 -0.806422 0.588212 -0.060750
0.210862 0.098793 0.918956 0.211265 -0.977047 -0.027312
0.245161 0.109198 0.961793 -0.315286 -0.849378 0.423263
0.246667 0.177080 0.915990 -0.980299 -0.190086 0.053677
0.239403 0.106486 0.920973 -0.940671 -0.093058 0.326311
0.252909 0.057669 0.255084 0.143222 -0.988690 -0.044492
0.250384 0.075551 0.834887 -0.153341 -0.940151 0.304306
0.447372 0.085043 0.669651 -0.185912 -0.957746 0.219451
0.246667 0.176240 0.887071 -0.953679 -0.299957 -0.022834
0.249034 0.127788 0.751724 -0.028097 0.997415 0.066141
0.222931 0.050684 0.445308 -0.514148 -0.855718 -0.058300
0.207915 0.056374 0.595074 -0.755741 -0.654867 0.001979
0.243284 0.046025 0.661629 0.024221 -0.998703 0.044782
0.222639 0.049446 0.464885 -0.443790 -0.894688 -0.050830
0.217769 0.046562 0.556574 -0.431656 -0.901763 -0.022290
0.218516 0.124159 0.440897 -0.754163 0.602568 -0.261054
0.246667 0.172380 0.855857 0.907736 0.418088 0.034894
0.333588 0.106884 0.678348 -0.065336 -0.997395 0.030578
0.254753 0.058003 0.248015 0.193969 -0.979938 -0.045801
0.284649 0.056675 0.636566 0.785505 -0.618480 0.021546
0.239426 0.055535 0.323285 -0.270634 -0.960962 -0.057531
0.032672 0.077250 0.693686 0.821671 -0.569254 -0.028396
0.131484 0.102788 0.580342 -0.050180 -0.998322 0.028892
0.135001 0.102114 0.684179 -0.223435 0.974702 -0.005651
0.212949 0.070640 0.432925 -0.943922 -0.324261 -0.062181
0.284625 0.128888 0.548347 0.516799 0.856106 -0.000826
0.230544 0.089391 0.832627 -0.887581 -0.279185 0.366409
0.273725 0.088406 0.275763 0.999151 -0.036049 -0.019918
0.337651 0.106646 0.625503 0.561136 0.824404 0.074056
0.163514 0.108372 0.624894 -0.393538 0.919252 0.010227
0.229255 0.078268 0.139139 -0.979767 0.049667 -0.193882
0.262549 0.111598 0.821822 0.869540 0.483307 0.101557
0.032598 0.077250 0.636428 0.567313 -0.821506 -0.057307
0.145893 0.104281 0.648207 -0.429531 -0.900512 -0.067693
0.289827 0.067896 0.759295 0.978305 -0.170832 0.117199
0.195425 0.078913 0.445662 -0.847521 -0.464165 -0.257409
0.261155 0.115650 0.818912 0.808762 0.579323 0.101436
0.228698 0.045183 0.543590 -0.273818 -0.961470 -0.024467
0.178554 0.111559 0.618942 -0.969774 0.243861 0.008311
0.212774 0.049493 0.723751 -0.631718 -0.775187 0.004177
0.278779 0.056955 0.465277 0.752189 -0.656065 -0.061563
0.302077 0.083941 0.405100 0.844119 -0.405707 -0.350521
0.460417 0.080276 0.651864 -0.987172 -0.156453 -0.031827
0.215000 0.091830 0.388134 -0.796252 -0.510317 -0.324898
0.217914 0.046846 0.571843 -0.415981 -0.909248 -0.015100
0.263593 0.049111 0.779805 -0.188151 -0.979332 0.074219
0.202383 0.065811 0.541025 -0.890097 -0.454104 -0.038949
0.200287 0.117723 0.597200 -0.907909 0.416404 0.048052
0.206149 0.096948 0.930095 -0.320596 0.947171 0.009243
0.262542 0.126981 0.250400 0.857167 0.495262 -0.141349
0.102207 0.095566 0.668774 0.210955 -0.977477 -0.006048
0.222431 0.110402 0.262976 -0.960830 0.271557 -0.055342
0.255996 0.046856 0.709917 -0.075254 -0.996116 0.045718
0.270399 0.119029 0.286499 0.932794 0.355029 -0.062047
0.280137 0.059311 0.467186 0.795720 -0.602797 -0.058867
0.289128 0.066368 0.675020 0.972617 -0.229873 0.034282
0.208145 0.097554 0.716656 -0.968244 0.212946 0.130986
0.246667 0.186952 0.889269 -0.924518 -0.379784 -0.032102
0.215173 0.047024 0.566531 -0.460631 -0.887399 -0.018506
0.232293 0.069272 0.117721 -0.941462 -0.229257 -0.247163
0.246667 0.126645 0.781683 0.351578 0.933644 0.068571
0.257663 0.091666 0.857258 0.746857 -0.591237 0.304374
0.246667 0.185704 0.911188 -0.652973 -0.756659 -0.033063
0.269607 0.050218 0.450176 0.456574 -0.888227 -0.050922
0.255792 0.048231 0.458645 0.238764 -0.970081 -0.043977
0.202709 0.102502 0.683158 -0.968031 0.229371 0.101514
0.227554 0.074305 0.158500 -0.984693 -0.094824 -0.146245
0.217955 0.101183 0.908882 0.217285 -0.975904 -0.019973
0.248763 0.102345 0.937409 0.002159 -0.921841 0.387563
0.252943 0.098066 0.902480 0.395355 -0.834955 0.382812
0.232362 0.105344 0.924091 -0.331662 0.943384 0.005203
0.196906 0.110580 0.546239 -0.708653 -0.705555 0.001664
0.201970 0.068940 0.513789 -0.904520 -0.422707 -0.056229
0.229484 0.141850 0.428282 -0.570577 0.821205 0.008077
0.260673 0.076792 0.113975 0.940907 0.125518 -0.314546
0.297327 0.118204 0.472673 0.952015 0.304844 0.027171
0.308107 0.113972 0.546572 0.825641 0.562781 0.039928
0.182514 0.090189 0.892651 -0.395657 0.915366 0.074569
0.311233 0.113369 0.543389 0.968162 0.246527 0.043443
0.206913 0.055966 0.541772 -0.750524 -0.660031 -0.032752
0.259125 0.107164 0.872106 0.878237 0.451176 0.158554
0.237452 0.131474 0.640805 -0.164106 0.985093 0.051578
0.043580 0.084512 0.668543 -0.168751 0.848385 0.501764
0.323819 0.085916 0.918971 0.291269 0.956562 0.012331
0.246667 0.162541 0.827109 0.777103 0.627641 0.046667
0.244282 0.072733 0.827852 0.133186 -0.951298 0.278018
0.147032 0.104339 0.676342 -0.255472 0.966780 -0.008397
0.252646 0.124295 0.790436 0.676918 0.733292 0.063753
0.094892 0.094475 0.692118 -0.186685 0.981939 0.030736
0.291299 0.110898 0.688373 0.992316 -0.035817 0.118436
0.265648 0.111450 0.781826 0.845686 0.517202 0.131595
0.288098 0.062490 0.601137 0.873251 -0.487195 0.008576
0.361198 0.102586 0.584177 0.236944 -0.970992 0.032125
0.296023 0.099634 0.521260 0.997126 -0.074981 0.010804
0.207913 0.097210 0.949111 -0.321587 0.946866 0.005098
0.366650 0.100203 0.627039 -0.327137 -0.943061 0.060141
0.306296 0.091334 0.921655 0.282254 0.959226 0.014791
0.211449 0.050482 0.664907 -0.615577 -0.787965 0.013235
0.295021 0.089938 0.539052 0.981985 -0.188956 -0.000626
0.314064 0.111511 0.607574 0.595902 -0.800721 0.061211
0.202130 0.071208 0.661485 -0.987419 -0.153299 0.038775
0.246667 0.143836 0.886338 -0.377153 0.899801 0.219350
0.228258 0.090032 0.830436 -0.940594 -0.099919 0.324498
0.226674 0.126449 0.610805 -0.409514 0.912136 0.017490
0.246667 0.138659 0.769330 -0.641643 0.765761 0.043642
0.263738 0.137079 0.542624 0.259193 0.964878 0.042762
0.246667 0.176818 0.884625 -0.962998 -0.268595 -0.022165
0.316208 0.111535 0.579767 0.498736 -0.865718 0.042361
0.278333 0.116759 0.400172 0.699543 0.602698 -0.383919
0.251795 0.127589 0.753920 0.175936 0.982007 0.068623
0.032917 0.083102 0.613366 0.984392 0.169977 -0.045604
0.116990 0.099873 0.588424 0.238448 -0.970858 0.024015
0.295052 0.098761 0.564855 0.987181 -0.159161 0.011922
0.246667 0.152628 0.814749 -0.943940 0.329794 0.014610
0.246667 0.203287 0.891766 0.982499 0.185949 0.010915
0.246667 0.139948 0.915655 0.825846 0.552758 0.111525
0.246667 0.131966 0.901858 0.196546 0.949226 0.245643
0.289786 0.100214 0.686496 0.993883 -0.029524 0.106418
0.246667 0.131203 0.862792 0.758930 0.645716 0.084117
0.284274 0.055042 0.736222 0.889690 -0.456263 0.016601
0.249250 0.141879 0.252949 0.228545 0.934929 -0.271431
0.205710 0.121361 0.676032 -0.834890 0.538120 0.115696
0.208389 0.130133 0.511129 -0.430700 0.902352 -0.016052
0.232270 0.138456 0.522645 -0.410123 0.911215 0.038545
0.246667 0.151142 0.940711 -0.619047 0.732866 0.282292
0.432217 0.088353 0.634016 -0.012864 -0.514628 0.857317
0.287221 0.061868 0.744215 0.948593 -0.309260 0.067307
0.073548 0.090087 0.673145 0.192455 -0.980764 0.032602
0.267155 0.046854 0.496789 0.355660 -0.933699 -0.041371
0.321680 0.110345 0.601732 0.645007 0.761624 0.062413
0.100078 0.095135 0.671175 0.201166 -0.979447 -0.014677
0.307282 0.114503 0.524156 0.990013 0.136352 0.035814
0.317368 0.112269 0.531706 0.519407 -0.854436 0.012480
0.249880 0.145540 0.349704 0.099066 0.994961 -0.015412
0.223964 0.105920 0.221436 -0.874983 0.462325 -0.143739
0.334693 0.106853 0.660928 0.200385 -0.976226 0.082637
0.246667 0.172606 0.879499 -0.978379 -0.206411 -0.013032
0.229629 0.108917 0.191865 -0.635086 0.736866 -0.231721
0.199258 0.107980 0.649443 -0.962686 0.259426 0.077036
0.298301 0.093494 0.939463 0.215366 0.975720 0.039845
0.250338 0.133176 0.607958 0.023950 0.998603 0.047105
0.276613 0.101659 0.857682 0.285810 0.958285 0.001639
0.048018 0.085337 0.696711 0.178593 -0.983198 0.037755
0.299685 0.101288 0.405000 0.914134 -0.121807 -0.386682
0.295992 0.109236 0.405000 0.918182 0.021802 -0.395559
0.268035 0.088580 0.815566 0.959228 0.137771 0.246782
0.196018 0.093596 0.938056 -0.316168 0.948654 0.009689
0.246667 0.118014 0.925430 -0.701419 0.674008 0.231785
0.246667 0.184523 0.849321 0.494945 0.867617 0.047647
0.278333 0.085496 0.401870 0.857660 -0.348225 -0.378364
0.204186 0.101198 0.405000 -0.897784 -0.058115 -0.436586
0.238580 0.049798 0.737824 0.277649 -0.956270 0.091975
0.293106 0.090046 0.627107 0.993711 -0.103021 0.043881
0.202412 0.069347 0.613572 -0.971296 -0.237160 0.018436
0.246667 0.156502 0.801217 0.472247 0.879521 0.058530
0.218686 0.048344 0.661402 -0.478327 -0.877954 0.019993
0.246667 0.130194 0.879887 0.774064 0.625374 0.098652
0.262386 0.105381 0.900250 -0.094135 0.995100 0.030246
0.246667 0.167885 0.934546 0.806439 0.572052 0.149708
0.289446 0.070742 0.816953 0.914836 -0.048408 0.400915
0.297105 0.104426 0.484265 0.998886 0.044259 0.016399
0.132802 0.102430 0.592140 -0.451339 0.892103 -0.021103
0.148411 0.078546 0.942191 -0.311518 0.950141 0.013753
0.219633 0.088558 0.332961 -0.999054 -0.043338 -0.003694
0.187238 0.113584 0.597499 -0.948906 -0.314658 0.023835
0.250608 0.076668 0.053459 0.231777 0.141229 -0.962462
0.216931 0.121886 0.719986 -0.720805 0.677843 0.144806
0.258793 0.105870 0.934539 -0.332409 -0.943133 -0.002049
0.272342 0.107263 0.299811 0.983515 0.178620 -0.028174
0.285368 0.107936 0.719131 0.978285 0.144610 0.148478
0.220077 0.077587 0.360482 -0.985682 -0.164448 -0.037241
0.191802 0.104723 0.415666 -0.935078 -0.240653 -0.260223
0.207960 0.127403 0.562673 -0.546836 0.837020 0.019180
0.269058 0.132252 0.376508 0.871385 0.488140 -0.049074
0.256902 0.124281 0.216888 0.704711 0.667128 -0.241500
0.237352 0.055770 0.318894 -0.337055 -0.939957 -0.053616
0.150915 0.079806 0.915266 -0.314695 0.948902 0.023514
0.273060 0.072092 0.323252 0.997724 -0.067079 -0.006940
0.278623 0.100705 0.874543 0.267447 0.963570 -0.002141
0.220343 0.101141 0.951665 -0.333136 0.942877 -0.001495
0.243104 0.076781 0.051302 -0.309329 0.090894 -0.946601
0.264672 0.078495 0.143700 0.985676 -0.007092 -0.168499
0.274182 0.102603 0.364956 0.996379 0.057132 -0.062968
0.246667 0.153172 0.914913 -0.997509 -0.041078 0.057351
0.293333 0.076232 0.573166 0.978163 -0.207759 0.005760
0.391027 0.095740 0.625741 0.353253 0.855069 0.379564
0.196094 0.119030 0.460715 -0.910579 0.413207 0.010277
0.246667 0.167340 0.922980 -0.984903 0.111644 0.132292
0.187297 0.091085 0.925160 -0.317911 0.948035 0.012752
0.246667 0.127426 0.916791 0.627477 0.758333 0.176645
0.252024 0.134977 0.579502 0.047676 0.997763 0.046854
0.239883 0.058779 0.224846 -0.191706 -0.980712 -0.038120
0.300304 0.093710 0.893673 0.290364 0.956865 0.009913
0.219028 0.114542 0.385083 -0.955595 0.237647 -0.174248
0.241902 0.074801 0.056486 -0.399998 0.032705 -0.915932
0.246667 0.122482 0.875897 0.824411 0.560124 0.081287
0.230550 0.112520 0.815081 -0.794752 0.598208 0.102549
0.260335 0.143670 0.336073 0.642211 0.765114 -0.046537
0.273195 0.086455 0.233118 0.998154 -0.041211 -0.044612
0.464429 0.085167 0.707604 -0.260320 0.965140 -0.027180
0.219432 0.093612 0.333237 -0.999535 -0.029264 -0.008562
0.285354 0.098260 0.891302 -0.950723 0.190033 -0.244977
0.270548 0.129574 0.515215 0.496798 0.867852 -0.004894
0.268924 0.132715 0.386869 0.838211 0.543650 -0.042982
0.255641 0.055462 0.321638 0.212191 -0.976246 -0.043809
0.214822 0.047403 0.584004 -0.450513 -0.892708 -0.010543
0.246667 0.164276 0.840864 0.866525 0.497514 0.040169
0.246667 0.126943 0.938969 -0.732153 0.639275 0.235116
0.349526 0.104384 0.590410 -0.132600 -0.990602 0.033524
0.260317 0.108177 0.180271 0.728449 0.645060 -0.230782
0.362053 0.073112 0.954778 -0.517767 -0.855355 0.016873
0.241221 0.099540 0.912222 -0.402667 -0.816566 0.413617
0.264319 0.072340 0.141694 0.978583 -0.124149 -0.164203
0.246667 0.180842 0.901425 -0.930185 -0.366034 -0.027832
0.258951 0.078815 0.105712 0.869542 0.225253 -0.439498
0.246667 0.116288 0.941236 -0.928483 0.337633 0.154672
0.205504 0.063563 0.687876 -0.932385 -0.360136 0.030988
0.365607 0.100559 0.650256 0.330443 0.941787 0.062007
0.263136 0.047601 0.704340 0.149656 -0.988658 0.012619
0.207105 0.059983 0.816351 -0.803245 -0.530703 0.270466
0.294578 0.079432 0.442156 0.912477 -0.378514 -0.155280
0.025000 0.078715 0.657610 -0.871214 -0.489908 -0.031254
0.098538 0.094994 0.683278 0.221418 -0.975039 -0.016523
0.363401 0.100821 0.639111 -0.124887 -0.926561 0.354806
0.190136 0.115954 0.487655 -0.964524 0.261317 0.037501
0.246667 0.187343 0.914991 -0.806487 -0.591242 0.003449
0.202114 0.118470 0.640885 -0.896585 0.434548 0.085459
0.263948 0.141671 0.435140 0.424320 0.905380 0.015485
0.246667 0.135263 0.863119 0.693608 0.714228 0.093730
0.289278 0.079978 0.665823 0.995814 -0.060672 0.068368
0.215609 0.107582 0.400647 -0.908850 0.101782 -0.404515
0.256858 0.076099 0.090375 0.776475 0.117654 -0.619068
0.030421 0.077250 0.597362 0.010214 -0.996703 -0.080486
0.324419 0.109269 0.642560 0.316144 -0.945826 0.073935
0.273097 0.082925 0.233209 0.993757 -0.100846 -0.047718
0.302042 0.118291 0.405654 0.911852 0.156293 -0.379603
0.246667 0.194682 0.856634 0.856437 0.515347 0.030561
0.275914 0.079443 0.824583 0.322106 0.232851 0.917621
0.246667 0.165565 0.899014 -0.970481 -0.241160 -0.002937
0.246667 0.182303 0.908082 -0.926382 -0.376226 -0.016477
0.246667 0.143014 0.800382 0.543255 0.837341 0.061109
0.314552 0.111961 0.571672 0.565427 -0.823890 0.038705
0.262640 0.134328 0.290899 0.818655 0.569074 -0.077190
0.277416 0.049235 0.707908 0.203455 -0.979055 0.007597
0.202899 0.073270 0.683505 -0.997790 -0.044564 0.049280
0.201419 0.074232 0.629598 -0.992057 -0.121784 0.031492
0.299374 0.086820 0.405000 0.860753 -0.356874 -0.362967
0.419330 0.090172 0.678710 0.190022 0.981699 0.012635
0.287995 0.104345 0.704467 0.991929 0.011715 0.126252
0.255707 0.046902 0.478412 0.206933 -0.977540 -0.039928
0.266055 0.104738 0.873090 0.278115 0.960529 0.006086
0.259685 0.045398 0.572757 0.199919 -0.979810 0.002098
0.244073 0.068119 0.059678 -0.230038 -0.416646 -0.879482
0.254441 0.138860 0.237949 0.732868 0.649139 -0.203772
0.296701 0.094955 0.876531 0.265436 0.964045 -0.012710
0.308810 0.113788 0.549042 0.797944 0.601367 0.040545
0.231970 0.117086 0.809706 -0.635240 0.765237 0.104321
0.232410 0.050262 0.780050 0.228656 -0.969248 0.090963
0.242502 0.068318 0.814152 0.259009 -0.919668 0.295171
0.259030 0.047028 0.690520 0.199252 -0.979864 0.012856
0.246667 0.184895 0.835848 0.659718 0.750224 0.043995
0.392528 0.096176 0.613797 0.223241 0.958552 0.177034
0.269218 0.047667 0.640132 0.409140 -0.912036 0.028190
0.220795 0.109229 0.326376 -0.991225 0.131066 -0.017151
0.213594 0.049780 0.758233 -0.534111 -0.845414 -0.000044
0.229736 0.114483 0.795868 -0.795360 0.598957 0.093019
0.228715 0.140465 0.455471 -0.572571 0.819712 0.015298
0.383498 0.096838 0.638127 -0.128989 -0.991618 -0.007397
0.209451 0.050041 0.533973 -0.633579 -0.772909 -0.034500
0.087447 0.093176 0.638315 -0.122586 0.976559 0.176931
0.223374 0.130851 0.391777 -0.875630 0.481191 -0.041567
0.279151 0.082307 0.744653 0.979696 0.145910 0.137496
0.379277 0.097977 0.624339 0.185400 0.982393 0.023025
0.248216 0.064560 0.779027 -0.098690 -0.974209 0.202922
0.278481 0.047233 0.725494 -0.016480 -0.999791 0.012112
0.301136 0.107836 0.420337 0.956212 0.016051 -0.292233
0.267548 0.099734 0.808414 0.910579 0.382527 0.156585
0.274012 0.092732 0.357991 0.998128 -0.030902 -0.052784
0.246667 0.137666 0.790828 0.426645 0.902093 0.064825
0.241283 0.056954 0.275730 -0.196406 -0.979822 -0.037070
0.198438 0.081924 0.521508 -0.931009 -0.362863 -0.039413
0.334310 0.108412 0.546710 0.039377 -0.999193 0.007937
0.268498 0.093573 0.820318 0.925232 0.331680 0.184211
0.311456 0.089145 0.953599 0.237594 0.970551 0.039756
0.226359 0.048435 0.783524 0.029045 -0.991808 0.124389
0.246667 0.126296 0.821550 0.749249 0.659624 0.059350
0.447332 0.085050 0.704965 0.168171 0.985720 -0.008661
0.265712 0.047808 0.693185 0.221663 -0.975075 0.009661
0.250513 0.144712 0.399298 0.048697 0.998604 0.020486
0.317732 0.110097 0.657325 0.483875 -0.871953 0.074584
0.246667 0.158654 0.877016 -0.986869 -0.161456 -0.004654
0.200687 0.077889 0.608303 -0.992812 -0.118210 0.018728
0.249935 0.061340 0.123069 0.081691 -0.984513 -0.155115
0.246667 0.150844 0.916606 0.892346 0.444102 0.080578
0.260210 0.066516 0.119353 0.796743 -0.561737 -0.222828
0.233228 0.105792 0.866705 -0.920758 0.366326 0.134200
0.246667 0.132933 0.773262 -0.274853 0.959490 0.061922
0.204214 0.061559 0.535837 -0.830717 -0.555180 -0.041033
0.256030 0.046800 0.709149 -0.021125 -0.999127 0.036034
0.265583 0.046641 0.604468 0.314472 -0.949133 0.015942
0.209853 0.054168 0.637816 -0.621733 -0.782969 0.020199
0.242554 0.054015 0.359176 -0.167661 -0.984073 -0.059086
0.303653 0.113958 0.572561 0.922305 -0.385351 0.029275
0.273903 0.091956 0.302908 0.999807 0.017789 -0.008384
0.231270 0.095117 0.145786 -0.841741 0.482315 -0.242579
0.185834 0.112923 0.593826 -0.811327 0.581188 0.062995
0.256778 0.050767 0.423087 0.267194 -0.962243 -0.051925
0.246667 0.140095 0.804101 0.609363 0.790617 0.060008
0.224010 0.131996 0.480540 -0.614568 0.788615 -0.019799
0.246667 0.182874 0.876588 -0.990740 -0.134613 -0.017698
0.113495 0.097876 0.668752 0.197174 -0.980359 -0.004361
0.229001 0.114171 0.788480 -0.807401 0.581077 0.102238
0.311305 0.112694 0.562901 0.706332 -0.707377 0.026695
0.191988 0.114795 0.580824 -0.835853 -0.548477 0.022887
0.347842 0.077647 0.963584 0.288936 0.957161 0.018935
0.281420 0.099376 0.904962 0.264223 0.964367 0.013497
0.259146 0.080178 0.108281 0.864354 0.280395 -0.417458
0.246667 0.147043 0.762853 -0.346850 0.936403 0.053343
0.334421 0.082453 0.912145 -0.382033 -0.922130 -0.061056
0.034470 0.082827 0.687026 0.113843 -0.854613 0.506632
0.246667 0.166151 0.868346 -0.018097 0.994555 0.102630
0.246667 0.188654 0.857068 0.916197 0.399650 0.029385
0.221239 0.091134 0.224544 -0.995951 0.050545 -0.074347
0.406099 0.092633 0.660069 0.202006 0.975695 0.084927
0.280526 0.128508 0.574088 0.490615 0.871229 0.016040
0.253227 0.050154 0.733816 -0.286753 -0.951141 0.114473
0.260895 0.121079 0.795693 0.724819 0.680592 0.106916
0.158695 0.106911 0.657071 -0.702621 0.710672 -0.035627
0.231392 0.059579 0.206941 -0.463424 -0.884793 -0.048787
0.199614 0.117872 0.578874 -0.996863 0.069532 0.037801
0.221195 0.102533 0.263511 -0.986919 0.155483 -0.042615
0.217007 0.048081 0.629301 -0.382923 -0.923698 0.012335
0.175047 0.087291 0.921100 -0.316210 0.948561 0.015580
0.278655 0.044688 0.742040 -0.264799 -0.964152 0.017115
0.246667 0.167186 0.851692 0.899036 0.436310 0.036977
0.300402 0.099391 0.432390 0.973253 -0.107553 -0.203007
0.296144 0.114938 0.618977 0.941586 0.325914 0.084833
0.168698 0.109469 0.622093 -0.949635 -0.312324 -0.025440
0.146885 0.106148 0.552763 -0.597795 0.799611 0.057129
0.236512 0.096968 0.134487 -0.603503 0.737386 -0.303392
0.246667 0.209559 0.895318 0.977767 0.209235 0.013865
0.218938 0.126111 0.650636 -0.477024 0.877377 0.051561
0.194459 0.108668 0.456635 -0.985380 0.168666 0.024040
0.201014 0.116599 0.660905 -0.914088 0.394239 0.094971
0.254855 0.087025 0.091135 0.492599 0.586783 -0.642676
0.306951 0.112990 0.596095 0.833411 -0.549360 0.060252
0.249699 0.068160 0.805423 -0.187165 -0.948261 0.256456
0.329121 0.109318 0.564424 0.979621 -0.186773 0.073887
0.210110 0.053316 0.675325 -0.746156 -0.665601 0.015061
0.273441 0.084694 0.247871 0.997008 -0.071002 -0.030565
0.278442 0.046248 0.523256 0.480090 -0.876292 -0.040311
0.281158 0.126848 0.677666 0.558473 0.821347 0.116176
0.231078 0.105227 0.908826 -0.357642 0.933839 0.006154
0.202773 0.071230 0.742643 -0.988106 -0.144886 0.051521
0.343265 0.105860 0.598940 0.990142 -0.045078 0.132613
0.214884 0.048788 0.672683 -0.577769 -0.816078 0.014106
0.208049 0.079333 0.440936 -0.797451 -0.525897 -0.295813
0.246667 0.178235 0.939328 0.800882 0.573160 0.173424
0.266393 0.080514 0.163607 0.989983 -0.030618 -0.137824
0.246667 0.150974 0.916572 -0.997802 -0.013367 0.064898
0.145841 0.077705 0.950355 -0.325839 0.945376 0.009666
0.192734 0.080602 0.428745 -0.932252 -0.309156 -0.187957
0.288699 0.121823 0.610194 0.845008 0.532714 0.046667
0.224327 0.086442 0.191234 -0.991815 0.067148 -0.108603
0.293254 0.117671 0.590322 0.990506 0.133143 0.034215
0.203252 0.080132 0.660176 -0.997644 -0.026229 0.063388
0.218077 0.048925 0.694304 -0.016694 -0.999629 0.021541
0.237519 0.044103 0.534802 -0.138504 -0.990049 -0.024913
0.290664 0.124452 0.440735 0.686426 -0.722622 0.081462
0.380557 0.097410 0.642635 -0.146749 -0.989158 -0.005586
0.274679 0.130086 0.504554 0.518983 0.854687 -0.012942
0.443497 0.085789 0.687307 -0.203468 -0.770169 0.604517
0.212419 0.049686 0.761683 -0.663134 -0.748477 0.005961
0.246667 0.182059 0.849226 0.888890 0.456885 0.033635
0.224788 0.061347 0.375810 -0.799414 -0.596141 -0.074517
0.289643 0.067498 0.733338 0.977913 -0.187509 0.092334
0.253351 0.140854 0.484996 0.057870 0.997400 0.042952
0.234760 0.052011 0.787584 0.383539 -0.915083 0.124584
0.246667 0.139290 0.751349 -0.502850 0.863002 0.048684
0.150452 0.079128 0.966901 0.284730 -0.958363 -0.021638
0.103913 0.097274 0.598808 0.259209 -0.960378 0.102395
0.246667 0.134508 0.853644 0.710721 0.698804 0.080929
0.422028 0.089720 0.654028 -0.149190 -0.931022 0.333078
0.287099 0.061405 0.802075 0.920871 -0.364862 0.137373
0.246667 0.147103 0.801244 -0.856183 0.515944 0.027417
0.236641 0.141881 0.270619 -0.664642 0.738375 -0.114254
0.246667 0.170133 0.936063 0.803939 0.574299 0.154472
0.246667 0.139085 0.794008 0.469063 0.880860 0.063762
0.264787 0.110300 0.800148 0.876136 0.468600 0.113132
0.246667 0.161612 0.844623 0.886883 0.460344 0.039001
0.240114 0.141424 0.467925 -0.269628 0.962402 0.032903
0.243897 0.098166 0.140329 -0.134286 0.939474 -0.315207
0.368472 0.101758 0.572156 0.441607 0.896553 -0.034307
0.267916 0.134132 0.374854 0.834289 0.549526 -0.044532
0.246667 0.159177 0.848339 0.876643 0.479322 0.041812
0.267331 0.135176 0.505013 0.374946 0.926822 0.020414
0.209819 0.057214 0.496348 -0.735528 -0.675306 -0.054406
0.273519 0.107006 0.365011 0.991018 0.121211 -0.056501
0.344736 0.104927 0.642577 0.592807 0.799213 0.099195
0.197606 0.097408 0.535024 -0.808820 -0.587770 -0.018344
0.203856 0.122935 0.563618 -0.814582 0.578437 0.043214
0.246667 0.124633 0.879559 0.815685 0.571973 0.086626
0.244482 0.053735 0.362577 -0.103958 -0.992978 -0.056453
0.116379 0.098775 0.615155 0.179940 -0.983281 -0.027928
0.143065 0.077101 0.942731 0.281581 -0.959434 -0.014079
0.246667 0.176107 0.818027 0.623096 0.780643 0.048457
0.233973 0.051585 0.787059 0.343146 -0.932113 0.115828
0.295227 0.074448 0.496955 0.944840 -0.323611 -0.050526
0.278490 0.066566 0.433004 0.904490 -0.421270 -0.066551
0.104123 0.095680 0.632694 -0.105145 0.994319 0.016586
0.193683 0.115928 0.534677 -0.805343 -0.592543 0.017757
0.132605 0.102662 0.595327 -0.095511 -0.995424 -0.003010
0.246667 0.134045 0.936259 -0.496157 0.822084 0.279297
0.227739 0.131468 0.577584 -0.447596 0.893783 0.028467
0.246667 0.127247 0.874027 0.797772 0.596684 0.086763
0.228771 0.138828 0.512719 -0.507306 0.861122 0.033308
0.290766 0.070118 0.718635 0.986418 -0.134055 0.094919
