0.123560 0.054092 0.691630 -0.143067 0.933737 0.328127
0.300443 0.077740 0.419020 0.911541 0.391927 -0.124443
0.261357 0.118864 0.556210 -0.270168 0.962796 -0.005728
0.239735 0.202676 0.955950 -0.134403 0.774451 0.618192
0.063073 0.057282 0.628797 0.613657 0.789328 -0.019654
0.035177 0.052021 0.668230 -0.899132 0.437435 0.014534
0.222967 0.062493 0.666045 -0.534404 -0.839750 0.096090
0.260265 0.028362 0.607359 -0.128804 -0.991664 -0.003346
0.481891 0.034836 0.517832 -0.566849 -0.783180 -0.255562
0.501881 0.047367 0.730079 0.959140 0.277487 0.055234
0.455755 0.048701 0.614233 -0.482437 0.857812 -0.177236
0.239228 0.094876 0.480028 -0.733047 0.679103 -0.038225
0.237988 0.039722 0.604741 -0.576671 -0.816452 0.029256
0.347926 0.063518 0.643677 -0.016051 -0.999864 0.003725
0.285980 0.115835 0.510261 0.583339 0.812191 -0.007830
0.050025 0.029968 0.800929 -0.004353 -0.474387 0.880306
0.233552 0.078211 0.821545 -0.969371 0.231072 0.083222
0.239265 0.035139 0.595720 -0.526334 -0.850137 0.015445
0.306796 0.064052 0.420795 0.784557 0.047128 -0.618263
0.311562 0.200052 0.909997 0.894615 -0.356461 -0.269444
0.219947 0.043265 0.502840 -0.622349 -0.782086 -0.031991
0.238057 0.079398 0.412461 -0.912956 0.367172 -0.178037
0.262574 0.027979 0.676865 -0.098721 -0.995112 -0.002370
0.234239 0.087873 0.734193 -0.958816 0.283788 0.011688
0.422385 0.054024 0.681122 0.210080 0.963050 0.168527
0.501214 0.050694 0.720466 0.889369 0.454331 0.051054
0.243707 0.064969 0.901049 -0.821700 -0.497528 0.277986
0.295890 0.042973 0.266915 0.868445 -0.495448 -0.018304
0.333559 0.065725 0.657740 -0.014920 -0.999587 0.024564
0.198999 0.068846 0.593140 -0.328565 0.944345 -0.016037
0.391270 0.056917 0.593750 0.031389 -0.996640 -0.075648
0.237663 0.076090 0.366425 -0.988880 0.097250 -0.112507
0.229892 0.082936 0.607563 -0.700951 0.712227 0.037424
0.480644 0.059039 0.596174 -0.368176 0.927819 -0.059993
0.244079 0.096745 0.386553 -0.881782 0.468750 -0.052286
0.369048 0.059987 0.677758 -0.172474 -0.973893 0.147601
0.269253 0.136034 0.793520 0.026551 0.816409 -0.576863
0.230368 0.054170 0.737356 -0.948875 -0.315144 0.017913
0.502020 0.042577 0.736126 0.996496 -0.030275 0.077973
0.176186 0.062060 0.553173 -0.418942 -0.905363 -0.069324
0.309405 0.051213 0.602588 0.672880 -0.736882 0.065100
0.326143 0.044938 0.454228 0.711818 -0.677265 -0.186083
0.301435 0.060428 0.349741 0.968229 -0.242376 -0.061539
0.211696 0.060091 0.619958 -0.244366 -0.968633 0.045116
0.268064 0.027078 0.512879 -0.006634 -0.999970 -0.003983
0.066738 0.039545 0.634155 0.420378 -0.907127 -0.020044
0.304782 0.084298 0.733862 0.922987 0.384831 0.000390
0.227053 0.047860 0.576254 -0.625854 -0.778055 0.054191
0.300683 0.202417 0.957484 0.172949 0.737864 0.652415
0.292520 0.110630 0.613513 0.707419 0.706790 -0.002549
0.326944 0.081501 0.519512 0.925953 0.368279 -0.083552
0.261638 0.050185 0.069016 -0.506561 -0.253484 -0.824101
0.271819 0.150763 0.939741 0.913258 -0.351539 0.205862
0.245998 0.098686 0.295358 -0.949158 0.314011 -0.022255
0.284904 0.029571 0.499852 0.354583 -0.934244 -0.038198
0.286227 0.115682 0.806459 0.896309 0.443207 -0.014024
0.471271 0.049297 0.605395 -0.916187 -0.372638 -0.147449
0.292968 0.104139 0.496848 0.682039 0.731226 0.011479
0.050348 0.038175 0.798286 0.173044 -0.271164 0.946850
0.443313 0.048698 0.594154 -0.349926 -0.927685 -0.130203
0.246268 0.105079 0.423294 -0.756206 0.653573 -0.031544
0.242669 0.112094 0.798770 -0.829991 0.555493 0.050423
0.270275 0.210606 0.921303 0.205515 0.977307 -0.051339
0.239301 0.097995 0.691731 -0.787227 0.616452 0.016127
0.232214 0.082352 0.762214 -0.968699 0.245932 0.033763
0.478303 0.029711 0.692064 -0.464870 -0.884494 0.039569
0.068038 0.045848 0.685401 0.894054 -0.379554 0.237920
0.279688 0.028693 0.298982 0.321940 -0.946722 -0.008497
0.226624 0.050275 0.591647 -0.646325 -0.760859 0.057943
0.500563 0.054829 0.706104 0.761501 0.646752 0.042758
0.255898 0.117044 0.827454 -0.777691 0.628195 -0.023810
0.373204 0.059064 0.666746 -0.165032 -0.985078 0.048855
0.441912 0.046822 0.645574 -0.250741 -0.968041 -0.005114
0.301984 0.066878 0.281769 0.996880 -0.076724 -0.018540
0.251829 0.115813 0.563799 -0.570552 0.821219 -0.008379
0.042348 0.047259 0.776752 -0.671403 0.707604 0.220262
0.300058 0.086992 0.604536 0.728911 0.683579 0.037530
0.283402 0.029823 0.240850 0.507367 -0.860621 -0.043716
0.236312 0.072104 0.370794 -0.991398 0.057734 -0.117456
0.263379 0.027852 0.388676 -0.105381 -0.994371 -0.011047
0.494936 0.057375 0.576993 0.515668 0.851599 -0.094157
0.493070 0.028142 0.679493 0.349590 -0.936533 0.026322
0.283719 0.029375 0.430696 0.324443 -0.945225 -0.035879
0.230396 0.091014 0.551804 -0.658048 0.752674 0.021334
0.379477 0.059334 0.697740 0.389478 0.883688 0.259620
0.289183 0.112970 0.432760 0.665371 0.746374 -0.014404
0.255962 0.117128 0.638400 -0.450641 0.892677 -0.007116
0.232769 0.036154 0.455377 -0.572708 -0.817419 -0.061907
0.386509 0.056434 0.655143 -0.133615 -0.990903 0.016056
0.306369 0.092997 0.492091 0.671523 0.740285 -0.032160
0.274434 0.063849 0.930032 0.165852 -0.460903 0.871815
0.237481 0.075524 0.366349 -0.989461 0.091503 -0.112222
0.268327 0.207268 0.855885 -0.185287 0.861455 -0.472826
0.240431 0.084940 0.372415 -0.947738 0.293497 -0.125111
0.272758 0.120056 0.730784 -0.121494 0.992572 -0.006364
0.448110 0.045746 0.654074 -0.283495 -0.958945 0.007397
0.170379 0.064262 0.604316 -0.266932 0.963607 -0.014416
0.160881 0.062726 0.595182 -0.260237 0.965175 -0.026731
0.287557 0.113903 0.883868 0.862934 0.498087 0.085167
0.238187 0.068845 0.210248 -0.996475 -0.041309 -0.073017
0.274739 0.039596 0.850826 0.302494 -0.934575 0.187262
0.356927 0.066006 0.648550 0.234592 0.971401 0.036706
0.419449 0.052306 0.603108 -0.214388 -0.972541 -0.090566
0.477238 0.057199 0.707158 -0.535395 0.842898 0.053621
0.360190 0.065171 0.665893 0.252603 0.963869 0.084549
0.297230 0.048176 0.269202 0.913822 -0.405743 -0.017353
0.459112 0.049414 0.652698 0.043635 0.997725 0.051382
0.243541 0.033545 0.323370 -0.794857 -0.605304 -0.042539
0.410109 0.053276 0.700505 -0.524472 -0.616759 0.586973
0.259669 0.118307 0.239449 -0.404636 0.911303 -0.076136
0.488390 0.026423 0.605672 0.024609 -0.998968 -0.038175
0.299507 0.101374 0.767640 0.882757 0.469196 0.024417
0.134106 0.058058 0.598255 -0.180408 0.982263 -0.051116
0.035976 0.044833 0.794771 -0.501489 0.352969 0.789887
0.303445 0.047360 0.681515 0.820511 -0.571247 0.020935
0.265944 0.034920 0.136451 -0.168429 -0.979453 -0.110919
0.294431 0.201264 0.886436 0.972595 0.045667 -0.227975
0.232237 0.044626 0.567033 -0.618053 -0.784673 0.047947
0.219374 0.069482 0.692600 -0.490091 0.842761 0.222633
0.285219 0.116067 0.586654 0.549794 0.835265 -0.007665
0.305449 0.077182 0.652237 0.725499 0.686311 0.051266
0.326291 0.083058 0.527662 0.852976 0.520108 -0.043803
0.241247 0.107536 0.800096 -0.850308 0.523362 0.055401
0.291503 0.102031 0.347171 0.840243 0.539346 -0.055662
0.308034 0.055206 0.788000 0.949399 -0.298092 0.098912
0.280561 0.117540 0.742357 0.465167 0.884900 -0.023922
0.216262 0.200640 0.951750 -0.297484 0.284256 0.911429
0.291397 0.200816 0.962255 0.197542 0.397727 0.895986
0.244696 0.093821 0.277948 -0.959753 0.280216 -0.018781
0.270520 0.142200 0.951225 0.323205 -0.573028 0.753111
0.250576 0.114631 0.878421 -0.847044 0.524616 0.085409
0.258521 0.117953 0.595271 -0.367783 0.929889 -0.006541
0.213205 0.086996 0.437152 -0.640856 0.746439 -0.179255
0.392914 0.060185 0.609658 0.183763 0.982859 -0.014846
0.250426 0.052582 0.118760 -0.939217 -0.174071 -0.295923
0.227476 0.065170 0.716585 -0.990563 0.047560 0.128545
0.258621 0.032238 0.187086 -0.372491 -0.923989 -0.086571
0.112723 0.055012 0.613538 -0.153615 0.987833 -0.024279
0.273756 0.124625 0.888322 0.969001 0.246569 -0.015507
0.274060 0.119640 0.488792 0.201702 0.979439 -0.004021
0.195660 0.064857 0.588728 -0.313266 -0.949381 -0.023248
0.273202 0.157609 0.822960 0.816944 0.509348 -0.270494
0.264960 0.034269 0.824642 -0.303029 -0.940237 0.155329
0.234520 0.036889 0.768873 -0.788592 -0.608277 0.090115
0.259005 0.118114 0.491496 -0.336057 0.941820 -0.006414
0.499046 0.056942 0.594858 0.695655 0.716010 -0.058251
0.355626 0.062715 0.586289 0.314209 -0.948221 -0.046371
0.348845 0.063783 0.589436 0.332667 -0.942309 -0.037246
0.255987 0.029072 0.444966 -0.235897 -0.971629 -0.017001
0.283547 0.029347 0.453354 0.322311 -0.945969 -0.035468
0.263480 0.117961 0.213477 -0.253402 0.942298 -0.218776
0.302602 0.091865 0.769798 0.941749 0.334861 0.031251
0.334374 0.203031 0.918926 0.828342 0.205467 -0.521184
0.228791 0.202004 0.894323 -0.946193 0.093442 -0.309820
0.092545 0.046229 0.646402 0.279813 -0.960054 0.000549
0.231357 0.093082 0.523384 -0.641880 0.766699 -0.012763
0.266254 0.041637 0.864064 -0.257548 -0.945312 0.200137
0.231439 0.073875 0.692668 -0.893940 0.446370 0.040312
0.476864 0.055496 0.567766 -0.594742 0.796595 -0.108253
0.272517 0.035143 0.134793 0.083782 -0.989828 -0.114984
0.073747 0.043453 0.672769 0.354873 -0.933301 0.054912
0.385049 0.061395 0.659966 0.188589 0.979975 0.063893
0.251282 0.115623 0.727191 -0.687849 0.725822 -0.006843
0.294294 0.037823 0.247605 0.831167 -0.555187 -0.030488
0.281642 0.091143 0.149761 0.543331 0.795177 -0.269229
0.058883 0.035045 0.765594 0.740045 -0.649762 0.173614
0.310918 0.201445 0.889724 0.951808 -0.013888 -0.306380
0.453885 0.048648 0.611108 -0.852688 0.433386 -0.291718
0.138061 0.054871 0.703400 0.221251 -0.325145 0.919418
0.319904 0.043947 0.502562 0.615093 -0.788238 -0.018473
0.325724 0.043659 0.435551 0.719611 -0.654738 -0.231251
0.319318 0.089786 0.485727 0.688426 0.718271 -0.100779
0.238516 0.094764 0.497806 -0.695527 0.717880 -0.029829
0.389219 0.057012 0.624517 -0.152716 -0.987223 -0.045485
0.318011 0.045459 0.541952 0.626368 -0.778524 0.039539
0.294044 0.031055 0.354595 0.628717 -0.777054 -0.030027
0.295889 0.102429 0.828177 0.895100 0.440441 0.069337
0.121061 0.052451 0.687226 0.423484 -0.888867 0.174862
0.293153 0.104836 0.525744 0.688937 0.724756 0.009741
0.299720 0.057425 0.852937 0.880838 -0.445487 0.160206
0.286261 0.030611 0.231227 0.603901 -0.795139 -0.055302
0.285575 0.029682 0.457606 0.365917 -0.929801 -0.039679
0.487729 0.055053 0.800801 -0.051180 0.209489 0.976471
0.279251 0.054402 0.915053 0.448681 -0.820823 0.353461
0.243820 0.098438 0.444195 -0.817892 0.573473 -0.046706
0.239946 0.064432 0.878568 -0.914499 -0.351591 0.200187
0.264715 0.119935 0.597173 -0.159551 0.987179 -0.004542
0.273264 0.133489 0.913473 0.996966 0.074545 0.022412
0.238836 0.051898 0.331448 -0.962961 -0.261486 -0.065807
0.098398 0.052658 0.646248 -0.083172 0.996307 0.021320
0.321036 0.085624 0.566504 0.539531 0.841524 0.027275
0.264020 0.146501 0.854251 -0.952643 0.295690 -0.070981
0.251049 0.110627 0.900667 -0.897218 0.428730 0.105780
0.309807 0.086974 0.576219 0.567441 0.822637 0.035764
0.253909 0.116488 0.493290 -0.508610 0.860959 -0.008112
0.433841 0.053196 0.611104 0.037245 0.998329 -0.044175
0.240361 0.045850 0.330531 -0.927883 -0.367006 -0.065876
0.274007 0.123849 0.871122 0.959999 0.277880 -0.034416
0.310405 0.043716 0.430439 0.643072 -0.648305 -0.407627
0.167222 0.060422 0.569544 -0.257282 -0.963980 -0.067436
0.483720 0.042194 0.788040 -0.377686 -0.623620 0.684435
0.306025 0.080597 0.792483 0.987493 0.143763 0.064724
0.336225 0.200303 0.924910 0.704470 -0.671159 -0.230799
0.249359 0.114758 0.426499 -0.636594 0.771139 -0.009653
0.274261 0.198247 0.927979 0.724081 -0.689611 0.011965
0.230480 0.055838 0.724795 -0.933779 -0.356763 0.027879
0.337585 0.065454 0.608245 0.273971 -0.961653 -0.012755
0.292853 0.104969 0.507747 0.684324 0.729113 0.009744
0.251092 0.199189 0.913568 -0.891119 -0.445737 -0.085002
0.200561 0.201959 0.950731 -0.318492 0.652796 0.687328
0.240252 0.046326 0.329870 -0.931096 -0.358973 -0.064794
0.067814 0.041938 0.657846 0.310307 -0.950494 0.016455
0.491532 0.032447 0.538700 0.233432 -0.957726 -0.168139
0.299063 0.095964 0.687475 0.852926 0.522030 -0.001317
0.281467 0.028833 0.788990 0.385173 -0.912820 0.135651
0.059915 0.056390 0.573906 0.562464 0.820042 -0.105668
0.477609 0.035937 0.532874 -0.719876 -0.671129 -0.177098
0.289082 0.109448 0.346948 0.773456 0.632492 -0.041472
0.192394 0.200620 0.917269 -0.723063 -0.553950 -0.412698
0.223098 0.199570 0.936001 -0.342995 -0.906858 0.244874
0.298867 0.073239 0.217097 0.992778 0.100355 -0.065732
0.293893 0.095753 0.371336 0.851591 0.518707 -0.075742
0.239999 0.053403 0.228230 -0.947076 -0.316039 -0.056265
0.248770 0.064608 0.926423 -0.590600 -0.365802 0.719292
0.070883 0.046603 0.679275 0.589871 0.758190 0.277849
0.273085 0.178212 0.870833 0.963741 0.244503 -0.106873
0.242325 0.101648 0.835166 -0.884905 0.458341 0.082862
0.300614 0.061158 0.853242 0.920736 -0.359449 0.151797
0.055671 0.053439 0.516303 0.612364 0.725987 -0.312975
0.263917 0.027760 0.487240 -0.076761 -0.997042 -0.003747
0.234143 0.067165 0.410376 -0.984716 0.026541 -0.172134
0.301372 0.035828 0.700680 0.759962 -0.649966 -0.001250
0.244242 0.043222 0.194749 -0.861509 -0.501184 -0.081341
0.234437 0.034788 0.441205 -0.549091 -0.833245 -0.064815
0.295918 0.091389 0.413868 0.809124 0.578805 -0.101500
0.229177 0.058713 0.747520 -0.988878 -0.141089 0.047055
0.276629 0.118819 0.493467 0.289480 0.957172 -0.004890
0.045514 0.031272 0.738141 -0.284620 -0.951201 0.119200
0.060060 0.043052 0.788978 0.535473 -0.637834 0.553567
0.299974 0.203314 0.949810 0.169881 0.845749 0.505815
0.285310 0.069061 0.111781 0.863983 0.326612 -0.383220
0.475993 0.030723 0.631022 -0.559266 -0.828805 -0.017441
0.417405 0.056275 0.631889 0.108418 0.994105 0.001166
0.299280 0.078997 0.367080 0.965804 0.234395 -0.110825
0.286011 0.036699 0.143296 0.582286 -0.802831 -0.128082
0.287678 0.115305 0.430422 0.638982 0.769178 -0.008197
0.069112 0.044759 0.787161 0.964040 0.265755 0.000833
0.246652 0.030606 0.388104 -0.485510 -0.873743 -0.029226
0.479141 0.031422 0.576669 -0.456727 -0.884686 -0.093437
0.245878 0.054527 0.889969 -0.687618 -0.665196 0.291026
0.493383 0.059347 0.595793 0.398232 0.915366 -0.059306
0.141703 0.055709 0.702170 -0.091805 0.420517 0.902628
0.347452 0.064307 0.698647 0.455255 0.851354 0.260652
0.309507 0.061811 0.754395 0.999171 -0.029451 0.028092
0.280701 0.028866 0.736077 0.379079 -0.925320 0.009036
0.274801 0.129557 0.806627 0.914961 0.386420 -0.116297
0.245195 0.096419 0.299869 -0.957081 0.288948 -0.022475
0.373277 0.059180 0.668183 -0.184935 -0.981121 0.056571
0.440339 0.048983 0.597633 -0.309705 -0.944223 -0.111919
0.341127 0.068477 0.585964 0.319995 0.947118 -0.023891
0.244261 0.036642 0.225238 -0.798114 -0.599728 -0.057801
0.238851 0.049329 0.374747 -0.914940 -0.382106 -0.129922
0.315274 0.203905 0.938112 0.286705 0.900854 0.325979
0.296897 0.070404 0.184564 0.990866 0.095288 -0.095413
0.271800 0.205632 0.931651 0.132849 0.991132 0.002965
0.240551 0.095242 0.491614 -0.723108 0.690287 -0.024863
0.488596 0.049719 0.493987 0.242140 0.545974 -0.802048
0.445148 0.051226 0.672083 0.113642 0.986510 0.117825
0.145110 0.056524 0.613624 0.150758 -0.986716 -0.060523
0.180169 0.202092 0.918625 -0.900187 -0.085182 -0.427092
0.246750 0.107678 0.448649 -0.723160 0.690193 -0.025937
0.292246 0.109631 0.571481 0.697624 0.716464 -0.000048
0.264785 0.177242 0.871712 -0.970284 0.225789 -0.086994
0.283752 0.029380 0.540734 0.332369 -0.942558 -0.033383
0.259179 0.118146 0.371058 -0.331041 0.943602 -0.005167
0.487409 0.057667 0.772403 -0.316665 0.945847 0.071395
0.275846 0.028075 0.530161 0.158446 -0.987190 -0.018742
0.273073 0.119956 0.472739 0.172513 0.985001 -0.003649
0.241493 0.043956 0.284975 -0.907848 -0.418689 -0.022635
0.296948 0.039074 0.409245 0.697338 -0.713912 -0.063639
0.285250 0.046647 0.874229 0.519265 -0.819759 0.241576
0.240683 0.044661 0.328830 -0.919706 -0.387438 -0.063505
0.378396 0.058600 0.674048 -0.248139 -0.964212 0.093395
0.264211 0.119774 0.560032 -0.165864 0.986138 -0.004609
0.237799 0.037122 0.504807 -0.573275 -0.819363 0.000900
0.499792 0.054967 0.585459 0.791595 0.606265 -0.076289
0.395887 0.059666 0.655875 0.162760 0.985249 0.052863
0.272437 0.170943 0.927643 0.945350 -0.325107 0.024887
0.055567 0.028115 0.628861 0.268014 -0.963226 -0.019107
0.280092 0.117714 0.351532 0.473579 0.880717 -0.007698
0.304427 0.083896 0.722206 0.930081 0.367352 0.000838
0.246454 0.106743 0.448204 -0.733580 0.679023 -0.028081
0.483266 0.060650 0.603749 -0.205478 0.977649 -0.044520
0.293921 0.104432 0.839627 0.900243 0.425301 0.093173
0.348102 0.067418 0.643606 0.258547 0.965396 0.034129
0.485342 0.058327 0.736388 -0.218978 0.974164 0.055246
0.323344 0.078524 0.612425 0.423206 0.905015 0.042948
0.267397 0.120787 0.245372 -0.057437 0.995366 -0.077126
0.248026 0.108139 0.368519 -0.813096 0.581823 -0.018881
0.325153 0.045744 0.501854 0.644719 -0.762583 -0.052956
0.335006 0.068461 0.673675 0.345722 0.929887 0.125641
0.428948 0.054315 0.652919 0.098393 0.993980 0.048202
0.307051 0.077876 0.746777 0.969613 0.244334 0.012333
0.212223 0.084585 0.514639 -0.741742 0.669506 -0.039763
0.434900 0.053465 0.631534 0.067852 0.997685 -0.004461
0.290832 0.110991 0.503276 0.679686 0.733501 -0.001675
0.297386 0.031620 0.616288 0.596736 -0.802274 -0.016186
0.290121 0.104582 0.306928 0.916814 0.398613 -0.023656
0.237835 0.052630 0.387947 -0.929089 -0.338717 -0.148543
0.322876 0.199875 0.924385 0.651074 -0.720852 -0.237645
0.239172 0.068094 0.879602 -0.959548 -0.230672 0.161426
0.309331 0.087080 0.576290 0.569357 0.821302 0.035998
0.493805 0.045338 0.788483 0.425793 0.696103 0.578050
0.034678 0.037874 0.655396 -0.922256 -0.386567 0.003156
0.236853 0.202714 0.899446 -0.902460 0.314927 -0.293916
0.246187 0.060589 0.904560 -0.729163 -0.612932 0.304360
0.262297 0.119133 0.905978 -0.873167 0.487333 0.009333
0.413992 0.052706 0.630462 -0.279179 -0.958948 -0.049775
0.247661 0.101571 0.248855 -0.895447 0.444342 -0.027104
0.291420 0.030642 0.547485 0.487452 -0.872563 -0.032020
0.313330 0.074981 0.430505 0.619718 0.318020 -0.717504
0.202885 0.065739 0.625654 -0.148183 -0.988945 0.005474
0.243898 0.102240 0.847670 -0.895136 0.437374 0.086226
0.203702 0.066119 0.593021 -0.333603 -0.942631 -0.012453
0.310770 0.078585 0.633395 0.584248 0.809994 0.050638
0.485749 0.027660 0.591616 -0.128232 -0.989691 -0.063787
0.476562 0.052784 0.741206 -0.858470 0.480921 0.178169
0.083393 0.049847 0.671018 -0.019654 0.995021 0.097709
0.503315 0.039309 0.700313 0.962177 -0.267214 0.053030
0.233796 0.060866 0.827683 -0.977171 -0.172854 0.123525
0.240426 0.050502 0.245746 -0.939260 -0.341186 -0.037192
0.038349 0.048259 0.757224 -0.974384 0.191054 0.118637
0.273965 0.027755 0.330458 0.141544 -0.989912 -0.006259
0.147448 0.060601 0.625168 -0.203143 0.979148 -0.001143
0.211577 0.073809 0.620910 -0.363774 0.930952 0.031569
0.295953 0.045321 0.234551 0.907751 -0.417002 -0.045789
0.062657 0.057503 0.673560 0.623637 0.781265 0.026512
0.365423 0.060884 0.619495 0.027727 -0.999189 -0.029211
0.210259 0.202216 0.951328 -0.276754 0.695927 0.662641
0.245623 0.050450 0.146706 -0.944656 -0.303705 -0.124048
0.292715 0.095514 0.282382 0.964981 0.261605 -0.019342
0.243140 0.078797 0.190830 -0.980313 0.173745 -0.093804
0.503128 0.044729 0.727992 0.991163 0.121974 0.052127
0.259123 0.028555 0.422895 -0.182738 -0.983034 -0.015865
0.249971 0.030051 0.690927 -0.330322 -0.943868 -0.000933
0.038983 0.045258 0.769634 -0.985560 0.109537 0.129122
0.304549 0.055975 0.647200 0.703498 -0.705837 0.082976
0.050964 0.028507 0.723026 0.119917 -0.990996 0.059553
0.286058 0.115793 0.709783 0.446688 0.894649 -0.008519
0.468445 0.043930 0.686567 -0.598957 -0.791713 0.120170
0.302336 0.036370 0.795865 0.671738 -0.726888 0.142837
0.305714 0.047177 0.736272 0.944381 -0.328820 0.004714
0.264023 0.154775 0.844281 -0.945289 0.313831 -0.089096
0.057693 0.028940 0.674951 0.385793 -0.922264 0.024362
0.223132 0.043783 0.532380 -0.588976 -0.807667 0.027937
0.247710 0.030439 0.441369 -0.387772 -0.921358 -0.027041
0.294496 0.099479 0.498020 0.696186 0.717858 -0.002081
0.289199 0.106850 0.293985 0.902172 0.430980 -0.018484
0.245495 0.087284 0.920976 -0.919258 0.096186 0.381723
0.300187 0.036080 0.671206 0.705402 -0.708791 -0.004731
0.296538 0.204024 0.944576 0.148347 0.913921 0.377812
0.064094 0.045246 0.789538 0.608423 0.600657 0.518683
0.272949 0.141131 0.928322 0.995478 -0.050925 0.080188
0.214535 0.049436 0.556083 -0.585773 -0.808268 0.059773
0.155869 0.057765 0.691498 0.151886 -0.901599 0.405032
0.310522 0.204103 0.939652 0.222334 0.911752 0.345363
0.475179 0.051507 0.561709 -0.833871 0.534546 -0.137550
0.508960 0.044195 0.800768 0.476811 -0.035366 0.878294
0.291424 0.102771 0.358658 0.810449 0.582753 -0.059761
0.251946 0.056168 0.108813 -0.917478 -0.058092 -0.393522
0.291725 0.113738 0.628652 0.709338 0.704815 -0.008689
0.308801 0.058444 0.779978 0.979632 -0.189726 0.065762
0.216465 0.089119 0.433254 -0.623921 0.763288 -0.167671
0.263474 0.119531 0.659079 -0.203409 0.979082 -0.004798
0.477304 0.035120 0.747480 -0.645125 -0.752353 0.133338
0.228824 0.070472 0.728689 -0.991266 0.129335 0.025783
0.294008 0.106749 0.629624 0.715009 0.699104 0.003933
0.037116 0.038843 0.568279 -0.934261 -0.338601 -0.111825
0.064739 0.050464 0.585210 0.981091 0.018856 -0.192626
0.417817 0.055144 0.600053 -0.020994 0.992725 -0.118560
0.242793 0.198942 0.925581 -0.663798 -0.744861 -0.067486
0.250322 0.099745 0.186556 -0.742079 0.649677 -0.165041
0.300959 0.067187 0.222514 0.998526 0.014350 -0.052336
0.308198 0.075781 0.430122 0.550523 0.368299 -0.749186
0.299248 0.038451 0.581526 0.646825 -0.761747 0.036862
0.285408 0.029571 0.759287 0.394962 -0.916084 0.069250
0.299824 0.087811 0.606795 0.728754 0.683825 0.036070
0.107561 0.048834 0.644399 0.251795 -0.967779 -0.001513
0.235585 0.059513 0.424474 -0.937096 -0.287727 -0.197649
0.255945 0.106271 0.946059 -0.854232 -0.039507 0.518388
0.260485 0.028326 0.508042 -0.132544 -0.991171 -0.003483
0.315854 0.067960 0.430676 0.665134 0.068984 -0.743530
0.218103 0.044724 0.517525 -0.601705 -0.798717 0.001514
0.488855 0.026373 0.688075 0.104919 -0.993936 0.032900
0.301051 0.199124 0.939322 0.395830 -0.875948 0.275741
0.339936 0.065324 0.575524 0.468018 -0.882879 -0.038517
0.300253 0.093886 0.699831 0.872822 0.488031 -0.002682
0.476160 0.031375 0.702224 -0.583086 -0.810358 0.057713
0.271644 0.196524 0.861277 0.802253 0.485470 -0.347431
0.410717 0.052254 0.643192 -0.171243 -0.985212 -0.005772
0.272877 0.158582 0.909970 0.996164 -0.083784 -0.025255
0.100101 0.052994 0.638948 -0.100930 0.994893 0.000565
0.211389 0.082603 0.485982 -0.771895 0.626280 -0.109318
0.279369 0.047800 0.087197 0.603436 -0.481665 -0.635503
0.385937 0.057855 0.583379 0.141461 -0.986698 -0.080101
0.271200 0.034988 0.134001 0.033948 -0.993110 -0.112161
0.391251 0.056599 0.635810 -0.227100 -0.973147 -0.037555
0.249252 0.114095 0.418824 -0.657637 0.753263 -0.010463
0.246787 0.030586 0.518069 -0.378944 -0.925285 -0.015752
0.279798 0.028720 0.720129 0.332667 -0.943018 0.007015
0.301135 0.096279 0.761120 0.901220 0.432904 0.019910
0.364561 0.064746 0.617273 0.242744 0.970089 0.001733
0.273786 0.162327 0.839688 0.943106 0.309316 -0.121960
0.183196 0.062244 0.675527 0.052109 -0.989497 0.134835
0.212729 0.046354 0.512943 -0.600612 -0.799536 -0.002617
0.245052 0.030877 0.456717 -0.428349 -0.903196 -0.027444
0.276508 0.102963 0.932243 0.154410 -0.311690 0.937554
0.229256 0.053205 0.618101 -0.683410 -0.727436 0.061547
0.240444 0.096276 0.631525 -0.711570 0.702433 0.016013
0.048187 0.058262 0.739106 -0.234229 0.970717 0.053339
0.148641 0.060767 0.601621 -0.231428 0.972547 -0.024356
0.297171 0.095559 0.596760 0.716874 0.696790 0.023992
0.282492 0.029111 0.753213 0.356161 -0.932914 0.053107
0.293225 0.091538 0.896465 0.931943 0.336042 0.136227
0.411798 0.053563 0.599952 -0.146961 -0.985236 -0.087821
0.499713 0.044129 0.523257 0.966631 -0.175481 -0.186633
0.239879 0.095707 0.658530 -0.730171 0.683000 0.019032
0.248035 0.113710 0.857609 -0.858499 0.506206 0.082066
0.148748 0.056788 0.683672 0.264190 -0.946549 0.185063
0.431041 0.050357 0.613937 -0.338561 -0.936900 -0.087153
0.389506 0.059898 0.673290 0.234347 0.964103 0.124846
0.243044 0.103346 0.609696 -0.693431 0.720516 0.003184
0.299521 0.066508 0.199805 0.997478 -0.004648 -0.070829
0.263512 0.134338 0.801844 -0.841559 0.513472 -0.167706
0.501795 0.043223 0.785075 0.826701 -0.552369 0.107018
0.302691 0.060661 0.422921 0.977682 -0.109373 -0.179375
0.297054 0.045903 0.297628 0.867149 -0.497829 -0.014785
0.251525 0.115729 0.451682 -0.573455 0.819190 -0.008767
0.062453 0.055195 0.713464 0.694133 0.716005 0.074277
0.491753 0.027572 0.688173 0.275413 -0.960720 0.034116
0.272831 0.149976 0.925322 0.991097 -0.122990 0.051001
0.305369 0.052709 0.695428 0.915588 -0.401602 0.020351
0.269235 0.123888 0.762956 0.404827 0.889037 -0.213840
0.272102 0.120267 0.508362 0.127024 0.991894 -0.003493
0.218121 0.089607 0.457680 -0.615736 0.776772 -0.132263
0.257062 0.117477 0.694242 -0.510553 0.859813 -0.007564
0.249873 0.114941 0.395121 -0.629726 0.776766 -0.008934
0.287275 0.029950 0.392159 0.454956 -0.890000 -0.030264
0.259626 0.205336 0.935829 -0.072905 0.995617 0.058580
0.242980 0.083643 0.911395 -0.947503 0.195486 0.253027
0.304881 0.201474 0.887149 0.959730 0.031060 -0.279202
0.293746 0.092610 0.287683 0.975449 0.219637 -0.016066
0.294765 0.096616 0.452390 0.720392 0.690070 -0.069556
0.390079 0.060627 0.597145 0.200549 0.979307 -0.027185
0.204175 0.065330 0.685455 -0.451009 -0.800104 0.395505
0.287545 0.113017 0.320651 0.788995 0.613835 -0.026331
0.234457 0.037697 0.742654 -0.712002 -0.701869 0.020836
0.255241 0.029189 0.572717 -0.215660 -0.976464 -0.003012
0.263293 0.027863 0.546074 -0.082726 -0.996566 -0.003633
0.289674 0.030354 0.557293 0.454069 -0.890468 -0.029799
0.302452 0.062878 0.377638 0.987729 -0.112289 -0.108550
0.265343 0.170252 0.922041 -0.978704 -0.202842 0.031507
0.269676 0.121045 0.328154 0.080170 0.996778 -0.002426
0.296896 0.086112 0.362734 0.930449 0.350809 -0.105820
0.263776 0.142952 0.840953 -0.939931 0.331947 -0.079625
0.143150 0.059913 0.627565 -0.192774 0.981243 -0.000168
0.297572 0.047842 0.300065 0.884179 -0.466893 -0.015413
0.419448 0.052158 0.622524 -0.316928 -0.945830 -0.070448
0.359793 0.200966 0.935652 0.836928 0.152781 0.525557
0.490430 0.061371 0.652819 0.162302 0.986739 0.002132
0.491814 0.033425 0.526548 0.240935 -0.951296 -0.192319
0.473304 0.049334 0.575790 -0.976189 0.141555 -0.164367
0.299061 0.050840 0.351677 0.880789 -0.472027 -0.037421
0.309125 0.059566 0.788332 0.977592 -0.191278 0.087895
0.332903 0.065454 0.685399 0.454011 -0.794045 0.404186
0.234626 0.043666 0.698538 -0.649250 -0.759944 0.030985
0.290095 0.107144 0.365393 0.761508 0.646135 -0.051144
0.206056 0.069831 0.469185 -0.975116 0.034598 -0.218978
0.260723 0.118662 0.480453 -0.269409 0.963009 -0.005715
0.294628 0.039450 0.243273 0.849271 -0.526748 -0.035724
0.260891 0.029428 0.795970 -0.388076 -0.912799 0.127257
0.285399 0.115934 0.240034 0.691923 0.715012 -0.100003
0.304641 0.083300 0.798402 0.980896 0.182958 0.066100
0.212624 0.078712 0.599741 -0.458595 0.887887 0.036708
0.332209 0.200823 0.906274 0.876256 -0.297705 -0.378875
0.477922 0.058591 0.644385 -0.509264 0.860595 -0.005194
0.409448 0.052454 0.647442 -0.174642 -0.984631 0.001439
0.174302 0.201156 0.944136 -0.471948 0.462360 0.750659
0.463567 0.045170 0.607020 -0.470713 -0.874912 -0.113834
0.304135 0.093395 0.445200 0.724809 0.679052 -0.116361
0.497138 0.052720 0.764809 0.623248 0.764723 0.163590
0.245118 0.101056 0.412340 -0.814645 0.578615 -0.039478
0.302840 0.073695 0.856023 0.987464 0.122553 0.099476
0.289117 0.114816 0.679398 0.607144 0.794541 -0.009027
0.338360 0.200505 0.913045 0.829569 -0.402920 -0.386614
0.232208 0.079678 0.719221 -0.951164 0.307738 0.024152
0.250275 0.108140 0.897835 -0.906888 0.408165 0.104669
0.271686 0.120404 0.346897 0.144457 0.989506 -0.003131
0.438021 0.052969 0.637054 0.056378 0.998409 0.000603
0.230451 0.076983 0.767468 -0.979675 0.196281 0.041356
0.328875 0.076892 0.501950 0.976925 -0.134279 -0.166094
0.277569 0.055099 0.069456 0.528368 -0.177046 -0.830351
0.265305 0.160787 0.931375 -0.968987 -0.239157 0.062198
0.231712 0.047783 0.784925 -0.942516 -0.316319 0.107735
0.238626 0.055550 0.282459 -0.975733 -0.217983 -0.020691
0.036092 0.049441 0.580978 -0.922631 0.375453 -0.088243
0.399024 0.055716 0.587383 0.022972 -0.995730 -0.089408
0.242389 0.052293 0.188382 -0.934907 -0.344388 -0.085712
0.362446 0.201036 0.937692 0.749440 0.268309 0.605268
0.240353 0.035477 0.512094 -0.540816 -0.841106 0.007651
0.296671 0.061765 0.170725 0.986785 -0.133825 -0.091354
0.282507 0.063086 0.092482 0.800930 0.120484 -0.586510
0.273509 0.027681 0.400140 0.133932 -0.990975 -0.005540
0.315644 0.078014 0.629141 0.463323 0.884710 0.051191
0.234382 0.035559 0.454832 -0.560324 -0.826480 -0.054479
0.242909 0.037121 0.305213 -0.858909 -0.511294 -0.029223
0.214457 0.086484 0.556385 -0.620088 0.783826 0.033280
0.218263 0.063330 0.431098 -0.767078 -0.079283 -0.636636
0.291160 0.030601 0.523828 0.481581 -0.875602 -0.037430
0.255238 0.116909 0.420391 -0.453526 0.891212 -0.007421
0.332099 0.063489 0.515892 0.759233 -0.644386 -0.091280
0.218247 0.055908 0.608734 -0.528086 -0.847128 0.059154
0.266018 0.140447 0.942762 -0.964878 -0.106619 0.240088
0.303556 0.041424 0.719248 0.865532 -0.500850 0.001786
0.284899 0.116171 0.569472 0.543199 0.839570 -0.007567
0.284640 0.029519 0.675792 0.373900 -0.927467 -0.002065
0.482659 0.028614 0.701299 -0.252168 -0.965993 0.057169
0.270805 0.127001 0.787233 0.317471 0.813408 -0.487421
0.223563 0.082073 0.602818 -0.687233 0.725309 0.040466
0.325986 0.059508 0.616568 0.289217 -0.956473 0.038902
0.245540 0.109042 0.564616 -0.746290 0.665280 -0.021303
0.474721 0.038650 0.558520 -0.646806 -0.746427 -0.156490
0.283006 0.056112 0.915703 0.538557 -0.765048 0.353069
0.265623 0.180149 0.927329 -0.902086 -0.428957 0.047302
0.189330 0.065173 0.556570 -0.857852 -0.501721 -0.111204
0.159355 0.057821 0.650646 0.127866 -0.991720 0.011942
0.354591 0.066354 0.622904 0.260739 0.965351 0.010613
0.296400 0.038992 0.372582 0.720691 -0.692027 -0.041274
0.298243 0.093184 0.618136 0.726549 0.686597 0.026682
0.274736 0.027889 0.650394 0.140201 -0.990100 -0.006807
0.230688 0.060606 0.678081 -0.877181 -0.465995 0.115766
0.289240 0.030254 0.298309 0.594611 -0.803946 -0.010407
0.254267 0.029350 0.536450 -0.236427 -0.971640 -0.004107
0.071292 0.042541 0.637947 0.338698 -0.940791 -0.013998
0.489037 0.054819 0.782736 0.746738 0.644221 0.165413
0.240619 0.050429 0.235604 -0.932182 -0.358757 -0.048273
0.388306 0.060880 0.658134 0.179910 0.981928 0.058744
0.243808 0.064493 0.900554 -0.816314 -0.505815 0.278895
0.318873 0.048375 0.559884 0.636624 -0.769799 0.046033
0.325502 0.084799 0.540244 0.709423 0.704771 0.004141
0.266490 0.027334 0.276355 -0.091566 -0.995653 -0.017069
0.247872 0.030412 0.442688 -0.384514 -0.922734 -0.026653
0.230258 0.077716 0.644783 -0.716484 0.695985 0.047498
0.144652 0.059390 0.672393 -0.179070 0.977499 0.111491
0.303631 0.036134 0.464288 0.575180 -0.817540 -0.028208
0.137989 0.054114 0.660514 0.156249 -0.987381 0.025787
0.050165 0.058103 0.752184 -0.143039 0.988092 0.056693
0.324599 0.087154 0.453476 0.802871 0.548914 -0.232576
0.186913 0.062970 0.651363 0.087615 -0.996144 0.004529
0.310140 0.056168 0.634521 0.690660 -0.719116 0.076554
0.492512 0.060546 0.665353 0.276507 0.960921 0.013212
0.296758 0.047734 0.246106 0.925205 -0.378147 -0.031643
0.257792 0.028731 0.745524 -0.185578 -0.982298 0.025524
0.239323 0.202066 0.891252 -0.951279 0.173523 -0.254868
0.287104 0.029902 0.325153 0.535590 -0.844428 -0.009175
0.270085 0.124517 0.771861 0.425311 0.856721 -0.291788
0.130506 0.057870 0.615695 -0.183290 0.982925 -0.016244
0.197155 0.200459 0.916970 -0.755045 -0.533053 -0.381787
0.176918 0.201026 0.931831 -0.928461 0.037313 0.369552
0.263676 0.144628 0.813935 -0.885565 0.442397 -0.141632
0.293756 0.092237 0.280646 0.973687 0.227122 -0.018712
0.284750 0.116214 0.688813 0.452319 0.891820 -0.008078
0.288776 0.037187 0.144302 0.660632 -0.740308 -0.124535
0.314507 0.085625 0.577658 0.543686 0.838590 0.034245
0.038693 0.043174 0.790169 -0.525619 -0.599203 0.603888
0.293926 0.092926 0.884470 0.925160 0.359408 0.122085
0.236566 0.043032 0.815365 -0.845474 -0.514050 0.144662
0.263901 0.125111 0.872027 -0.962809 0.268337 -0.031534
0.182742 0.200802 0.943381 -0.484017 0.325330 0.812335
0.262220 0.119131 0.647150 -0.245338 0.969424 -0.005235
0.228412 0.072681 0.682871 -0.670921 0.722582 0.166556
0.344831 0.202424 0.944431 0.393690 0.696377 0.600057
0.273228 0.153104 0.817303 0.785259 0.546590 -0.290872
0.246671 0.059020 0.903716 -0.703394 -0.640830 0.307530
0.336713 0.200220 0.940773 0.683799 -0.172045 0.709098
0.305844 0.202182 0.895172 0.934338 0.170619 -0.312891
0.264266 0.164804 0.849475 -0.951569 0.292434 -0.094866
0.296274 0.097035 0.567051 0.705290 0.708539 0.023223
0.167108 0.063725 0.594049 -0.272439 0.961828 -0.025783
0.229154 0.200322 0.905101 -0.921835 -0.305405 -0.238639
0.494829 0.034150 0.534031 0.494040 -0.852586 -0.170356
0.263678 0.119549 0.866672 -0.955123 0.294621 -0.030627
0.092704 0.051814 0.630303 -0.098832 0.995005 -0.014042
0.062366 0.039525 0.541694 0.845064 -0.507867 -0.167147
0.264662 0.034267 0.147721 -0.187787 -0.976690 -0.103987
0.191164 0.065847 0.559529 -0.990786 -0.036202 -0.130512
0.297959 0.032996 0.588451 0.611150 -0.791475 -0.007911
0.372022 0.062393 0.676286 0.286597 0.947618 0.141007
0.485945 0.031052 0.751150 -0.005303 -0.995013 0.099606
0.305828 0.076182 0.695990 0.899021 0.437166 0.025444
0.239324 0.102202 0.723799 -0.860253 0.509829 0.006328
0.247356 0.063896 0.917606 -0.688407 -0.466518 0.555389
0.049111 0.034617 0.779309 -0.531059 -0.819636 0.214882
0.325690 0.076419 0.610690 0.397367 0.917085 0.032460
0.246220 0.097568 0.887669 -0.931309 0.347605 0.108786
0.256755 0.116023 0.947266 -0.920966 0.165767 0.352624
0.293269 0.030946 0.412297 0.540244 -0.840099 -0.048678
0.209656 0.203305 0.917366 -0.808125 0.307231 -0.502538
0.292831 0.110769 0.829920 0.878400 0.471934 0.075449
0.142895 0.055957 0.675195 0.294579 -0.952110 0.081913
0.248451 0.030317 0.410843 -0.380157 -0.924489 -0.028289
0.299527 0.081756 0.864153 0.968738 0.227496 0.098953
0.290934 0.030557 0.637287 0.481577 -0.876331 -0.011285
0.267428 0.190924 0.844544 -0.355898 0.745912 -0.562985
0.061871 0.050139 0.541472 0.954312 0.168365 -0.246864
0.355882 0.061915 0.684477 0.047647 -0.948346 0.313640
0.242161 0.073530 0.182566 -0.988689 0.110305 -0.101620
0.294757 0.198926 0.939877 0.334398 -0.909583 0.246650
0.245086 0.034944 0.213348 -0.772294 -0.631637 -0.067795
0.296785 0.097067 0.604029 0.717580 0.696156 0.021132
0.250649 0.114676 0.335429 -0.635912 0.771716 -0.008441
0.240588 0.082205 0.300743 -0.988944 0.146991 -0.019570
0.299183 0.053009 0.322383 0.917472 -0.396977 -0.025594
0.274809 0.027904 0.523144 0.135020 -0.990705 -0.016503
0.295515 0.070237 0.168352 0.991022 0.078276 -0.108392
0.500558 0.057281 0.687174 0.681612 0.731104 0.029859
0.046897 0.034890 0.514659 -0.495808 -0.803462 -0.329580
0.262896 0.027929 0.569049 -0.087625 -0.996147 -0.003578
0.271775 0.027398 0.300425 0.073650 -0.997266 -0.006097
0.042164 0.030898 0.584711 -0.546040 -0.833964 -0.079648
0.307091 0.048969 0.593022 0.669715 -0.739993 0.062388
0.328757 0.072981 0.575376 0.384275 0.923019 -0.019209
0.247986 0.107503 0.356656 -0.836874 0.547065 -0.019030
0.447385 0.048906 0.603135 -0.672084 -0.708630 -0.214818
0.292796 0.106630 0.541628 0.691899 0.721969 0.006096
0.269254 0.121180 0.640220 -0.011954 0.999924 -0.003118
0.279855 0.117775 0.236301 0.482593 0.864480 -0.140636
0.264584 0.046939 0.890131 -0.274219 -0.933450 0.231247
0.264100 0.162933 0.839776 -0.942505 0.318264 -0.101940
0.355749 0.065809 0.577657 0.300987 0.952194 -0.052288
0.296509 0.200927 0.892032 0.971590 -0.049639 -0.231408
0.331553 0.061776 0.480951 0.865644 -0.472623 -0.165189
0.267466 0.199479 0.855375 -0.462288 0.697754 -0.547201
0.478129 0.029860 0.613927 -0.465273 -0.884537 -0.033403
0.498478 0.041270 0.522642 0.891585 -0.406460 -0.199667
0.052319 0.061784 0.676379 0.085206 0.996071 0.024147
0.291008 0.085704 0.174273 0.928873 0.348037 -0.126749
0.262305 0.069461 0.074843 -0.369019 0.475843 -0.798373
0.306050 0.078777 0.799109 0.989369 0.127994 0.069038
0.357628 0.061316 0.705193 0.549365 0.406208 0.730201
0.209038 0.076964 0.481077 -0.877665 0.455197 -0.149997
0.298493 0.045694 0.401445 0.812959 -0.576873 -0.079463
0.330363 0.066335 0.645210 0.079398 -0.996658 0.019231
0.273230 0.119906 0.316017 0.226103 0.974092 -0.004623
0.347051 0.202503 0.916506 0.834625 -0.051494 -0.548406
0.251085 0.115563 0.679857 -0.637195 0.770655 -0.008517
0.268419 0.030153 0.193273 -0.031226 -0.996423 -0.078530
0.196789 0.202156 0.947886 -0.340644 0.674335 0.655160
0.233994 0.079522 0.675438 -0.786583 0.616034 0.042299
0.470873 0.046136 0.703769 -0.802934 -0.569731 0.175224
0.051685 0.035447 0.775516 0.637472 -0.740082 0.214261
0.293377 0.035530 0.227777 0.804651 -0.591158 -0.055389
0.319890 0.068625 0.698983 0.506286 0.822809 0.258186
0.267415 0.169465 0.942826 -0.767690 -0.537260 0.349290
0.345854 0.202627 0.927816 0.869739 0.493511 0.000934
0.452303 0.046950 0.611539 -0.435936 -0.894099 -0.102700
0.238729 0.036613 0.811277 -0.737227 -0.654333 0.168358
0.275579 0.031422 0.807573 0.313828 -0.937701 0.149092
0.220861 0.203003 0.908422 -0.865342 0.286002 -0.411565
0.260607 0.118613 0.670893 -0.331835 0.943318 -0.005990
0.058624 0.035182 0.522351 0.522821 -0.831341 -0.188495
0.311506 0.058213 0.644670 0.617628 -0.782846 0.075414
0.059548 0.044686 0.796787 0.339210 0.264073 0.902885
0.272919 0.139837 0.932608 0.993241 -0.054687 0.102382
0.504446 0.041162 0.620306 0.979644 -0.198805 -0.027838
0.043191 0.032046 0.562560 -0.547046 -0.828216 -0.121648
0.273283 0.170630 0.865847 0.960635 0.258144 -0.102676
0.249058 0.085869 0.149758 -0.751658 0.622953 -0.216654
0.195165 0.064368 0.642336 -0.009804 -0.999925 0.007408
0.495689 0.030605 0.710760 0.531823 -0.845299 0.051319
0.505907 0.044503 0.798883 0.468376 0.137232 0.872806
0.483033 0.053080 0.513295 -0.251455 0.898696 -0.359326
0.273801 0.198252 0.937946 0.353435 -0.923409 0.149666
0.288297 0.036260 0.153936 0.649174 -0.751391 -0.118256
0.185439 0.201171 0.947552 -0.416071 0.483395 0.770204
0.460419 0.044821 0.618622 -0.385282 -0.919634 -0.076357
0.191449 0.063541 0.674226 -0.003120 -0.991395 0.130866
0.265499 0.180837 0.919690 -0.950651 -0.309551 0.021008
0.185133 0.063458 0.698815 -0.429245 0.865421 0.258448
0.145846 0.055760 0.644043 0.189383 -0.981871 -0.007924
0.274239 0.027807 0.681016 0.158071 -0.987428 -0.000054
0.062607 0.038977 0.741935 0.752134 -0.639414 0.159509
0.263368 0.135131 0.821120 -0.917694 0.387059 -0.089578
0.250681 0.084147 0.930032 -0.617231 -0.197451 0.761603
0.045951 0.027878 0.607391 -0.292540 -0.955462 -0.038899
0.306415 0.056454 0.802813 0.942205 -0.315437 0.112914
0.290091 0.199826 0.905583 0.944411 -0.279931 -0.172414
0.172107 0.061235 0.700728 -0.410017 0.871235 0.269880
0.309203 0.057720 0.647232 0.667692 -0.740144 0.079839
0.065097 0.041822 0.725078 0.762903 -0.629913 0.145563
0.209573 0.078243 0.528548 -0.987166 0.154423 -0.040696
0.305423 0.042722 0.554594 0.648418 -0.759718 0.048820
0.239197 0.031829 0.667246 -0.469161 -0.883112 -0.001266
0.328165 0.052994 0.552882 0.574467 -0.818185 0.023685
0.208167 0.071246 0.570430 -0.382092 0.923621 -0.030479
0.245022 0.104992 0.508905 -0.771978 0.634883 -0.031204
0.227909 0.092056 0.468856 -0.659212 0.745899 -0.095252
0.356141 0.062573 0.593990 0.258823 -0.965059 -0.040900
0.338285 0.202948 0.930907 0.709309 0.689309 0.147425
0.314966 0.090858 0.486797 0.673722 0.735586 -0.070790
0.303515 0.037576 0.766906 0.776576 -0.625619 0.074372
0.270644 0.120734 0.618508 0.040764 0.999163 -0.003472
0.188719 0.062543 0.710376 -0.582898 0.607247 0.539890
0.223315 0.091126 0.536094 -0.648634 0.760903 0.017331
0.264131 0.027726 0.454700 -0.078882 -0.996868 -0.005728
0.047603 0.058045 0.738767 -0.267573 0.962052 0.053491
0.243505 0.037610 0.823118 -0.657686 -0.732633 0.175209
0.476728 0.030366 0.679680 -0.545773 -0.837464 0.028048
0.364630 0.060571 0.666572 -0.145222 -0.988116 0.050364
0.270680 0.120681 0.959245 -0.202760 -0.079252 0.976016
0.051638 0.043499 0.473954 0.073353 -0.082186 -0.993914
0.294550 0.059154 0.148729 0.971924 -0.209493 -0.107130
0.248155 0.081521 0.144036 -0.807399 0.549168 -0.215688
0.298367 0.100048 0.702558 0.819743 0.572707 -0.005223
0.294551 0.113051 0.759590 0.751621 0.659529 0.009381
0.378539 0.058851 0.608979 0.012464 -0.998681 -0.049804
0.295460 0.092463 0.406283 0.814202 0.572507 -0.096495
0.302777 0.067135 0.343739 0.996551 0.020915 -0.080302
0.224537 0.067254 0.720219 -0.750951 0.588244 0.300068
0.264334 0.150192 0.872440 -0.967411 0.246525 -0.057798
0.491506 0.027561 0.656181 0.243473 -0.969894 0.005236
0.287948 0.030066 0.615218 0.421634 -0.906619 -0.016302
0.167906 0.060102 0.625995 0.071440 -0.997022 -0.029029
0.344866 0.202658 0.926764 0.887574 0.454398 -0.075728
0.296194 0.074346 0.909086 0.973380 -0.101262 0.205616
0.239395 0.033932 0.608373 -0.504332 -0.863474 0.007866
0.312996 0.069426 0.705913 0.624313 0.725803 0.288866
0.237602 0.088130 0.831263 -0.940605 0.328323 0.086406
0.264365 0.027669 0.741273 -0.002789 -0.999824 0.018533
0.243640 0.082807 0.199892 -0.973078 0.214247 -0.084949
0.237148 0.058251 0.338387 -0.986284 -0.147665 -0.073746
0.239401 0.071114 0.204865 -0.996822 0.010104 -0.079018
0.258718 0.028617 0.337181 -0.244717 -0.969457 -0.016345
0.380650 0.061390 0.672208 0.246375 0.961861 0.118839
0.256819 0.115591 0.956050 -0.901847 0.096784 0.421076
0.389590 0.055900 0.649006 -0.128340 -0.991711 0.006111
0.266780 0.027289 0.597156 -0.021257 -0.999767 -0.003799
0.305055 0.043555 0.775370 0.843360 -0.530152 0.087655
0.273005 0.162053 0.896496 0.990844 0.123980 -0.053458
0.273337 0.027661 0.576201 0.106714 -0.994201 -0.013256
0.264253 0.169720 0.842470 -0.946089 0.305860 -0.106608
0.440425 0.051288 0.608398 -0.278007 0.947556 -0.157636
0.103238 0.053409 0.650651 -0.084099 0.995894 0.033502
0.315577 0.067655 0.715417 0.621308 0.692650 0.366350
0.261326 0.091484 0.146401 -0.265564 0.912477 -0.311224
0.275720 0.081264 0.111821 0.349371 0.829723 -0.435316
0.273585 0.198222 0.927097 0.751097 -0.660187 0.002511
0.245503 0.069840 0.132712 -0.942745 0.253599 -0.216608
0.307756 0.054539 0.767113 0.969488 -0.241173 0.043908
0.274437 0.119517 0.919773 0.947821 0.307142 0.085440
0.245512 0.109448 0.575854 -0.745482 0.666218 -0.020236
0.474305 0.048649 0.557008 -0.948557 0.267494 -0.169374
0.279439 0.032054 0.189830 0.373728 -0.922597 -0.095613
0.296796 0.031803 0.527337 0.584381 -0.810808 -0.033020
0.261441 0.118869 0.341878 -0.243241 0.969956 -0.004331
0.181695 0.062035 0.674087 0.077856 -0.990280 0.115257
0.126687 0.053714 0.593050 0.159874 -0.982457 -0.096015
0.205267 0.065090 0.460618 -0.951912 -0.193036 -0.237907
0.247807 0.094152 0.194412 -0.853161 0.504922 -0.131038
0.050250 0.059296 0.799479 0.114992 0.320467 0.940254
0.301631 0.051207 0.827854 0.843991 -0.515049 0.149678
0.271765 0.132560 0.945943 0.886772 -0.178376 0.426400
0.267417 0.120765 0.751386 -0.506643 0.860829 -0.047821
0.274218 0.121894 0.858307 0.952203 0.301877 -0.046687
0.283187 0.199147 0.949387 0.257659 -0.757207 0.600208
0.250080 0.030045 0.482406 -0.332154 -0.943058 -0.017777
0.287625 0.112771 0.320671 0.789760 0.612799 -0.027505
0.485370 0.059467 0.574187 -0.091006 0.991121 -0.096941
0.037161 0.056887 0.678696 -0.739417 0.672868 0.022629
0.240221 0.042898 0.391376 -0.797689 -0.592766 -0.110994
0.256446 0.066927 0.091997 -0.705164 0.352637 -0.615134
0.302613 0.034424 0.745294 0.787826 -0.615569 0.020110
0.265055 0.169069 0.902848 -0.987049 0.158627 -0.023912
0.296429 0.084841 0.300346 0.994488 0.103405 -0.017367
0.142193 0.057094 0.693695 -0.292777 0.924889 0.242613
0.321468 0.055135 0.431338 0.748710 -0.402411 -0.526782
0.283747 0.116537 0.584472 0.505237 0.862950 -0.007275
0.237593 0.071459 0.266221 -0.999393 0.027614 -0.021225
0.239503 0.031780 0.658639 -0.457752 -0.889078 -0.001627
0.292575 0.094943 0.261805 0.956973 0.288897 -0.027216
0.045364 0.029525 0.585445 -0.365027 -0.927654 -0.078827
0.290113 0.107532 0.375301 0.749496 0.660225 -0.048572
0.281144 0.117389 0.422891 0.453294 0.891338 -0.006399
0.210020 0.079313 0.529914 -0.968953 0.245335 -0.030658
0.447417 0.045866 0.651747 -0.276985 -0.960866 0.003860
0.245871 0.089806 0.200338 -0.925163 0.366342 -0.099329
0.240719 0.082720 0.303214 -0.988053 0.152408 -0.022887
0.272580 0.195555 0.885877 0.989415 0.092671 -0.111670
0.239763 0.031688 0.747466 -0.567880 -0.822705 0.025843
0.128593 0.053761 0.627111 0.317183 -0.946100 -0.065502
0.243758 0.091193 0.283625 -0.967993 0.250251 -0.019064
0.058919 0.056750 0.722281 0.503441 0.858367 0.098757
0.261386 0.028177 0.568692 -0.112890 -0.993601 -0.003473
0.244850 0.030890 0.727880 -0.426656 -0.904408 0.003315
0.029334 0.044533 0.786743 -0.996501 0.073546 -0.039698
0.460762 0.043850 0.670546 -0.384812 -0.921994 0.042973
0.242485 0.103532 0.829375 -0.876687 0.474824 0.077215
0.327534 0.077866 0.558154 0.453683 0.891045 -0.014493
0.336795 0.064975 0.677695 0.151598 -0.966953 0.204987
0.296172 0.085609 0.299663 0.993330 0.114013 -0.017231
0.270446 0.027181 0.311727 0.034127 -0.999402 -0.005498
0.159997 0.062593 0.655996 -0.186204 0.981477 0.045070
0.414929 0.053097 0.594935 -0.135916 -0.986071 -0.095873
0.150243 0.057102 0.673424 0.258486 -0.963067 0.075411
0.301000 0.058739 0.348981 0.957012 -0.284737 -0.055249
0.281086 0.117390 0.545874 0.428391 0.903571 -0.006399
0.305118 0.204240 0.930094 0.405843 0.908538 -0.099250
0.256117 0.117161 0.749757 -0.577583 0.816303 0.006853
0.245595 0.104778 0.463791 -0.760167 0.648923 -0.032332
0.219546 0.200204 0.910229 -0.879490 -0.388844 -0.274403
0.363307 0.060784 0.683412 -0.067549 -0.962655 0.262169
0.169445 0.061211 0.559198 -0.405635 -0.909343 -0.092496
0.312547 0.061045 0.660878 0.513126 -0.855083 0.074400
0.177595 0.065454 0.655996 -0.220576 0.974384 0.043841
0.484562 0.028843 0.714600 -0.176266 -0.980923 0.081975
0.053482 0.061301 0.674528 0.152815 0.987968 0.023810
0.414430 0.052635 0.676688 -0.384878 -0.918584 0.089853
0.280880 0.117394 0.824711 0.920213 0.389983 -0.033485
0.295367 0.073777 0.179717 0.976542 0.185741 -0.108929
0.307101 0.037816 0.472742 0.578773 -0.815209 -0.021362
0.288356 0.107918 0.261580 0.837547 0.545408 -0.032332
0.505714 0.043733 0.679059 0.999736 -0.001977 0.022872
0.240916 0.095409 0.513392 -0.686483 0.727087 -0.009183
0.302325 0.048732 0.603172 0.680778 -0.729348 0.067771
0.295900 0.052604 0.193627 0.952235 -0.294331 -0.081357
0.301008 0.094489 0.798398 0.945972 0.318882 0.058751
0.323990 0.083985 0.572966 0.512081 0.858469 0.028355
0.250005 0.112213 0.323978 -0.712929 0.701138 -0.011741
0.487183 0.038264 0.793942 -0.388756 -0.386857 0.836188
0.267928 0.029852 0.198251 -0.044286 -0.996076 -0.076624
0.270360 0.027166 0.386326 0.038357 -0.999252 -0.004853
0.335557 0.064628 0.714411 0.567914 0.710277 0.415908
0.271567 0.120439 0.487497 0.115611 0.993289 -0.003244
0.295876 0.059389 0.167734 0.978236 -0.184554 -0.094839
0.259853 0.118315 0.850631 -0.732882 0.679515 -0.033813
0.424790 0.055052 0.645362 0.093751 0.995296 0.024405
0.148366 0.059552 0.677227 -0.216426 0.966406 0.138631
0.210438 0.057384 0.597219 -0.313563 -0.948403 0.047017
0.195138 0.068228 0.595245 -0.319728 0.947387 -0.015230
