0.297965 0.554409 0.098203 0.992704 0.004821 0.120477
0.316557 0.547971 0.090706 0.153454 0.043214 0.987210
0.210846 0.636569 0.089003 -0.133020 0.041529 0.990243
0.270957 0.669565 0.053676 0.297207 0.010218 -0.954758
0.243811 0.095097 0.079822 -0.272376 -0.960328 -0.059850
0.295869 0.254345 0.106826 0.964874 -0.038436 0.259888
0.326487 0.906406 0.099500 0.011806 0.056483 0.998334
0.262803 0.809790 0.197197 0.986707 -0.026749 0.160294
0.279596 0.599421 0.057602 0.519528 0.007517 -0.854420
0.249086 0.150208 0.057735 -0.307827 -0.048435 -0.950209
0.104001 0.567201 0.088764 -0.087167 -0.020881 0.995975
0.257327 0.904982 0.210262 -0.998858 0.045718 0.013867
0.245304 0.701271 0.126076 -0.466580 0.046690 0.883246
0.264071 0.743678 0.141661 0.995593 -0.002086 0.093753
0.224792 0.175346 0.092449 -0.998438 -0.048631 0.027491
0.394646 0.545448 0.081614 0.104429 -0.013827 -0.994436
0.223856 0.304634 0.079494 -0.952923 -0.012132 -0.302969
0.108054 0.671191 0.085957 -0.008448 0.198943 0.979975
0.282066 0.078374 0.106186 -0.732691 -0.239852 -0.636894
0.287874 0.591363 0.123182 0.675997 0.025894 0.736449
0.262005 0.886640 0.184887 0.996738 0.063083 -0.050344
0.272102 0.092597 0.103532 0.288588 -0.954910 0.069741
0.261585 0.294450 0.156695 0.183531 -0.054677 0.981492
0.257046 0.887639 0.220518 -0.999011 0.011826 0.042872
0.228195 0.848983 0.095939 -0.075340 0.125835 -0.989186
0.201629 0.590682 0.089925 -0.123630 0.030938 0.991846
0.258321 0.770361 0.054367 -0.870002 0.019893 -0.492646
0.151523 0.615246 0.089145 -0.046164 0.030003 0.998483
0.295909 0.270757 0.108683 0.958968 -0.033817 0.281489
0.108890 0.574669 0.089066 -0.045012 -0.006702 0.998964
0.132406 0.575945 0.089494 -0.030255 0.010673 0.999485
0.231620 0.489675 0.064562 -0.730558 0.002026 -0.682848
0.206292 0.485198 0.079141 -0.126399 0.013928 -0.991882
0.241350 0.377342 0.137063 -0.985584 0.134001 0.103282
0.296273 0.644240 0.105302 0.947475 0.020477 0.319173
0.345434 0.436121 0.081726 0.253956 -0.088313 -0.963176
0.255756 0.783926 0.160508 -0.988692 0.004656 0.149886
0.277614 0.352515 0.149527 0.815711 0.085560 0.572097
0.292204 0.366372 0.070589 0.858511 -0.001979 -0.512792
0.259791 0.832812 0.055215 0.980511 0.018788 -0.195563
0.236021 0.249293 0.127726 -0.701482 -0.077954 0.708411
0.262392 0.134966 0.123072 0.235218 -0.939640 0.248495
0.254386 0.495559 0.052321 -0.123610 -0.000858 -0.992331
0.163341 0.663761 0.084634 -0.054941 0.144871 -0.987924
0.218650 0.346822 0.085333 -0.868062 -0.441697 -0.226655
0.255195 0.059011 0.081742 -0.098574 -0.989546 -0.105269
0.235265 0.545509 0.127804 -0.569778 0.023969 0.821449
0.297799 0.424714 0.106073 0.982091 0.002945 0.188386
0.288335 0.089483 0.086206 -0.898326 -0.428524 -0.096841
0.150323 0.457059 0.086281 -0.766037 -0.396800 0.505704
0.243471 0.779468 0.121580 -0.506000 0.090009 0.857825
0.133165 0.669729 0.085130 -0.007897 0.160655 -0.986979
0.297296 0.690401 0.087284 0.977165 0.030433 -0.210292
0.109938 0.650823 0.083724 -0.009796 0.081434 -0.996631
0.230206 0.094314 0.090655 -0.992984 -0.076220 -0.090401
0.265408 0.880608 0.069757 0.014217 0.995121 -0.097634
0.288343 0.281057 0.065833 0.744123 -0.016816 -0.667832
0.305229 0.400162 0.091423 0.240823 -0.051168 0.969219
0.226180 0.611446 0.115526 -0.867325 0.020086 0.497336
0.333600 0.868194 0.095032 0.129777 0.026220 -0.991196
0.248339 0.317043 0.155096 -0.471851 -0.046270 0.880463
0.253691 0.287100 0.155432 -0.277630 -0.066953 0.958352
0.246900 0.427188 0.053735 -0.319322 -0.001190 -0.947646
0.273559 0.523934 0.133240 0.415956 0.017806 0.909211
0.205228 0.588529 0.089989 -0.129201 0.030938 0.991136
0.287878 0.667123 0.120298 0.712778 0.032908 0.700617
0.240585 0.725461 0.123498 -0.519697 0.053868 0.852651
0.261235 0.790768 0.208928 0.838903 -0.111025 0.532837
0.103048 0.536173 0.087437 -0.339328 -0.171380 0.924925
0.254259 0.137816 0.122764 0.140029 -0.928713 0.343342
0.225847 0.212069 0.077649 -0.941714 -0.033586 -0.334734
0.221466 0.456090 0.097532 -0.987426 0.000886 0.158078
0.258620 0.046336 0.083855 -0.050140 -0.995689 -0.078039
0.277419 0.676532 0.126207 0.550892 0.034510 0.833863
0.180548 0.877052 0.101457 -0.112867 0.020393 0.993401
0.231008 0.135113 0.086469 -0.426226 -0.897758 0.111188
0.313368 0.365328 0.085550 0.839522 -0.479472 -0.255556
0.282058 0.248428 0.128524 0.643903 -0.081310 0.760774
0.239086 0.875553 0.108795 -0.678726 0.153997 0.718064
0.343835 0.607946 0.089251 0.120437 0.071889 0.990115
0.215746 0.865396 0.096225 -0.069114 0.113892 -0.991086
0.259772 0.796478 0.042128 0.989714 0.013072 -0.142460
0.282492 0.369137 0.059671 0.626351 -0.004133 -0.779530
0.427868 0.664048 0.085038 0.016152 0.112347 -0.993538
0.375093 0.480321 0.088829 0.233092 -0.079824 0.969173
0.232661 0.137251 0.102967 -0.334165 -0.904439 0.265186
0.281350 0.874827 0.070942 0.694196 0.183030 -0.696127
0.222348 0.801194 0.094185 -0.246133 0.045173 -0.968183
0.313383 0.627096 0.089145 0.191012 0.086039 0.977810
0.110541 0.539741 0.082478 -0.153945 -0.055093 -0.986542
0.233113 0.264136 0.126402 -0.762421 -0.070404 0.643240
0.270414 0.663177 0.128944 0.469749 0.030266 0.882281
0.222195 0.875643 0.099770 -0.121656 0.057234 0.990921
0.287925 0.196934 0.067678 0.771994 -0.035149 -0.634657
0.294267 0.655556 0.112013 0.893423 0.025201 0.448509
0.311015 0.617379 0.089340 0.193489 0.078858 0.977928
0.149437 0.669074 0.085055 -0.032695 0.161697 -0.986299
0.324137 0.566455 0.090241 0.146607 0.049614 0.987950
0.217161 0.561154 0.090617 -0.149524 0.027818 0.988367
0.258687 0.914936 0.199329 -0.992239 0.121467 -0.026618
0.205062 0.549410 0.090792 -0.132648 0.024898 0.990850
0.098776 0.588794 0.088773 -0.030076 0.008706 0.999510
0.246377 0.737793 0.055659 -0.464908 0.034890 -0.884671
0.242451 0.780625 0.060282 -0.545448 0.071457 -0.835093
0.083000 0.662913 0.084642 -0.010038 0.115781 -0.993224
0.358170 0.491003 0.090405 0.148417 -0.019159 0.988739
0.261325 0.593512 0.151077 0.559577 -0.073639 0.825500
0.292528 0.368871 0.071042 0.864565 -0.001813 -0.502518
0.286270 0.204282 0.064991 0.712780 -0.033582 -0.700584
0.382397 0.663146 0.084641 0.035795 0.215577 -0.975831
0.248810 0.783925 0.057242 -0.368573 0.073683 -0.926674
0.237770 0.227531 0.060806 -0.587711 -0.031482 -0.808458
0.395139 0.571917 0.089420 0.015842 0.033803 0.999303
0.156810 0.456811 0.089129 -0.303013 -0.118937 0.945535
0.308889 0.907804 0.098455 -0.228937 0.222539 0.947663
0.072141 0.600820 0.083236 -0.089862 -0.029134 -0.995528
0.259970 0.746786 0.038102 0.978872 0.016145 -0.203836
0.256264 0.786287 0.177371 -0.994608 -0.007204 0.103453
0.262476 0.833729 0.207216 0.987088 -0.030352 0.157279
0.331853 0.816704 0.098481 0.695436 -0.358692 0.622663
0.304661 0.513702 0.091543 0.161910 0.030629 0.986330
0.345324 0.442631 0.089825 0.249715 -0.075803 0.965348
0.179314 0.496164 0.079986 -0.094552 0.004707 -0.995509
0.355143 0.548882 0.080989 0.068602 0.029522 -0.997207
0.231563 0.804059 0.072865 -0.855716 0.101464 -0.507400
0.263644 0.780321 0.163543 0.987582 -0.008990 0.156844
0.251822 0.435263 0.144060 -0.977763 0.081260 0.193332
0.257031 0.914285 0.226859 -0.999520 0.023356 0.020375
0.185288 0.489507 0.091478 -0.117562 0.004218 0.993057
0.265960 0.084437 0.105270 0.200900 -0.966960 0.156929
0.292938 0.313917 0.071814 0.869207 -0.008592 -0.494374
0.238617 0.104763 0.089350 -0.309011 -0.945413 0.103477
0.329004 0.594824 0.081715 0.131106 0.057609 -0.989693
0.296310 0.224181 0.092463 0.999308 -0.035716 -0.010409
0.355009 0.563396 0.081299 0.074320 0.035969 -0.996586
0.251069 0.667881 0.053155 -0.605879 0.008147 -0.795515
0.387716 0.507073 0.088739 0.185225 -0.056343 0.981080
0.399274 0.512120 0.088056 0.215022 -0.080309 0.973301
0.318858 0.882812 0.096435 0.114563 0.083316 -0.989916
0.291180 0.797168 0.078586 0.936319 0.070484 -0.344003
0.267937 0.543494 0.134274 0.953563 0.020496 0.300496
0.263610 0.707324 0.148462 0.990783 -0.019320 0.134074
0.277130 0.172978 0.060169 0.514648 -0.040176 -0.856460
0.254288 0.560273 0.144521 -0.970999 0.018546 0.238362
0.231739 0.123123 0.103145 0.074026 -0.995732 0.055127
0.298054 0.448805 0.103023 0.991011 0.004254 0.133712
0.339915 0.450779 0.080878 0.191869 -0.045482 -0.980366
0.236272 0.778447 0.116673 -0.644432 0.071377 0.761323
0.252284 0.171181 0.056372 -0.220162 -0.043866 -0.974476
0.360542 0.617296 0.089026 0.081445 0.087093 0.992865
0.118063 0.641678 0.083044 -0.010964 0.050450 -0.998666
0.268695 0.223949 0.138288 0.845037 -0.273306 0.459583
0.071126 0.598701 0.083271 -0.106446 -0.042404 -0.993414
0.298054 0.376187 0.096383 0.996456 -0.002612 0.084070
0.279888 0.115704 0.103543 0.396019 -0.918242 -0.000300
0.451410 0.592239 0.086748 0.131878 -0.054095 0.989789
0.245699 0.278411 0.151193 -0.648719 -0.113479 0.752520
0.091954 0.596281 0.082651 -0.028654 0.008875 -0.999550
0.221877 0.297952 0.097259 -0.995093 -0.022647 0.096318
0.260398 0.772502 0.205160 0.253656 -0.216860 0.942672
0.255844 0.132301 0.057958 -0.070060 -0.051219 -0.996227
0.297952 0.318315 0.092674 0.998315 -0.008366 -0.057414
0.388201 0.554769 0.089768 0.016402 0.021507 0.999634
0.213300 0.613294 0.081822 -0.149110 0.026944 -0.988454
0.270698 0.695009 0.054214 0.314734 0.018165 -0.949006
0.083772 0.652277 0.084026 -0.014160 0.075706 -0.997030
0.047763 0.617263 0.085375 -0.302969 -0.182326 -0.935397
0.216846 0.801431 0.094718 -0.266722 -0.000922 -0.963773
0.333579 0.834015 0.096498 0.426393 -0.175103 -0.887428
0.136796 0.643357 0.083146 -0.018953 0.063052 -0.997830
0.260060 0.399438 0.051363 0.024806 -0.003151 -0.999687
0.217843 0.453940 0.078788 -0.145551 0.006125 -0.989332
0.317246 0.474761 0.079172 0.132373 0.001146 -0.991199
0.267633 0.543986 0.135991 0.970907 0.019395 0.238670
0.257308 0.875747 0.175225 -0.997741 0.066908 0.005968
0.185065 0.430529 0.090365 -0.250123 -0.070306 0.965658
0.352287 0.615285 0.082180 0.088328 0.079423 -0.992920
0.155571 0.638792 0.082746 -0.050938 0.046126 -0.997636
0.225212 0.479511 0.117708 -0.905498 0.010354 0.424225
0.155989 0.922742 0.100451 -0.087437 0.032751 0.995632
0.231477 0.154404 0.111293 -0.859933 -0.076540 0.504636
0.294752 0.265584 0.111280 0.942669 -0.039505 0.331382
0.256235 0.848969 0.169667 -0.999521 0.022350 0.021388
0.094910 0.594391 0.082577 -0.028354 0.009073 -0.999557
0.215456 0.625032 0.082066 -0.153909 0.027879 -0.987692
0.249760 0.437003 0.134208 -0.333498 0.027294 0.942356
0.344806 0.921925 0.099573 0.035208 0.057295 0.997736
0.294769 0.533597 0.074335 0.889809 -0.000691 -0.456333
0.164409 0.600370 0.089522 -0.066937 0.028943 0.997337
0.257916 0.756891 0.193126 -0.849174 -0.150494 0.506217
0.285783 0.366141 0.062022 0.710033 -0.003510 -0.704159
0.408197 0.617290 0.082643 0.016647 0.069894 -0.997416
0.341725 0.623890 0.089035 0.125410 0.089925 0.988021
0.231869 0.535266 0.064214 -0.726875 0.004360 -0.686756
0.256545 0.851545 0.185837 -0.999134 0.013282 0.039438
0.250967 0.510663 0.133571 -0.295905 0.024112 0.954913
0.256478 0.064791 0.079499 -0.097599 -0.985811 -0.136571
0.227061 0.358725 0.122932 -0.881756 -0.005417 0.471675
0.102606 0.544484 0.088184 -0.177166 -0.065580 0.981994
0.288384 0.569186 0.123312 0.684198 0.024439 0.728887
0.217792 0.854841 0.101175 -0.124818 0.044595 0.991177
0.203335 0.908854 0.098612 0.041884 0.098447 0.994260
0.262997 0.877613 0.190745 0.999321 0.027237 0.024794
0.040870 0.652724 0.086628 -0.087388 0.043031 0.995245
0.173150 0.501904 0.091072 -0.100205 0.002561 0.994964
0.288950 0.858446 0.087064 0.978285 0.097364 -0.182975
0.208229 0.838204 0.094362 -0.179665 0.093822 -0.979244
0.243786 0.085235 0.089005 -0.236261 -0.969035 0.071772
0.332747 0.545091 0.090585 0.120715 0.036204 0.992027
0.271501 0.245926 0.147699 0.776678 -0.276455 0.565990
0.203024 0.847845 0.102321 -0.121157 0.031078 0.992147
0.308046 0.851267 0.095239 0.131586 0.056758 -0.989679
0.230093 0.696781 0.068027 -0.783235 0.022572 -0.621316
0.134321 0.569035 0.089627 -0.034291 0.009147 0.999370
0.161561 0.625663 0.082273 -0.062698 0.031472 -0.997536
0.257363 0.848485 0.225857 -0.995377 -0.014751 0.094903
0.250164 0.101275 0.061020 -0.206339 -0.060605 -0.976602
0.312302 0.578459 0.090126 0.174623 0.059518 0.982835
0.280874 0.574807 0.058515 0.559086 0.006169 -0.829087
0.257440 0.753778 0.189120 -0.912824 -0.114536 0.391963
0.221466 0.385913 0.098181 -0.993395 -0.017211 0.113451
0.255105 0.742941 0.131494 -0.992412 0.008834 0.122640
0.254949 0.639146 0.052215 -0.117760 -0.001637 -0.993041
0.235941 0.301377 0.139021 -0.955506 -0.057632 0.289285
0.327406 0.817923 0.097472 0.759600 -0.353921 -0.545663
0.294184 0.414506 0.073361 0.884228 -0.000857 -0.467055
0.273534 0.351154 0.053908 0.374155 -0.005970 -0.927347
0.291477 0.711205 0.071433 0.860031 0.027334 -0.509509
0.296269 0.267083 0.084138 0.976578 -0.020630 -0.214171
0.262202 0.898124 0.202106 0.999170 0.039847 -0.008399
0.183505 0.543114 0.080421 -0.091653 0.022436 -0.995538
0.265875 0.483148 0.052461 0.168136 0.001479 -0.985763
0.282327 0.342593 0.142873 0.937178 0.104815 0.332732
0.251880 0.394740 0.153573 -0.716715 0.088318 0.691752
0.228413 0.379624 0.124758 -0.650201 0.005945 0.759739
0.240348 0.743080 0.122687 -0.524756 0.059014 0.849205
0.277299 0.687688 0.056695 0.459730 0.019984 -0.887834
0.099154 0.637662 0.083133 -0.017871 0.026426 -0.999491
0.174880 0.528830 0.080308 -0.082710 0.015714 -0.996450
0.249043 0.086675 0.062222 -0.220722 -0.064410 -0.973208
0.211404 0.838536 0.102425 -0.126239 0.032634 0.991463
0.402873 0.654788 0.084194 0.014414 0.120645 -0.992591
0.237824 0.354180 0.132838 -0.978086 0.141288 0.152925
0.245862 0.087701 0.064201 0.464555 -0.406280 0.786845
0.304726 0.483635 0.079089 0.130913 0.015858 -0.991267
0.224874 0.601785 0.074007 -0.872203 0.007856 -0.489081
0.144452 0.669159 0.086195 -0.028060 0.206081 0.978132
0.318896 0.476760 0.079217 0.131235 0.001155 -0.991351
0.259938 0.783919 0.045913 0.976884 0.017693 -0.213037
0.297280 0.265675 0.094981 0.999553 -0.026010 0.014771
0.269411 0.074216 0.080248 0.056466 -0.973522 -0.221508
0.096486 0.646442 0.083575 -0.013973 0.059005 -0.998160
0.290576 0.373254 0.068309 0.819277 -0.002751 -0.573392
0.222624 0.707921 0.087021 -0.989500 0.027512 -0.141888
0.271106 0.606223 0.130882 0.447931 0.025143 0.893715
0.281714 0.353458 0.139027 0.975868 0.121304 0.181569
0.248842 0.375801 0.053369 -0.265216 -0.003652 -0.964182
0.238906 0.568213 0.058329 -0.587890 0.005207 -0.808924
0.255276 0.655216 0.146375 -0.882432 0.006110 0.470401
0.257344 0.855935 0.226917 -0.996084 -0.011058 0.087717
0.029889 0.641928 0.085771 -0.206067 -0.088237 0.974551
0.178951 0.571473 0.090196 -0.091513 0.025866 0.995468
0.373055 0.934912 0.100242 0.092645 0.047560 0.994563
0.294993 0.723680 0.079142 0.942650 0.052430 -0.329638
0.248555 0.244634 0.147131 -0.759861 -0.293523 0.580048
0.263344 0.822449 0.163643 0.993214 -0.005314 0.116176
0.246348 0.122530 0.120471 -0.532155 -0.105895 0.839998
0.216007 0.350087 0.085633 -0.883293 -0.452465 -0.122755
0.263669 0.760578 0.158376 0.994587 -0.010308 0.103392
0.222790 0.247126 0.090357 -0.998824 -0.030719 -0.037517
0.229050 0.247271 0.069991 -0.846513 -0.024217 -0.531817
0.121503 0.645903 0.083351 -0.009632 0.067668 -0.997661
0.223863 0.334069 0.078676 -0.955686 -0.009317 -0.294242
0.161853 0.926495 0.099940 -0.088675 0.038569 0.995314
0.208457 0.668186 0.084955 -0.138442 0.575651 -0.805891
0.333297 0.916699 0.099329 0.013043 0.063888 0.997872
0.174926 0.663115 0.084568 -0.072643 0.144826 -0.986787
0.246972 0.191395 0.127650 -0.360495 -0.110564 0.926185
0.096466 0.603027 0.088534 -0.026835 0.013387 0.999550
0.250427 0.103550 0.119149 -0.438829 -0.115163 0.891160
0.211015 0.581760 0.090160 -0.138455 0.030427 0.989901
0.255217 0.772375 0.134946 -0.989905 0.013624 0.141077
0.306447 0.395097 0.080202 0.250381 -0.068306 -0.965735
0.352766 0.862289 0.099340 0.503361 -0.226919 0.833748
0.183384 0.583570 0.089971 -0.097014 0.028146 0.994885
0.254450 0.520087 0.146693 -0.959040 0.022051 0.282410
0.247672 0.619027 0.053590 -0.359674 0.004531 -0.933067
0.488749 0.649629 0.085473 0.150932 0.009575 -0.988498
0.283356 0.207104 0.062564 0.638494 -0.032975 -0.768920
0.286211 0.851084 0.075711 0.854796 0.138163 -0.500235
0.245346 0.213832 0.057005 -0.387178 -0.035401 -0.921325
0.262603 0.835150 0.201648 0.988724 -0.025434 0.147575
0.201619 0.872943 0.100966 -0.114978 0.041655 0.992494
0.268959 0.302251 0.053529 0.254892 -0.014911 -0.966855
0.222174 0.516084 0.106092 -0.984064 0.003624 0.177780
0.267578 0.428393 0.149129 0.907620 0.084804 0.411138
0.081549 0.632897 0.087871 -0.021781 0.021437 0.999533
0.438846 0.563215 0.084974 0.434399 -0.237712 -0.868787
0.119315 0.639998 0.088260 -0.013032 0.044919 0.998906
0.290449 0.107168 0.090734 0.994916 -0.077226 0.064634
0.224504 0.210729 0.102509 -0.971592 -0.049321 0.231464
0.168150 0.577878 0.081223 -0.069073 0.026635 -0.997256
0.193382 0.414036 0.090430 -0.277639 -0.083542 0.957046
0.231214 0.862753 0.084358 -0.964925 0.159546 -0.208480
0.255766 0.714768 0.145461 -0.994851 -0.005637 0.101191
0.256558 0.747904 0.178345 -0.983299 -0.039031 0.177764
0.449932 0.632390 0.083521 0.025021 0.036809 -0.999009
0.157728 0.533642 0.080674 -0.062902 0.009895 -0.997971
0.139179 0.944501 0.096783 -0.098187 0.033353 -0.994609
0.283259 0.262693 0.131779 0.962854 -0.162154 0.215914
0.259303 0.748722 0.038286 -0.951370 -0.001064 -0.308049
0.297579 0.634112 0.099144 0.997197 0.004836 0.074659
0.076677 0.598572 0.087938 -0.084686 -0.027601 0.996025
0.311854 0.887050 0.099858 0.009698 0.054014 0.998493
0.319156 0.674417 0.085723 0.307056 0.939983 0.148826
0.227148 0.510866 0.120048 -0.842691 0.013886 0.538218
0.276664 0.143729 0.063879 0.024168 -0.861596 -0.507018
0.327170 0.533730 0.080386 0.111218 0.031217 -0.993306
0.228496 0.147110 0.104257 -0.943305 -0.067650 0.324961
0.275285 0.088707 0.065546 -0.545664 -0.399430 0.736686
0.232805 0.136189 0.109767 -0.871080 -0.080605 0.484481
0.230797 0.288746 0.066460 -0.782849 -0.013982 -0.622054
0.275942 0.679181 0.055547 0.417154 0.017140 -0.908674
0.163513 0.609515 0.081919 -0.064386 0.029855 -0.997478
0.228204 0.140498 0.077787 -0.926534 -0.053976 -0.372319
0.262669 0.841369 0.200118 0.990526 -0.020569 0.135776
0.264143 0.860163 0.060546 0.276398 0.169997 -0.945888
0.289424 0.407606 0.066697 0.787681 -0.002009 -0.616080
0.291306 0.376406 0.124404 0.755860 0.003549 0.654724
0.268482 0.829733 0.059530 0.497716 0.132636 -0.857139
0.289568 0.791907 0.074073 0.878476 0.077876 -0.471397
0.294712 0.261844 0.110927 0.943409 -0.040354 0.329166
0.230734 0.111518 0.082707 0.391793 -0.869650 0.300346
0.298079 0.636859 0.089029 0.232402 0.111624 0.966193
0.230092 0.280637 0.067623 -0.806144 -0.015993 -0.591503
0.237534 0.154523 0.118338 -0.702942 -0.089014 0.705655
0.294977 0.696219 0.104729 0.923348 0.033834 0.382472
0.360659 0.915782 0.100701 0.096987 0.044082 0.994309
0.280328 0.113304 0.112535 0.035089 -0.855713 -0.516260
0.272810 0.397070 0.053771 0.353949 -0.003337 -0.935259
0.284399 0.695510 0.122303 0.627320 0.043266 0.777559
0.257220 0.875235 0.225864 -0.997941 0.001008 0.064131
0.273922 0.565408 0.131339 0.460846 0.022311 0.887200
0.221466 0.334982 0.096858 -0.998631 -0.008018 0.051685
0.356939 0.860146 0.098177 0.501139 -0.280115 -0.818776
0.188732 0.665090 0.086556 -0.137936 0.235599 0.962012
0.255164 0.753680 0.134695 -0.990068 0.010610 0.140187
0.281328 0.143505 0.063414 0.633650 -0.049511 -0.772034
0.317879 0.852084 0.102150 0.106783 0.033258 0.993726
0.464245 0.665600 0.086083 0.018826 0.120561 0.992527
0.234421 0.602250 0.061533 -0.676449 0.007595 -0.736451
0.269614 0.577452 0.053168 0.250888 0.006474 -0.967994
0.264853 0.119946 0.058780 0.237473 -0.055305 -0.969819
0.292210 0.795721 0.082305 0.959403 0.065156 -0.274409
0.303803 0.389094 0.080198 0.259746 -0.073220 -0.962897
0.244315 0.326462 0.152823 -0.591160 -0.044288 0.805337
0.268643 0.577691 0.052984 0.225973 0.006421 -0.974112
0.221658 0.397832 0.105591 -0.988697 -0.001607 0.149919
0.221194 0.847057 0.095488 -0.106467 0.115364 -0.987601
0.366198 0.659299 0.086857 0.115394 0.446676 0.887223
0.290980 0.828898 0.086606 0.976070 0.083433 -0.200816
0.231883 0.432948 0.127610 -0.663033 0.012956 0.748478
0.269954 0.775579 0.056573 0.516829 0.061858 -0.853851
0.277158 0.473333 0.055860 0.466404 0.000946 -0.884571
0.352477 0.504519 0.090867 0.131003 -0.006474 0.991361
0.290441 0.335467 0.068120 0.826030 -0.003876 -0.563612
0.135291 0.569496 0.089638 -0.035323 0.009791 0.999328
0.258370 0.896135 0.181948 -0.994476 0.104961 -0.001120
0.221719 0.534050 0.097220 -0.989832 0.002713 0.142214
0.298054 0.356746 0.092596 0.995960 -0.006582 0.089557
0.271753 0.406063 0.145223 0.955059 0.152288 0.254303
0.236029 0.513560 0.060385 -0.641479 0.002826 -0.767135
0.258436 0.889247 0.236369 -0.744033 -0.112860 0.658542
0.244135 0.157975 0.059572 -0.440809 -0.047950 -0.896319
0.295987 0.763758 0.095927 0.996604 0.008456 0.081905
0.207871 0.896012 0.097515 -0.002392 0.112751 -0.993620
0.129107 0.653273 0.087309 -0.009729 0.120769 0.992633
0.252404 0.390040 0.052696 -0.174219 -0.003061 -0.984702
0.150810 0.491134 0.089868 -0.165418 -0.034283 0.985627
0.223871 0.211169 0.087383 -0.994481 -0.036807 -0.098253
0.240543 0.217663 0.059217 -0.504394 -0.035386 -0.862748
0.257946 0.921560 0.219840 -0.997086 0.075689 -0.009475
0.264107 0.758434 0.143767 0.990301 0.000235 0.138938
0.334222 0.528578 0.080345 0.097099 0.026840 -0.994913
0.282237 0.753603 0.061928 0.635121 0.040569 -0.771347
0.240871 0.357551 0.056925 -0.484170 -0.004058 -0.874964
0.310632 0.457632 0.092167 0.157998 -0.003852 0.987432
0.222604 0.744732 0.090967 -0.996597 0.038996 -0.072621
0.293525 0.323396 0.072494 0.884104 -0.006204 -0.467249
0.232838 0.539986 0.062858 -0.703466 0.004592 -0.710714
0.143754 0.901719 0.097254 -0.194220 -0.066819 -0.978680
0.262261 0.844370 0.220029 0.986896 -0.033300 0.157885
0.219636 0.793403 0.094766 -0.281946 -0.016746 -0.959284
0.382128 0.515456 0.089625 0.135464 -0.022152 0.990535
0.177081 0.884186 0.101409 -0.106694 0.025710 0.993959
0.286804 0.776365 0.068510 0.784373 0.061974 -0.617185
0.249126 0.364227 0.053315 -0.256782 -0.004217 -0.966460
0.269619 0.880608 0.098315 0.078290 0.995375 0.055672
0.144655 0.560245 0.089936 -0.048790 0.011104 0.998747
0.371952 0.493094 0.089451 0.171476 -0.040347 0.984362
0.153428 0.454234 0.084490 -0.634107 -0.325590 -0.701356
0.242362 0.113626 0.073189 -0.302346 -0.934667 -0.187043
0.295077 0.273693 0.111270 0.942352 -0.034404 0.332851
0.256507 0.810862 0.188689 -0.992430 -0.006526 0.122634
0.157041 0.619302 0.089092 -0.054071 0.031155 0.998051
0.256546 0.699665 0.160060 -0.940414 -0.089547 0.328029
0.256597 0.752747 0.180686 -0.984318 -0.037430 0.172384
0.241563 0.131165 0.117970 -0.648871 -0.098676 0.754473
0.290459 0.112084 0.086088 0.994143 -0.072803 -0.079868
0.260444 0.778761 0.207829 0.255830 -0.221081 0.941103
0.314718 0.600499 0.081694 0.157740 0.064305 -0.985385
0.261396 0.162453 0.055739 0.066986 -0.042725 -0.996839
0.360273 0.510538 0.080580 0.120760 -0.009515 -0.992636
0.248475 0.402188 0.147912 -0.929240 0.155175 0.335311
0.245984 0.880608 0.109168 -0.093605 0.986142 0.136977
0.212982 0.784283 0.099914 -0.569979 -0.274632 0.774404
0.224292 0.481464 0.116111 -0.928643 0.009794 0.370845
0.429160 0.628998 0.083143 0.020923 0.057937 -0.998101
0.272219 0.597278 0.130645 0.460071 0.024866 0.887534
0.262724 0.806592 0.199037 0.988949 -0.028934 0.145405
0.283435 0.163861 0.118317 0.710583 -0.090379 0.697785
0.358188 0.879808 0.100372 0.231148 -0.070154 0.970386
0.077641 0.589690 0.083117 -0.111151 -0.042695 -0.992886
0.327730 0.661157 0.086741 0.299751 0.871376 0.388397
0.214779 0.487234 0.092124 -0.152941 0.016219 0.988102
0.262772 0.854103 0.198523 0.993455 -0.011717 0.113618
0.298512 0.877828 0.099705 -0.011159 0.055980 0.998370
0.285503 0.316319 0.061987 0.700178 -0.008030 -0.713923
0.262870 0.824037 0.187694 0.988978 -0.020840 0.146587
0.129910 0.502631 0.082339 -0.212029 -0.081363 -0.973870
0.233829 0.091602 0.102991 -0.949742 -0.086634 0.300808
0.285762 0.095056 0.075196 0.915740 -0.079705 -0.393786
0.225412 0.217659 0.079455 -0.957304 -0.032759 -0.287220
0.260871 0.923132 0.244832 0.432333 -0.059814 0.899728
0.423735 0.618134 0.088307 0.022505 0.051258 0.998432
0.221595 0.500545 0.095489 -0.988100 0.002116 0.153800
0.269610 0.063656 0.092213 0.159360 -0.985664 -0.055406
0.296962 0.253708 0.097793 0.996529 -0.031265 0.077150
0.235188 0.678853 0.123633 -0.567062 0.040164 0.822695
0.263832 0.742127 0.149028 0.995580 -0.006856 0.093663
0.168417 0.512470 0.080262 -0.079158 0.006593 -0.996840
0.055359 0.656999 0.084653 -0.018937 0.081011 -0.996533
0.238007 0.603591 0.058971 -0.608017 0.007164 -0.793891
0.184744 0.517155 0.091265 -0.107350 0.015464 0.994101
0.228453 0.246913 0.070893 -0.861410 -0.024347 -0.507326
0.186594 0.921520 0.098071 0.051548 0.134592 -0.989559
0.215262 0.503925 0.091784 -0.152091 0.018834 0.988187
0.268154 0.122951 0.060574 -0.263777 -0.964222 0.026399
0.106023 0.636988 0.083008 -0.016426 0.027512 -0.999487
0.306458 0.898204 0.099014 -0.029235 0.067457 0.997294
0.260210 0.951191 0.232890 0.985691 0.078372 -0.149233
0.147040 0.942359 0.097233 -0.051738 0.073138 -0.995979
0.235173 0.130923 0.067523 -0.677047 -0.060112 -0.733480
0.260754 0.696731 0.168128 0.691052 -0.117662 0.713164
0.256886 0.888565 0.212747 -0.999345 0.017460 0.031703
0.313082 0.546573 0.080522 0.140301 0.041060 -0.989257
0.257450 0.900095 0.202268 -0.998390 0.055634 0.011033
0.466512 0.670082 0.085332 0.014019 0.111504 -0.993665
0.194984 0.505880 0.079632 -0.109633 0.016350 -0.993838
0.289774 0.817451 0.077903 0.915492 0.097649 -0.390306
0.286464 0.879708 0.081155 0.867528 0.332213 -0.370176
0.293996 0.626803 0.113924 0.880117 0.023712 0.474164
0.369713 0.526764 0.090373 0.116732 -0.005736 0.993147
0.233642 0.190657 0.064831 -0.702009 -0.039456 -0.711074
0.176571 0.452225 0.080801 -0.185253 -0.048550 -0.981491
0.214148 0.476159 0.092348 -0.153046 0.014455 0.988113
0.265902 0.118010 0.121696 0.166057 -0.120062 0.978780
0.237329 0.565188 0.128493 -0.507121 0.027102 0.861448
0.261406 0.863304 0.136924 0.991439 0.130228 0.009450
0.279740 0.851758 0.067081 0.617807 0.158716 -0.770145
0.147755 0.509005 0.089993 -0.116819 -0.017575 0.992998
0.278909 0.802679 0.117219 0.625847 0.091940 0.774508
0.370344 0.591275 0.081902 0.050937 0.057767 -0.997030
0.462886 0.627644 0.083633 0.048528 0.001280 -0.998821
0.224961 0.191394 0.096637 -0.991059 -0.049174 0.124030
0.221710 0.875214 0.099819 -0.121582 0.056699 0.990961
0.259838 0.710610 0.179355 0.147936 -0.191558 0.970268
0.270728 0.285597 0.054113 0.293440 -0.019487 -0.955779
0.361354 0.557683 0.081239 0.061179 0.031538 -0.997628
0.259378 0.721127 0.033293 -0.952009 -0.009858 -0.305912
0.317579 0.416421 0.080340 0.222578 -0.055265 -0.973347
0.198670 0.812249 0.095974 -0.294515 -0.087067 -0.951672
0.259768 0.812118 0.043710 0.990296 0.012444 -0.138416
0.463907 0.625536 0.083607 0.057726 -0.011171 -0.998270
0.233154 0.844494 0.075050 -0.883949 0.151184 -0.442467
0.256011 0.762376 0.163915 -0.996070 -0.006555 0.088322
0.225339 0.408358 0.119296 -0.916282 0.001185 0.400533
0.268912 0.527796 0.053035 0.240535 0.003851 -0.970633
0.228211 0.717216 0.113034 -0.817595 0.038460 0.574508
0.241005 0.755144 0.122537 -0.528641 0.062182 0.846565
0.273817 0.083176 0.082640 0.154871 -0.969573 -0.189585
0.294762 0.691407 0.106085 0.916314 0.033000 0.399099
0.384623 0.617376 0.082325 0.022121 0.091534 -0.995556
0.222269 0.656890 0.101477 -0.983164 0.014505 0.182151
0.456498 0.668820 0.085270 0.014422 0.112597 -0.993536
0.371129 0.634099 0.088728 0.056752 0.109247 0.992393
0.199752 0.820932 0.095574 -0.266893 -0.046951 -0.962582
0.382134 0.903226 0.097427 0.541291 -0.043974 -0.839684
0.289287 0.261187 0.067785 0.782641 -0.021126 -0.622115
0.190617 0.458615 0.079995 -0.114759 -0.008081 -0.993361
0.263538 0.845797 0.122068 0.982435 0.104887 0.154338
0.188442 0.596358 0.081547 -0.105414 0.027032 -0.994061
0.240598 0.738363 0.122966 -0.521498 0.057639 0.851304
0.142803 0.519644 0.081343 -0.081321 -0.002002 -0.996686
0.380827 0.531473 0.089916 0.117755 -0.011230 0.992979
0.269052 0.104824 0.060657 0.397561 -0.064505 -0.915306
0.257569 0.888109 0.185781 -0.997481 0.070660 0.006283
0.227333 0.243055 0.114150 -0.893203 -0.056403 0.446102
0.405751 0.572587 0.081915 0.069789 0.014815 -0.997452
0.289314 0.134446 0.105147 0.903388 -0.082155 0.420881
0.195046 0.825897 0.095714 -0.263918 -0.051516 -0.963168
0.397962 0.615163 0.082450 0.014614 0.079776 -0.996706
0.255469 0.693076 0.141646 -0.989985 -0.000913 0.141171
0.251805 0.710995 0.128322 -0.432183 0.048125 0.900501
0.265135 0.199470 0.131064 0.205340 -0.126635 0.970463
0.325652 0.900450 0.099796 0.022592 0.053903 0.998291
0.259273 0.775583 0.042632 -0.952567 0.007010 -0.304248
0.449443 0.666112 0.085142 0.015603 0.108081 -0.994020
0.257343 0.843817 0.223628 -0.995118 -0.016040 0.097378
0.242577 0.471539 0.055707 -0.445392 0.000896 -0.895335
0.254064 0.318967 0.157019 -0.238834 -0.046643 0.969940
0.294092 0.791025 0.087860 0.976657 0.067917 -0.203786
0.134379 0.524988 0.081652 -0.090231 -0.002345 -0.995918
0.223116 0.238063 0.091178 -0.999305 -0.033551 -0.016215
0.152979 0.465498 0.089226 -0.260217 -0.092630 0.961097
0.300059 0.778184 0.095936 0.542617 -0.221369 -0.810285
0.382743 0.515780 0.081508 0.129564 -0.024045 -0.991279
0.283496 0.480642 0.129749 0.555062 0.018816 0.831596
0.379016 0.904883 0.099313 0.213212 -0.098998 0.971977
0.245725 0.094542 0.115689 -0.621256 -0.110018 0.775846
0.151633 0.887204 0.097201 -0.215853 -0.080744 -0.973082
0.227071 0.157166 0.076616 -0.926427 -0.046543 -0.373587
0.222439 0.486156 0.108342 -0.976973 0.004035 0.213326
0.262366 0.236203 0.146643 0.073785 -0.439944 0.894989
0.294931 0.340746 0.116110 0.902261 -0.004661 0.431165
0.286705 0.881032 0.098926 -0.104401 0.153204 0.982664
0.288997 0.852755 0.085568 0.971873 0.097142 -0.214537
0.319630 0.866096 0.101443 0.080945 0.039512 0.995935
0.206768 0.564416 0.090493 -0.133773 0.027367 0.990634
0.266087 0.222376 0.139461 0.108218 -0.421591 0.900305
0.117652 0.582579 0.082048 -0.025452 0.011570 -0.999609
0.219388 0.432227 0.079027 -0.151704 -0.004309 -0.988417
0.293552 0.218455 0.108745 0.939100 -0.052137 0.339667
0.221911 0.295499 0.104171 -0.976667 -0.028284 0.212891
0.423186 0.612321 0.088399 0.022349 0.045198 0.998728
0.262014 0.908936 0.232864 0.973414 -0.030887 0.226960
0.265153 0.144068 0.125140 0.154967 -0.112813 0.981457
0.165050 0.867554 0.096716 -0.231200 -0.071308 -0.970290
0.204068 0.898975 0.097490 -0.006859 0.108471 -0.994076
0.357775 0.870545 0.097521 0.507588 -0.234437 -0.829092
0.269789 0.216472 0.131581 0.793526 -0.254866 0.552594
0.226309 0.330491 0.121867 -0.911147 -0.010264 0.411953
0.198860 0.425556 0.080147 -0.183505 -0.039295 -0.982233
0.309379 0.860539 0.095681 0.126596 0.068210 -0.989606
0.042950 0.635156 0.084116 -0.103170 -0.052659 -0.993269
0.220622 0.422142 0.079114 -0.155116 -0.008839 -0.987857
0.139070 0.480044 0.083747 -0.466116 -0.234005 -0.853216
0.331847 0.664540 0.086464 0.284416 0.878164 0.384623
0.223244 0.757517 0.094604 -0.997064 0.022863 0.073073
0.261079 0.044113 0.094447 0.050187 -0.997668 0.046269
0.238337 0.128861 0.108609 -0.237961 -0.918073 0.317043
0.255302 0.726552 0.135311 -0.996411 0.001085 0.084636
0.287389 0.871373 0.096627 0.964115 0.163391 -0.209250
0.149757 0.455802 0.085721 -0.826704 -0.436381 0.355152
0.260573 0.897269 0.239858 0.395889 -0.164540 0.903437
0.241171 0.232821 0.058513 -0.488624 -0.031555 -0.871924
0.424093 0.571536 0.082555 0.094649 -0.020064 -0.995309
0.289907 0.542570 0.121943 0.735704 0.021519 0.676961
0.193416 0.830946 0.101073 -0.177705 -0.051071 0.982758
0.298054 0.396715 0.104511 0.999711 -0.000214 0.024054
0.415939 0.638947 0.088032 0.020804 0.087402 0.995956
0.217812 0.796298 0.094829 -0.279563 -0.018072 -0.959957
0.257912 0.797145 0.056267 -0.786676 0.033153 -0.616476
0.222803 0.589269 0.106345 -0.971758 0.012201 0.235662
0.221722 0.819590 0.102978 -0.134178 0.031103 0.990469
0.294582 0.632956 0.111619 0.905180 0.023301 0.424390
0.213603 0.583032 0.081170 -0.146578 0.024137 -0.988905
0.090756 0.625428 0.088124 -0.022092 0.020389 0.999548
0.296640 0.526847 0.107722 0.963583 0.012777 0.267104
0.260917 0.755375 0.048681 0.880352 0.024231 -0.473701
0.235550 0.331040 0.141980 -0.914764 -0.001604 0.403984
0.256485 0.824595 0.058226 -0.649362 0.047908 -0.758969
0.224755 0.570695 0.074329 -0.942325 0.000388 -0.334700
0.281137 0.271141 0.142309 0.902097 -0.123630 0.413445
0.285373 0.768175 0.065612 0.726374 0.052899 -0.685261
0.138153 0.598544 0.081939 -0.027393 0.024425 -0.999326
0.221466 0.396723 0.103547 -0.991248 -0.005179 0.131914
0.262902 0.742957 0.179184 0.979160 -0.044762 0.198097
0.273077 0.258138 0.055083 0.347806 -0.025836 -0.937211
0.279556 0.619255 0.126916 0.554206 0.028246 0.831900
0.373664 0.920500 0.100245 0.143481 -0.005005 0.989640
0.274993 0.796018 0.060013 0.482018 0.089396 -0.871589
0.258228 0.829082 0.226903 -0.927097 -0.107236 0.359153
0.238989 0.542858 0.130051 -0.465198 0.025803 0.884831
0.209036 0.444303 0.091972 -0.164604 -0.005083 0.986347
0.235637 0.238292 0.125551 -0.710846 -0.077165 0.699102
0.237581 0.773585 0.062986 -0.647488 0.061721 -0.759572
0.268486 0.080347 0.116364 0.218190 -0.129549 0.967269
0.258679 0.432500 0.051511 -0.013715 -0.001203 -0.999905
0.310605 0.449915 0.079231 0.155515 -0.010050 -0.987782
0.235601 0.318898 0.140725 -0.927283 -0.034552 0.372762
0.266993 0.198326 0.130799 0.271644 -0.124292 0.954338
0.215240 0.609434 0.081732 -0.151981 0.026458 -0.988029
0.295553 0.642165 0.107907 0.930673 0.021873 0.365198
0.247989 0.492081 0.053530 -0.290777 -0.000693 -0.956791
0.181992 0.871534 0.095340 -0.171779 0.047058 -0.984011
0.368397 0.632846 0.082488 0.055551 0.104155 -0.993008
0.243495 0.744046 0.123901 -0.506274 0.058759 0.860368
0.221668 0.659718 0.092428 -0.996854 0.011665 0.078393
0.266591 0.090413 0.061189 0.342390 -0.069671 -0.936971
0.345753 0.675109 0.085538 0.196851 0.660248 -0.724791
0.267382 0.547389 0.137564 0.976909 0.020747 0.212646
0.282303 0.104281 0.109443 -0.293067 -0.707880 -0.642664
0.279578 0.770132 0.061195 0.583213 0.057575 -0.810276
0.235202 0.407520 0.128988 -0.601092 0.015945 0.799021
0.256626 0.090105 0.107602 0.045030 -0.967149 0.250189
0.294894 0.399101 0.075171 0.912252 -0.001107 -0.409629
0.285293 0.324340 0.133598 0.969501 -0.030282 0.243210
0.360781 0.646463 0.087845 0.135470 0.422615 0.896127
0.240937 0.827054 0.115546 -0.575396 0.128158 0.807771
0.263356 0.837782 0.166991 0.995324 0.001491 0.096577
0.167463 0.653241 0.083839 -0.063448 0.106457 -0.992291
0.279742 0.688581 0.058436 0.529622 0.020342 -0.847989
0.102956 0.573779 0.082420 -0.052422 0.004750 -0.998614
0.221466 0.390861 0.091864 -0.399786 -0.046999 0.915403
0.108078 0.552848 0.088773 -0.118695 -0.028950 0.992509
0.062971 0.612831 0.083473 -0.086109 -0.030377 -0.995823
0.231955 0.753370 0.067401 -0.774274 0.040456 -0.631556
0.332406 0.656572 0.087116 0.278308 0.762769 0.583719
0.318259 0.422814 0.080192 0.205518 -0.044530 -0.977640
0.307630 0.464422 0.078891 0.137553 0.001970 -0.990492
0.434544 0.597710 0.088331 0.070726 -0.001393 0.997495
0.149555 0.889472 0.097336 -0.216732 -0.087259 -0.972324
0.218533 0.498820 0.079344 -0.146399 0.016054 -0.989095
0.353603 0.447629 0.089379 0.265656 -0.089674 0.959888
0.219851 0.561975 0.090615 -0.153433 0.028189 0.987757
0.229973 0.131316 0.080709 -0.217852 -0.966511 0.135633
0.091467 0.550761 0.086164 -0.500362 -0.273711 0.821414
0.266576 0.572161 0.140414 0.982938 0.022012 0.182617
0.184797 0.398515 0.085620 -0.885133 -0.459249 0.075040
0.261089 0.920838 0.210769 0.995650 0.064683 -0.067065
0.221717 0.533484 0.102070 -0.990921 0.002570 0.134417
0.242277 0.528318 0.131811 -0.412530 0.024878 0.910604
0.459835 0.651909 0.086713 0.026298 0.071545 0.997091
0.292709 0.702330 0.072845 0.872846 0.023956 -0.487407
0.279589 0.725147 0.123479 0.580119 0.051186 0.812922
0.339943 0.874333 0.095302 0.140923 0.011578 -0.989953
0.279761 0.446035 0.133419 0.480349 0.011261 0.877005
0.399087 0.548363 0.089297 0.109706 -0.014586 0.993857
0.363672 0.898254 0.100513 0.171636 -0.037328 0.984453
0.230425 0.114566 0.083449 0.293213 -0.908637 0.297329
0.276168 0.827754 0.063030 0.521874 0.129665 -0.843110
0.342795 0.867318 0.095556 0.189362 -0.039267 -0.981122
0.370916 0.462433 0.083645 0.492289 -0.249752 -0.833831
0.289369 0.285638 0.067240 0.776093 -0.015657 -0.630424
0.255699 0.773900 0.156418 -0.991177 0.003201 0.132503
0.252766 0.183022 0.055960 -0.206362 -0.041712 -0.977586
0.280388 0.491904 0.058168 0.557330 0.001920 -0.830289
0.262745 0.879251 0.206218 0.996427 -0.002159 0.084435
0.296890 0.248057 0.091843 0.998922 -0.028647 -0.036536
0.137385 0.948820 0.097919 -0.939796 0.038216 -0.339591
0.353913 0.659801 0.086820 0.182935 0.623413 0.760192
0.283447 0.648967 0.124976 0.593246 0.030305 0.804451
0.207903 0.828728 0.102142 -0.145875 0.000604 0.989303
0.251193 0.426601 0.136050 -0.973684 0.130691 0.186705
0.227040 0.502594 0.070975 -0.831559 0.002657 -0.555430
0.247219 0.267208 0.054695 -0.318810 -0.024032 -0.947514
0.232566 0.417552 0.063239 -0.709759 -0.001104 -0.704444
0.336081 0.630661 0.082341 0.121696 0.091774 -0.988316
0.233662 0.138966 0.105768 -0.310935 -0.902849 0.296956
0.305061 0.537853 0.091042 0.171395 0.042237 0.984297
0.275810 0.826370 0.117151 0.594672 0.107338 0.796771
0.268134 0.378748 0.155345 0.421458 0.070237 0.904124
0.192376 0.488619 0.079483 -0.110490 0.008741 -0.993839
0.339035 0.833439 0.098848 0.642829 -0.315453 0.698040
0.098943 0.653615 0.083938 -0.010345 0.087458 -0.996114
0.343683 0.535383 0.080585 0.083321 0.027008 -0.996157
0.272161 0.208725 0.056217 0.364235 -0.033821 -0.930693
0.228561 0.336815 0.068845 -0.822838 -0.004033 -0.568261
0.259468 0.835161 0.052413 -0.905719 0.031115 -0.422735
0.283930 0.141959 0.065195 0.713487 -0.052785 -0.698677
0.257543 0.911755 0.233304 -0.978286 -0.013935 0.206789
0.279349 0.449779 0.133762 0.467801 0.011774 0.883755
0.292666 0.815839 0.090493 0.979813 0.085817 -0.180561
0.431636 0.567852 0.083827 0.137796 -0.052104 -0.989089
0.281901 0.278486 0.141659 0.908224 -0.108751 0.404106
0.263179 0.855525 0.167089 0.998956 0.045586 -0.003104
0.190840 0.601637 0.081652 -0.110013 0.027363 -0.993553
0.246112 0.382578 0.150734 -0.756017 0.145953 0.638072
0.163005 0.504821 0.090626 -0.090402 -0.003286 0.995900
0.295281 0.629875 0.076847 0.921255 -0.001261 -0.388957
0.223867 0.561628 0.078755 -0.944612 -0.000070 -0.328190
0.227870 0.320117 0.070002 -0.844091 -0.006253 -0.536163
0.221836 0.621921 0.097157 -0.989950 0.004756 0.141339
0.215963 0.484994 0.079056 -0.140685 0.014951 -0.989941
0.298786 0.603390 0.081598 0.185926 0.070185 -0.980054
0.055259 0.612117 0.086626 -0.231998 -0.127784 0.964286
0.313608 0.572198 0.090241 0.169451 0.056026 0.983945
0.078982 0.652939 0.087084 -0.015560 0.088515 0.995953
0.221824 0.595941 0.097631 -0.990373 0.004099 0.138361
0.294102 0.162882 0.095717 0.991146 -0.057355 0.119747
0.294615 0.384603 0.073964 0.900489 -0.000742 -0.434877
0.238348 0.192623 0.122430 -0.654991 -0.085355 0.750801
0.117994 0.656915 0.087031 -0.010049 0.131802 0.991225
0.257042 0.798448 0.205152 -0.989938 -0.028979 0.138501
0.182339 0.467008 0.091014 -0.129539 -0.011477 0.991508
0.240201 0.423444 0.057404 -0.508350 -0.000999 -0.861150
0.263499 0.827745 0.157732 0.995002 0.002203 0.099831
0.291814 0.138018 0.099505 0.967178 -0.071651 0.243790
0.242889 0.753338 0.123354 -0.516668 0.061366 0.853984
0.231765 0.081199 0.085234 -0.927137 -0.120519 -0.354812
0.255637 0.814121 0.134023 -0.999566 0.018132 0.023235
0.265128 0.316167 0.052541 0.159487 -0.010736 -0.987142
0.289065 0.243752 0.067975 0.784402 -0.024922 -0.619752
0.221022 0.897764 0.098577 0.054876 0.093715 0.994086
0.242816 0.823516 0.063068 -0.562303 0.125621 -0.817334
0.257380 0.592358 0.150719 -0.463767 -0.013411 0.885856
0.356039 0.556729 0.090086 0.080131 0.033756 0.996213
0.254510 0.199392 0.131059 -0.168659 -0.144409 0.975039
0.296959 0.294864 0.085828 0.982211 -0.013615 -0.187285
0.338340 0.623820 0.082251 0.116995 0.084748 -0.989510
0.176495 0.474849 0.080420 -0.103318 -0.007430 -0.994621
0.224619 0.551859 0.114399 -0.917728 0.014658 0.396938
0.242602 0.433867 0.133854 -0.423551 0.020671 0.905637
0.269518 0.433235 0.136439 0.971407 0.066341 0.227963
0.262675 0.344896 0.158282 0.226282 0.019599 0.973865
0.067691 0.631606 0.083540 -0.026815 0.014301 -0.999538
0.278020 0.104283 0.113195 -0.104442 -0.695094 -0.711292
0.268227 0.128825 0.058802 0.332907 -0.053354 -0.941449
0.263011 0.773423 0.182413 0.990814 -0.022596 0.133333
0.362946 0.592817 0.081898 0.066126 0.057252 -0.996167
0.264379 0.763455 0.136146 0.983895 0.007360 0.178598
0.233500 0.550610 0.062191 -0.690291 0.005078 -0.723514
0.222345 0.286068 0.087218 -0.993364 -0.019124 -0.113413
0.264379 0.048728 0.093937 0.100721 -0.994884 0.007754
0.267024 0.804141 0.057708 0.583439 0.097615 -0.806269
0.370171 0.470224 0.088874 0.250391 -0.088175 0.964121
0.182436 0.613778 0.081943 -0.096986 0.029033 -0.994862
0.248583 0.091983 0.062470 0.383238 -0.487459 0.784546
0.357715 0.671635 0.085277 0.142979 0.516327 -0.844372
0.268116 0.057114 0.090380 0.124845 -0.990270 -0.061478
0.293780 0.839830 0.101624 0.059496 0.039179 0.997459
0.226550 0.204417 0.075059 -0.915362 -0.034611 -0.401141
0.420518 0.629840 0.083018 0.019251 0.069265 -0.997413
0.234995 0.374854 0.061123 -0.648783 -0.002800 -0.760968
0.225942 0.252916 0.074445 -0.913434 -0.022856 -0.406345
0.234295 0.077840 0.101337 0.822267 -0.244286 -0.514005
0.366122 0.569127 0.081532 0.057246 0.035153 -0.997741
0.233200 0.155237 0.066748 -0.723260 -0.049643 -0.688790
0.225194 0.705823 0.075915 -0.903420 0.033281 -0.427464
0.256213 0.762199 0.170382 -0.995327 -0.009088 0.096129
0.292571 0.839719 0.095369 0.137812 0.069757 -0.987999
0.261277 0.119853 0.058236 0.123087 -0.055623 -0.990836
0.254602 0.584755 0.144872 -0.967848 0.017018 0.250960
0.296319 0.570494 0.080868 0.177885 0.056487 -0.982429
0.204764 0.644159 0.088389 -0.125685 0.081966 0.988678
0.224185 0.217294 0.096683 -0.992519 -0.043386 0.114123
0.396167 0.592898 0.082104 0.013912 0.056807 -0.998288
0.212968 0.801704 0.101587 -0.186964 -0.053597 0.980904
0.227683 0.725811 0.072438 -0.861312 0.032180 -0.507057
0.224017 0.681902 0.078050 -0.917103 0.040159 -0.396623
0.240025 0.601086 0.057530 -0.566961 0.006728 -0.823717
0.377113 0.496106 0.082141 0.176533 -0.052404 -0.982899
0.223204 0.398297 0.079374 -0.173595 -0.024648 -0.984509
0.291725 0.795665 0.080537 0.952024 0.063852 -0.299288
0.253918 0.379736 0.156519 -0.447141 0.070858 0.891653
0.339870 0.470257 0.080246 0.152057 -0.019969 -0.988170
0.294038 0.668958 0.073525 0.864688 0.012400 -0.502156
0.292852 0.457624 0.071496 0.850667 -0.000315 -0.525706
0.350424 0.559090 0.081161 0.080625 0.035445 -0.996114
0.379157 0.940432 0.096660 0.085906 0.049894 -0.995053
0.154639 0.543075 0.080862 -0.057475 0.011902 -0.998276
0.257204 0.909593 0.217916 -0.999212 0.036035 0.016617
0.157416 0.504998 0.090369 -0.094847 -0.008537 0.995455
0.249460 0.413781 0.139687 -0.976489 0.156586 0.148158
0.222745 0.698741 0.086022 -0.986312 0.027199 -0.162632
0.408014 0.537485 0.088206 0.155847 -0.048003 0.986614
0.274148 0.529919 0.133090 0.430805 0.018446 0.902257
0.133473 0.611217 0.089010 -0.022485 0.023812 0.999464
0.372511 0.505617 0.081197 0.134166 -0.022606 -0.990701
0.262419 0.866648 0.218306 0.992518 -0.018617 0.120670
0.145222 0.522382 0.090040 -0.082813 -0.008368 0.996530
0.331094 0.907253 0.099686 0.024263 0.054621 0.998212
0.243612 0.199966 0.127412 -0.457989 -0.105946 0.882622
0.271111 0.246864 0.149006 0.765361 -0.280090 0.579458
0.272614 0.095896 0.063531 -0.443784 -0.556639 0.702288
0.235955 0.852565 0.071731 -0.816472 0.162344 -0.554092
0.222583 0.491900 0.108793 -0.974937 0.004502 0.222437
0.283049 0.278838 0.137199 0.957423 -0.109768 0.267006
0.262577 0.907535 0.221272 0.998175 0.003900 0.060268
0.244163 0.585149 0.054574 -0.453021 0.005759 -0.891481
0.183332 0.889883 0.095967 -0.109410 0.076693 -0.991034
0.205864 0.471950 0.079091 -0.128738 0.008246 -0.991644
0.259824 0.784379 0.044965 0.983360 0.016721 -0.180899
0.365729 0.936765 0.097297 0.014725 0.082627 -0.996472
0.166302 0.631801 0.088886 -0.066801 0.033961 0.997188
0.246543 0.443111 0.053803 -0.329728 -0.000435 -0.944076
0.253689 0.053982 0.094374 -0.070879 -0.994589 0.075951
0.146537 0.613321 0.089157 -0.038854 0.029228 0.998817
0.204825 0.577198 0.090220 -0.129672 0.029157 0.991128
0.274105 0.105133 0.106437 0.338689 -0.936424 0.091647
0.257251 0.874310 0.227190 -0.997758 -0.000406 0.066918
0.184021 0.497492 0.091531 -0.111503 0.008049 0.993732
0.239615 0.145124 0.118558 -0.669295 -0.093709 0.737064
0.221535 0.322568 0.098651 -0.993800 -0.015281 0.110127
0.261900 0.376382 0.051711 0.074736 -0.004476 -0.997193
0.291560 0.159634 0.105758 0.924921 -0.070111 0.373638
0.191435 0.582005 0.081228 -0.109039 0.025511 -0.993710
0.148138 0.543154 0.090242 -0.057293 0.006705 0.998335
0.279014 0.518244 0.057186 0.514139 0.003248 -0.857701
0.264757 0.401927 0.155464 0.324205 0.057560 0.944234
0.274429 0.117197 0.061941 0.517142 -0.060536 -0.853756
0.234524 0.136604 0.067621 -0.701135 -0.058297 -0.710641
0.290189 0.319901 0.067869 0.814362 -0.007023 -0.580315
0.306024 0.534042 0.080183 0.147685 0.037633 -0.988318
0.381270 0.493479 0.082519 0.198118 -0.068277 -0.977797
0.243614 0.822422 0.117822 -0.497007 0.140326 0.856325
0.228241 0.735640 0.072001 -0.856110 0.035325 -0.515585
0.196411 0.832536 0.101232 -0.164179 -0.037230 0.985728
0.257681 0.922393 0.225325 -0.998239 0.059303 -0.001712
0.316954 0.527269 0.080146 0.126373 0.031413 -0.991485
0.151362 0.553081 0.090158 -0.058580 0.011852 0.998212
0.226951 0.551951 0.071100 -0.834423 0.005243 -0.551099
0.298036 0.517117 0.095064 0.991221 0.003831 0.132162
0.223881 0.375201 0.113370 -0.960264 -0.005421 0.279039
0.247184 0.413204 0.053682 -0.310861 -0.001854 -0.950454
0.141628 0.926069 0.096805 -0.136679 -0.000254 -0.990615
0.287373 0.141232 0.110015 0.842745 -0.086858 0.531260
0.267975 0.619396 0.131034 0.560151 0.024834 0.828018
0.054577 0.641162 0.087272 -0.024186 0.026567 0.999354
0.308989 0.653905 0.083806 0.289362 0.587860 -0.755441
0.330689 0.823471 0.097512 0.747212 -0.348548 -0.565852
0.379020 0.660171 0.084417 0.049457 0.248143 -0.967460
0.279032 0.128290 0.115053 0.377024 -0.908250 -0.181478
0.181665 0.471007 0.080237 -0.102345 -0.007059 -0.994724
0.234132 0.328246 0.133832 -0.885003 0.047546 0.463151
0.228230 0.832714 0.088553 -0.985507 0.118072 -0.121796
0.144859 0.933070 0.100299 -0.083501 0.026554 0.996154
0.293372 0.520630 0.072224 0.864673 -0.000523 -0.502334
0.260793 0.847568 0.236071 0.176223 -0.274382 0.945336
0.287251 0.131422 0.104861 0.327742 -0.906272 -0.266938
0.092871 0.624496 0.088170 -0.021963 0.020428 0.999550
0.257886 0.876567 0.232272 -0.935801 -0.055764 0.348091
0.275342 0.342352 0.152751 0.634731 0.059757 0.770419
0.360778 0.622026 0.088957 0.080908 0.092658 0.992405
0.342675 0.491868 0.091147 0.139107 -0.006892 0.990253
0.283988 0.190376 0.063167 0.658072 -0.036551 -0.752067
0.150601 0.587025 0.089660 -0.048982 0.023635 0.998520
0.286542 0.879266 0.096984 0.984027 0.161379 -0.075145
0.201203 0.484473 0.079219 -0.121015 0.011438 -0.992585
