0.295493 0.125168 0.738675 -0.020837 -0.871298 -0.490311
0.402054 0.072737 0.441116 0.603839 0.797098 -0.003622
0.233115 0.114239 0.608404 0.107308 -0.991627 0.071841
0.173838 0.106216 0.428188 -0.260961 -0.964236 -0.046342
0.323949 0.142186 0.706013 -0.762393 -0.647030 -0.010422
0.265821 0.143217 0.683568 0.733744 -0.679359 -0.009521
0.203184 0.105958 0.402535 0.645312 -0.763593 0.022320
0.310109 0.084621 0.885437 -0.502928 0.854199 -0.131938
0.430322 0.095740 0.078608 -0.001374 0.991987 0.126330
0.331122 0.103587 0.361322 0.639911 -0.768342 0.012805
0.223676 0.119281 0.221880 0.968921 -0.195619 -0.151411
0.152870 0.126954 0.290350 -0.437282 -0.158720 0.885208
0.354516 0.117218 0.548906 -0.157785 0.944305 -0.288778
0.446435 0.098194 0.077442 0.047547 -0.995467 0.082370
0.325361 0.082081 0.656495 -0.567623 0.823261 -0.006787
0.441741 0.080330 0.309814 -0.998129 0.056933 -0.022304
0.424920 0.098417 0.085318 0.055757 -0.994217 0.091777
0.119658 0.099192 0.095792 0.026942 -0.994727 0.098960
0.326751 0.103267 0.115554 0.158390 -0.984363 -0.077085
0.187301 0.093816 0.153830 -0.057622 0.997641 0.037309
0.252784 0.124163 0.430342 -0.299752 0.923475 -0.239465
0.193904 0.064150 0.239584 0.990617 0.134961 0.021521
0.287706 0.105928 0.207744 -0.088763 -0.995906 -0.017071
0.278535 0.108474 0.751804 -0.795935 -0.279245 -0.537131
0.285513 0.072811 0.632255 0.744304 0.615933 -0.258143
0.281419 0.076771 0.513023 0.980525 0.145594 0.131808
0.255215 0.080229 0.565056 0.902735 0.148736 -0.403666
0.099960 0.084985 0.218408 0.725680 0.673342 -0.141418
0.224233 0.140489 0.118420 0.998455 -0.013810 0.053833
0.195295 0.053028 0.253124 0.946700 0.320538 0.031842
0.332440 0.121785 0.428144 0.006192 0.999974 -0.003629
0.168900 0.123105 0.378054 0.013726 -0.999370 0.032717
0.298491 0.083729 0.202811 -0.234286 -0.951907 -0.197439
0.126964 0.095161 0.114120 0.001088 0.999400 0.034630
0.206013 0.083874 0.549797 -0.933461 -0.116988 -0.339064
0.307914 0.080601 0.838561 -0.382663 0.923845 0.008903
0.201494 0.103933 0.091747 0.000000 -1.000000 0.000000
0.228262 0.044752 0.214855 0.982127 0.185001 0.034668
0.376424 0.106608 0.257615 -0.296902 -0.954897 -0.004632
0.233820 0.145851 0.173496 -0.990755 -0.101317 -0.090214
0.398946 0.080462 0.462956 0.974775 -0.218407 -0.045969
0.311881 0.113815 0.506938 -0.110024 -0.991867 0.063993
0.310597 0.083580 0.877386 -0.472731 0.873180 -0.118665
0.361835 0.041076 0.425441 -0.030579 0.994158 -0.103508
0.310047 0.103329 0.678016 0.760161 -0.315306 -0.568099
0.387886 0.103021 0.431706 -0.879164 -0.476515 0.001809
0.401560 0.114587 0.272841 0.118591 -0.989858 0.078215
0.136588 0.111418 0.205733 -0.109599 0.992161 0.060036
0.293836 0.093126 0.266310 -0.112091 -0.993523 0.018651
0.447986 0.126954 0.298340 -0.916141 -0.384660 0.112797
0.284332 0.093126 0.319386 -0.301374 -0.947368 0.108020
0.290129 0.093126 0.272739 -0.195216 -0.979940 0.040109
0.392262 0.131183 0.382815 0.108864 0.992975 -0.046359
0.147626 0.097167 0.415998 0.993100 -0.115503 0.020264
0.071887 0.113755 0.136991 -0.074259 -0.996137 0.046868
0.373823 0.105342 0.450094 -0.236799 -0.970737 -0.039939
0.303743 0.105502 0.951929 -0.876136 -0.310470 -0.368774
0.282632 0.146267 0.553980 0.108790 -0.991216 0.075200
0.153376 0.107689 0.487088 -0.646960 -0.732958 0.210275
0.302159 0.112634 0.754984 -0.119471 0.989747 -0.078273
0.304949 0.127384 0.824184 -0.030525 -0.059012 0.997790
0.258846 0.121881 0.792053 0.966597 -0.251046 -0.051626
0.382048 0.102792 0.559619 0.994788 0.068815 0.075238
0.386306 0.064372 0.120624 -0.858247 0.476458 0.190788
0.330098 0.089603 0.780692 -0.964289 0.259038 -0.055190
0.232638 0.171141 0.092890 -0.995855 -0.017656 0.089221
0.121374 0.111129 0.199172 -0.087348 0.995026 0.047886
0.286224 0.114124 0.518670 -0.061369 -0.994210 0.088206
0.501179 0.096047 0.055490 -0.059020 0.991666 0.114522
0.276499 0.121785 0.362018 0.001929 0.999486 -0.032010
0.249541 0.120831 0.580394 0.135561 0.988374 0.068842
0.229898 0.162925 0.177586 -0.507400 -0.642383 -0.574360
0.177705 0.129957 0.486971 -0.129299 0.991359 0.022126
0.242375 0.091326 0.221750 0.982945 0.173448 0.061118
0.213009 0.108064 0.209034 0.323313 -0.946104 -0.018833
0.101135 0.083707 0.129620 0.677629 0.735069 0.022202
0.225217 0.183286 0.132335 0.985247 -0.149254 -0.083738
0.253511 0.113889 0.557316 -0.138853 -0.986197 0.090197
0.225729 0.129432 0.101380 0.994849 0.005460 0.101223
0.183333 0.111848 0.430111 -0.916909 -0.395557 0.053042
0.050685 0.110222 0.198090 0.122808 0.992136 -0.024169
0.206034 0.102683 0.551301 -0.973783 -0.097552 -0.205500
0.250216 0.114222 0.471120 0.037662 -0.997939 -0.051947
0.256640 0.097286 0.674596 0.985615 0.168817 -0.008039
0.530258 0.114713 0.153287 0.025227 -0.999200 0.031018
0.266185 0.143447 0.555710 0.787070 -0.616861 -0.001827
0.410043 0.093471 0.229010 -0.148124 0.977735 -0.148639
0.362763 0.196436 0.079782 -0.997326 -0.037202 0.062897
0.355475 0.166608 0.102333 0.998431 -0.018469 0.052863
0.232833 0.038576 0.402498 -0.028123 0.995788 -0.087264
0.176541 0.124120 0.418823 0.039413 -0.998882 0.026114
0.350438 0.117084 0.644315 0.016852 -0.992396 0.121930
0.395823 0.071511 0.271306 -0.999840 -0.011254 0.013893
0.255027 0.119525 0.614054 0.119504 0.991593 0.049616
0.356286 0.175310 0.088840 0.997546 -0.014137 0.068567
0.268178 0.114036 0.211685 -0.012268 0.992911 -0.118226
0.321245 0.070791 0.273746 0.999951 -0.007593 0.006271
0.373105 0.125235 0.605528 -0.161623 0.983326 0.083360
0.280119 0.104409 0.308306 -0.634853 0.772457 0.016506
0.341584 0.082187 0.152862 -0.913709 -0.403037 0.051929
0.274213 0.156994 0.658063 0.792206 -0.603007 0.093769
0.200557 0.093009 0.188728 -0.018056 0.999477 0.026820
0.150535 0.099733 0.115119 0.009364 -0.995722 0.091921
0.180816 0.083729 0.567516 0.439632 0.893443 -0.092104
0.350575 0.125339 0.401435 -0.238974 0.970251 -0.038801
0.309213 0.111332 0.412738 -0.094900 -0.994973 0.031988
0.321894 0.066501 0.263465 0.997319 0.072092 0.012538
0.247600 0.118549 0.568001 -0.195973 0.959857 -0.200670
0.369660 0.036398 0.245179 -0.178633 0.981913 0.062745
0.245210 0.056866 0.522057 -0.061727 0.966421 -0.249438
0.274879 0.119638 0.282214 0.010111 0.997969 -0.062888
0.086882 0.109788 0.272461 0.121813 0.991991 -0.033391
0.145173 0.110486 0.268450 -0.053762 0.998353 0.020019
0.217460 0.034722 0.327509 0.204068 0.978854 -0.014214
0.405493 0.083729 0.507462 0.803205 0.594755 -0.033584
0.263806 0.140841 0.646533 0.802120 -0.597121 -0.007038
0.281221 0.121735 0.551016 0.012829 0.999603 0.025090
0.440801 0.105279 0.424837 -0.932272 -0.361590 0.010987
0.437152 0.122378 0.393747 -0.128177 -0.991630 -0.015507
0.324172 0.116805 0.250379 0.103193 0.993257 -0.052830
0.253129 0.113519 0.459163 -0.472771 -0.880777 0.026835
0.278528 0.069249 0.308201 0.865074 0.500010 -0.040464
0.352126 0.114666 0.095695 0.237339 -0.968706 0.072654
0.354355 0.119065 0.131306 0.998426 -0.009772 0.055221
0.279993 0.121785 0.393299 0.003721 0.999793 -0.020025
0.257340 0.124563 0.616408 0.971900 -0.235375 -0.003108
0.329380 0.052172 0.435213 0.887861 0.452531 -0.083178
0.380653 0.111538 0.559378 -0.917723 -0.393248 -0.056037
0.218697 0.086726 0.234406 -0.973784 -0.218442 0.063458
0.293284 0.119949 0.438931 0.852891 0.454519 -0.256884
0.298111 0.115258 0.777862 -0.067831 0.991808 -0.108239
0.391120 0.094164 0.169245 -0.909015 -0.416074 0.023961
0.346290 0.112252 0.363011 -0.081335 -0.992901 -0.086790
0.260154 0.053432 0.181635 -0.861863 0.499260 0.089058
0.214942 0.108251 0.361617 0.190028 -0.981317 0.030116
0.283448 0.094406 0.187602 0.587108 -0.808378 0.042770
0.259512 0.085442 0.709127 0.818810 0.574035 -0.005939
0.394458 0.058918 0.336772 -0.981766 0.189768 -0.011131
0.307220 0.076928 0.619869 -0.979663 0.145701 -0.137955
0.107221 0.089391 0.186519 -0.952726 -0.303426 -0.015662
0.436559 0.066830 0.220449 0.687239 0.706072 -0.170778
0.403998 0.130563 0.405086 0.119572 0.992294 -0.032492
0.223819 0.071310 0.128104 -0.337589 -0.938871 0.067489
0.257733 0.106081 0.223670 -0.239087 -0.969867 0.046850
0.359784 0.241123 0.069190 -0.088818 -0.994867 -0.048493
0.342713 0.115955 0.625187 -0.034263 -0.994679 0.097157
0.394182 0.083320 0.238302 -0.984123 -0.175976 0.023093
0.276178 0.083665 0.340320 0.967526 -0.248621 -0.045616
0.171521 0.108500 0.397815 0.031704 0.999366 -0.016196
0.212771 0.116474 0.631097 -0.871948 0.462084 0.161820
0.400143 0.108289 0.403102 0.022921 0.999737 -0.000368
0.303611 0.102094 0.536251 0.697477 0.713962 -0.061513
0.308003 0.105555 0.193597 -0.050465 -0.997502 -0.049424
0.365268 0.129792 0.530688 -0.192818 0.980704 0.032251
0.325453 0.115966 0.360890 0.150592 -0.984793 0.086629
0.356836 0.208587 0.118162 0.977671 -0.181085 -0.106621
0.364927 0.108534 0.235811 -0.122945 -0.992314 -0.014082
0.146184 0.125544 0.294683 0.000000 1.000000 0.000000
0.360470 0.114648 0.467357 -0.039411 -0.997807 0.053176
0.437982 0.087604 0.178942 0.992814 -0.110059 0.046977
0.284976 0.073137 0.631107 0.790091 0.560442 -0.248317
0.230502 0.170019 0.064377 -0.988732 0.007724 0.149500
0.207523 0.110183 0.559221 0.986819 -0.147933 -0.065603
0.317238 0.131565 0.792458 -0.967561 0.216915 -0.129516
0.360197 0.039928 0.209214 -0.976918 0.205792 0.057274
0.427137 0.095523 0.086584 -0.001111 0.992867 0.119226
0.361778 0.116089 0.637046 -0.077638 -0.993930 0.077944
0.455976 0.109570 0.410210 -0.181962 0.980458 -0.074784
0.285784 0.121785 0.525102 0.010585 0.999800 0.016962
0.229203 0.112974 0.311486 -0.135070 0.989919 0.042626
0.227748 0.232210 0.038347 0.988508 -0.007256 0.150993
0.190265 0.069281 0.433304 -0.648646 -0.760364 0.033258
0.195219 0.067135 0.167976 0.978716 0.198489 0.052124
0.400422 0.092643 0.193417 0.000909 0.999835 0.018168
0.162743 0.109196 0.332603 -0.032944 0.999394 0.011196
0.324293 0.094966 0.843461 -0.970680 0.233792 -0.055876
0.377014 0.085218 0.111419 0.961409 -0.260106 0.089658
0.231423 0.102595 0.213116 0.136996 0.988790 0.059379
0.381912 0.090171 0.563739 0.995995 0.042798 0.078501
0.481579 0.111992 0.147231 0.160714 -0.979008 0.125358
0.292450 0.093126 0.184190 0.016336 -0.998124 -0.059000
0.326831 0.095756 0.426910 0.975944 -0.215853 -0.030663
0.544410 0.111778 0.115409 -0.320193 0.924232 0.208019
0.265056 0.089499 0.369286 -0.980245 -0.197324 -0.013546
0.181958 0.070755 0.423771 -0.075499 0.996738 0.028511
0.297561 0.120930 0.323082 -0.079025 -0.986930 0.140443
0.130317 0.114796 0.420003 0.902565 -0.246625 -0.352918
0.342386 0.078962 0.438124 -0.996102 -0.050813 -0.072108
0.099209 0.099610 0.132711 0.172384 -0.975329 -0.137905
0.146631 0.125544 0.311472 0.175131 -0.143497 -0.974032
0.376474 0.069712 0.475644 0.900271 -0.410576 -0.144708
0.252826 0.103665 0.306494 -0.455927 -0.889919 0.013215
0.283764 0.066343 0.354365 0.634988 0.727201 -0.260710
0.431858 0.069063 0.292284 0.990189 0.099555 -0.098052
0.258571 0.052485 0.166813 -0.816439 0.568187 0.102910
0.255174 0.103443 0.332075 -0.526048 -0.850030 0.026893
0.316421 0.147112 0.726642 -0.657921 -0.753041 -0.008354
0.216258 0.103019 0.103507 -0.689413 0.717484 0.099630
0.376042 0.093319 0.154889 0.971787 0.229976 0.052351
0.235431 0.078291 0.226010 0.501947 -0.862625 0.062675
0.103243 0.075961 0.203289 0.726708 0.686885 -0.009156
0.332014 0.108083 0.317475 0.123588 -0.992175 -0.017717
0.280119 0.103595 0.292426 -0.713628 0.700499 0.005969
0.204833 0.103072 0.111380 0.810717 -0.582766 0.055864
0.280119 0.120467 0.886662 -0.656043 -0.720203 0.225644
0.214751 0.104231 0.423976 -0.968473 0.235852 -0.080213
0.079084 0.109789 0.194562 -0.019016 0.999719 0.014161
0.325307 0.092864 0.833051 -0.973605 0.228037 -0.009641
0.323001 0.110441 0.391385 -0.066789 -0.997766 -0.001467
0.370596 0.111627 0.479648 0.059403 0.993677 -0.095272
0.408506 0.120126 0.358529 0.814298 0.076892 -0.575331
0.329627 0.089121 0.785354 -0.953276 0.295972 -0.060540
0.393851 0.054100 0.350614 -0.970033 0.241864 -0.023190
0.235729 0.067781 0.473796 0.057771 -0.992368 -0.108941
0.255428 0.105242 0.196393 -0.269399 -0.962178 0.040462
0.436570 0.111057 0.227332 0.119690 0.989416 0.082042
0.277465 0.160405 0.775648 0.714118 -0.688863 -0.124511
0.331801 0.089848 0.707653 -0.972641 0.232006 -0.011975
0.245214 0.108714 0.205457 -0.273714 -0.961692 -0.015107
0.395509 0.115953 0.297102 0.104194 -0.991960 0.071833
0.146687 0.075699 0.195528 0.982996 0.183019 0.014964
0.281307 0.114070 0.646257 0.159681 0.982570 0.095173
0.301373 0.093150 0.569882 -0.425212 -0.905074 -0.005996
0.372699 0.131183 0.339673 0.054236 0.992701 -0.107722
0.255370 0.127046 0.437469 -0.954812 -0.109504 0.276304
0.105219 0.083396 0.268508 0.156354 -0.983029 -0.095958
0.389908 0.093616 0.164996 0.070894 0.996040 0.053659
0.253463 0.061468 0.549922 0.413997 0.782158 -0.465656
0.395404 0.064802 0.309792 -0.995507 0.094653 0.002444
0.146773 0.113389 0.412802 -0.771667 -0.520632 -0.365338
0.156321 0.073975 0.270924 -0.923582 -0.379175 -0.056769
0.253790 0.038905 0.365980 -0.457403 0.887960 -0.048059
0.386559 0.102668 0.488419 -0.991034 -0.116262 -0.065834
0.368795 0.111982 0.431213 -0.142605 -0.988298 0.054140
0.244882 0.095381 0.180461 0.924337 0.377535 0.055395
0.265851 0.108970 0.325861 -0.099845 -0.993740 0.050120
0.178631 0.130023 0.499075 -0.145595 0.988825 0.032045
0.317630 0.139893 0.533790 -0.597531 -0.793306 0.116715
0.386361 0.053782 0.457617 -0.869816 0.485560 -0.087475
0.283016 0.078463 0.819270 0.178454 0.983885 -0.011185
0.436534 0.118791 0.296448 0.046744 -0.997454 0.053866
0.287108 0.111870 0.433168 -0.077148 -0.995213 0.060000
0.312887 0.121309 0.303251 0.014874 0.998780 -0.047082
0.208710 0.110252 0.576349 0.994674 -0.086269 -0.056410
0.064292 0.111159 0.125712 -0.050302 0.993403 0.103055
0.248478 0.108965 0.139337 -0.420788 -0.907030 -0.015293
0.150491 0.078801 0.238704 -0.174739 -0.984600 0.005370
0.290268 0.132777 0.410063 0.186032 -0.973430 0.133518
0.298796 0.107221 0.268804 0.180993 0.983102 0.027420
0.243007 0.102408 0.150569 0.688982 0.722976 0.051085
0.278173 0.143324 0.499496 0.660558 -0.743996 0.100659
0.377578 0.079836 0.480049 0.995525 -0.038423 -0.086337
0.286511 0.125533 0.667735 -0.078281 0.436461 0.896311
0.263457 0.081259 0.412575 -0.998317 -0.042824 -0.039107
0.232061 0.131372 0.099566 -0.992580 0.021125 0.119748
0.302647 0.110630 0.168810 0.060404 0.992550 -0.105811
0.248500 0.086320 0.087042 0.966146 -0.227486 0.121707
0.074135 0.099324 0.094202 0.043114 -0.999055 -0.005519
0.335084 0.111468 0.458822 0.081337 -0.996442 0.022079
0.448224 0.100705 0.182262 -0.189762 -0.972246 -0.136851
0.214968 0.118234 0.520795 0.038747 -0.999154 -0.013807
0.256384 0.101725 0.599559 0.985137 0.171724 -0.004000
0.341012 0.081438 0.079145 -0.932351 -0.337003 0.130958
0.286344 0.065655 0.562159 0.503396 0.864002 0.009600
0.257985 0.056021 0.464559 -0.913382 0.397861 -0.086255
0.393587 0.091633 0.344174 -0.966744 -0.255719 -0.003702
0.411966 0.083085 0.391605 0.636107 -0.771204 -0.024737
0.328630 0.065803 0.457434 0.990831 0.117503 -0.066682
0.202268 0.099017 0.503283 0.981628 -0.175403 -0.075105
0.454219 0.114119 0.215472 0.100793 -0.991795 0.078638
0.280119 0.143699 0.738115 -0.343827 0.915703 -0.208014
0.412524 0.106113 0.425892 0.260239 -0.964756 -0.039016
0.269651 0.096297 0.883477 0.934854 0.314394 -0.164937
0.439074 0.089367 0.206464 0.870261 -0.477321 0.121695
0.275245 0.118462 0.599760 0.109083 0.988210 0.107438
0.388960 0.118136 0.333897 0.701417 -0.050598 -0.710953
0.276460 0.112286 0.448947 -0.051254 -0.996015 0.072986
0.162879 0.128623 0.406630 -0.173291 0.983928 -0.043072
0.292137 0.123115 0.607122 -0.325931 -0.166860 -0.930552
0.179157 0.130088 0.457916 -0.104598 0.994471 0.009317
0.210427 0.107659 0.358660 0.255075 -0.966516 0.027984
0.271259 0.112058 0.186790 -0.007575 0.991262 -0.131692
0.277209 0.148291 0.787108 0.578127 -0.813521 -0.062875
0.450768 0.126936 0.301383 -0.982114 0.039707 -0.184052
0.299349 0.061470 0.235241 -0.279676 0.960078 0.005571
0.370714 0.082441 0.202162 0.859560 -0.507644 0.058767
0.438654 0.080776 0.401215 0.534500 -0.843125 0.058744
0.409806 0.101147 0.156700 0.013366 -0.998953 0.043750
0.253225 0.097625 0.561744 0.995356 0.057959 0.076863
0.200901 0.088107 0.485615 0.994504 -0.072970 -0.075082
0.226134 0.212781 0.102195 0.984925 -0.154130 -0.078531
0.299492 0.154781 0.671872 -0.517373 -0.286886 0.806239
0.371330 0.118330 0.528569 -0.375769 -0.923679 -0.074930
0.373039 0.061599 0.555331 0.317347 -0.237249 -0.918152
0.236347 0.118750 0.372501 -0.104332 -0.989630 0.098727
0.354798 0.109317 0.228084 0.067865 -0.997475 -0.020946
0.170694 0.098568 0.088916 -0.015695 -0.991226 0.131240
0.341678 0.057784 0.111134 0.493704 0.824535 0.276401
0.212020 0.116532 0.610661 -0.573900 0.809890 0.121315
0.282998 0.124968 0.668018 -0.081279 0.422765 0.902587
0.288598 0.094339 0.672712 -0.255062 -0.674848 -0.692476
0.227171 0.157584 0.073688 0.992679 0.007938 0.120518
0.419720 0.099206 0.106027 0.044008 -0.995944 0.078482
0.385511 0.110434 0.612785 0.515744 -0.800579 0.305093
0.242644 0.037472 0.383884 -0.162671 0.984149 -0.070632
0.200773 0.055535 0.142613 0.795226 0.597160 0.104960
0.274299 0.103603 0.119582 -0.093256 -0.995109 -0.032572
0.365181 0.111742 0.155818 -0.113291 -0.993071 -0.031225
0.214741 0.043133 0.435170 0.213539 0.970614 -0.110951
0.381425 0.070383 0.539242 0.983850 0.059028 -0.168985
0.425808 0.125675 0.389181 0.795778 0.397661 -0.456731
0.226791 0.107944 0.387103 0.065020 -0.994749 -0.079033
0.302415 0.087019 0.713116 0.760191 -0.405988 0.507232
0.233900 0.160701 0.132538 -0.998375 -0.054530 -0.016551
0.291826 0.117557 0.795398 -0.158730 -0.986557 0.038866
0.361330 0.044120 0.453946 -0.022730 0.992039 -0.123865
0.379348 0.077907 0.507223 0.993859 -0.005143 -0.110530
0.211148 0.081337 0.475687 -0.994356 -0.052762 -0.092050
0.277515 0.143114 0.506630 0.703397 -0.705253 0.088610
0.332051 0.112536 0.367331 0.131480 0.989091 0.066419
0.129382 0.109522 0.392552 0.171945 0.982538 -0.071087
0.111494 0.118772 0.275612 0.043526 -0.998927 0.015848
0.233167 0.112438 0.150945 -0.043028 -0.998461 -0.034997
0.377781 0.094088 0.482674 0.994953 0.039875 -0.092081
0.226526 0.211233 0.066855 0.997541 -0.020639 0.066972
0.226087 0.035474 0.247333 0.074743 0.995578 0.056904
0.293722 0.107221 0.195538 -0.114438 0.991610 -0.060119
0.266144 0.059480 0.278696 -0.983167 0.181488 0.021076
0.285025 0.117557 0.747820 -0.332711 -0.937858 -0.098618
0.247738 0.082511 0.111399 0.912872 -0.398441 0.088934
0.478574 0.109574 0.303443 -0.083344 0.996048 -0.030696
0.398629 0.078656 0.385844 0.983981 0.147918 0.099504
0.181122 0.097824 0.477387 0.273924 -0.946409 -0.171100
0.250352 0.097462 0.503323 0.986496 0.077602 -0.144232
0.231922 0.039336 0.230370 -0.983244 0.177997 0.039357
0.409863 0.129497 0.512917 0.251667 0.964709 0.077458
0.280119 0.105533 0.326086 -0.544005 0.838770 0.022872
0.365158 0.115366 0.317090 0.130582 -0.988192 0.080159
0.259278 0.089613 0.472994 -0.997134 -0.045498 -0.060447
0.219359 0.059817 0.567833 0.157162 -0.887799 -0.432565
0.257903 0.103935 0.094092 -0.194026 0.966645 -0.167187
0.333870 0.121150 0.563766 -0.057672 0.997352 0.044298
0.409275 0.105950 0.399758 0.251148 -0.965312 -0.071400
0.276639 0.150029 0.723546 0.584914 -0.810898 -0.017897
0.297207 0.084733 0.645730 -0.338471 -0.693181 -0.636347
0.358889 0.038681 0.190885 -0.018261 0.995440 0.093631
0.284968 0.095419 0.274930 0.486631 -0.873607 0.001032
0.228789 0.052781 0.177258 0.859224 -0.498496 0.115050
0.400630 0.109879 0.337640 0.068983 0.996785 0.040767
0.293538 0.118887 0.593431 0.062678 0.992561 0.104376
0.521896 0.113680 0.112197 0.094202 -0.991144 0.093596
0.264047 0.131418 0.821913 0.854736 -0.512984 -0.079208
0.348827 0.107756 0.248397 0.157261 -0.987417 -0.016612
0.357299 0.118666 0.516812 -0.041219 -0.999132 -0.006079
0.238830 0.108466 0.230311 -0.166681 -0.985914 -0.013814
0.279344 0.068162 0.272716 0.817842 0.575124 -0.019151
0.256148 0.092623 0.542441 -0.778797 0.210326 -0.590964
0.338328 0.104993 0.589387 0.996683 -0.063777 -0.050551
0.261661 0.095945 0.099574 0.000000 -1.000000 0.000000
0.213200 0.106023 0.350848 0.156266 -0.979229 -0.129197
0.313928 0.148682 0.693598 -0.602508 -0.798094 -0.005398
0.284403 0.129303 0.687439 -0.496149 0.767634 -0.405678
0.126425 0.094499 0.164075 0.155496 0.982869 -0.098943
0.308275 0.116416 0.332369 -0.865046 -0.490428 0.105716
0.372077 0.099885 0.165263 0.773803 0.631130 0.053890
0.373327 0.119702 0.661081 0.881504 0.328707 0.338972
0.152248 0.075625 0.214695 -0.847143 0.530645 -0.027666
0.221629 0.072266 0.118526 -0.456034 -0.886328 0.080354
0.217078 0.082997 0.202726 -0.871046 -0.487592 0.059444
0.353818 0.120308 0.315931 0.357591 0.498538 -0.789676
0.387896 0.131183 0.379447 0.099393 0.993737 -0.051063
0.530829 0.110144 0.179390 -0.083394 0.996178 -0.025984
0.148730 0.116670 0.254601 -0.104246 -0.989058 0.104388
0.505477 0.117302 0.256879 -0.133322 -0.991049 -0.006802
0.361931 0.220795 0.061284 -0.997009 -0.050210 0.058747
0.287128 0.115008 0.756996 -0.058882 0.725017 0.686209
0.329365 0.107627 0.139888 0.228581 0.970303 -0.079138
0.260531 0.114129 0.541631 -0.095577 -0.990047 0.103305
0.097949 0.112293 0.136348 -0.152691 -0.981564 0.114964
0.229622 0.170306 0.052371 -0.984618 0.017548 0.173836
0.435365 0.127299 0.475380 0.328302 0.940848 0.083801
0.282468 0.099351 0.703794 -0.672217 0.052353 0.738501
0.264390 0.059706 0.202625 -0.963501 0.261872 0.055578
0.038087 0.114358 0.154865 0.169735 -0.984721 -0.038902
0.295941 0.105342 0.063019 -0.031800 0.993774 0.106784
0.408853 0.090165 0.398477 -0.993654 0.112180 0.008204
0.405281 0.096270 0.064965 0.026313 0.987683 0.154242
0.395814 0.114855 0.282666 0.115572 -0.990442 0.075284
0.239732 0.035859 0.364943 -0.125180 0.990658 -0.054098
0.285319 0.115324 0.603267 0.072457 0.983226 0.167383
0.183333 0.087358 0.422702 -0.987383 0.158330 -0.002467
0.359053 0.070193 0.065738 -0.062222 -0.987102 0.147505
0.366728 0.066545 0.073043 -0.351772 0.839919 0.413270
0.382138 0.055725 0.497910 -0.588261 0.795802 -0.143698
0.239736 0.096895 0.224363 0.788748 0.611600 0.061815
0.144306 0.121043 0.318542 -0.004811 -0.999245 0.038542
0.113502 0.109280 0.259336 -0.019361 0.999751 0.011082
0.408398 0.083729 0.514830 -0.916223 0.395762 -0.062518
0.269225 0.116409 0.691816 0.798881 0.600959 0.025262
0.298666 0.115208 0.624090 0.285915 -0.956861 -0.051677
0.146005 0.109795 0.428990 0.197471 0.976207 -0.089581
0.211258 0.115308 0.613410 -0.900144 0.412125 0.141046
0.384055 0.105342 0.392987 0.115032 -0.989761 -0.084504
0.506105 0.110304 0.165042 0.041117 0.998411 0.038542
0.230026 0.116564 0.682015 0.100319 -0.985919 0.133791
0.343420 0.112291 0.342027 -0.074668 -0.992420 -0.097608
0.258957 0.110951 0.417231 -0.156967 -0.984228 0.081584
0.345555 0.116373 0.662144 -0.036325 -0.992317 0.118268
0.437999 0.125462 0.310780 0.153435 0.209775 -0.965636
0.298588 0.116164 0.238480 0.033755 0.996451 -0.077106
0.308022 0.151811 0.575522 -0.426173 -0.900512 0.086338
0.385298 0.084441 0.531048 -0.940600 0.132413 -0.312631
0.205177 0.129571 0.586818 -0.293804 0.943999 0.150153
0.274145 0.147708 0.757130 0.621448 -0.782764 -0.032907
0.348081 0.057338 0.535198 0.403446 0.722954 -0.560864
0.354004 0.111082 0.182690 0.090801 -0.995390 -0.030873
0.247275 0.034863 0.312389 -0.255858 0.966666 0.009662
0.298416 0.121785 0.328892 0.008387 0.999163 -0.040048
0.229049 0.117777 0.676761 0.075694 0.986532 0.145003
0.259354 0.098445 0.799780 0.986541 0.148220 -0.069051
0.300412 0.145037 0.811481 0.119624 0.991787 -0.045263
0.377046 0.110844 0.345651 0.091908 0.994457 0.051071
0.252019 0.119531 0.407112 -0.166777 -0.983429 0.071078
0.519348 0.116408 0.258105 -0.248895 -0.967035 -0.053805
0.269992 0.121358 0.303877 0.000585 0.998506 -0.054635
0.496404 0.117077 0.221475 0.019122 -0.998817 0.044714
0.332535 0.110402 0.412872 0.051702 -0.998657 0.003447
0.326111 0.087487 0.104090 0.000000 -1.000000 0.000000
0.296813 0.122060 0.607122 -0.006992 -0.236482 -0.971611
0.365573 0.115643 0.201347 -0.405772 -0.911223 -0.070861
0.339444 0.128140 0.433005 -0.884128 -0.450088 0.125453
0.297741 0.121785 0.331496 0.008221 0.999197 -0.039227
0.287119 0.091716 0.789402 -0.526198 0.713518 0.462609
0.401083 0.086192 0.432727 0.717974 0.696004 -0.009551
0.337287 0.121785 0.317430 0.024494 0.998754 -0.043472
0.166080 0.123246 0.401754 0.073318 -0.997278 0.007803
0.442378 0.076496 0.384746 -0.568460 -0.822703 0.003681
0.091502 0.095717 0.102063 0.018972 0.999640 0.018987
0.134412 0.111110 0.234206 -0.063107 0.997712 0.024247
0.359125 0.205120 0.036288 0.939552 0.056215 0.337759
0.357151 0.142128 0.086758 0.993434 0.008121 0.114117
0.253336 0.113128 0.525775 -0.156113 -0.984101 0.084698
0.305136 0.083870 0.625959 -0.890686 -0.408989 -0.198512
0.280119 0.097860 0.277346 -0.818411 -0.569777 0.074547
0.252940 0.115307 0.269166 -0.993628 -0.025881 -0.109700
0.293383 0.113087 0.649218 -0.009586 0.996430 0.083883
0.223843 0.129585 0.519985 0.270457 0.962191 0.032272
0.294178 0.147066 0.544238 -0.040503 -0.997281 0.061567
0.095759 0.118381 0.303508 0.197815 -0.978961 -0.050046
0.147562 0.097812 0.065483 -0.005640 -0.989183 0.146579
0.336907 0.037503 0.353509 0.357825 0.932748 -0.044074
0.280202 0.136057 0.776351 -0.369226 0.918031 0.144538
0.375573 0.059489 0.106673 -0.543465 0.788673 0.287472
0.339395 0.115077 0.581233 0.582517 -0.812681 0.014942
0.196370 0.055079 0.397270 0.976135 0.211156 -0.050734
0.293924 0.072719 0.646004 -0.018253 0.761176 -0.648289
0.365502 0.093755 0.277901 0.818239 0.570734 0.068905
0.258637 0.103435 0.122464 -0.241174 -0.970424 0.010577
0.445304 0.094234 0.127324 -0.031607 0.997406 0.064673
0.361435 0.043456 0.278007 -0.990644 0.107908 -0.083550
0.446348 0.113521 0.210418 0.128088 -0.987188 0.095148
0.315466 0.082415 0.843956 -0.541557 0.840266 -0.025855
0.399092 0.080947 0.483490 0.945581 -0.313716 -0.086362
0.204415 0.101904 0.275033 0.577462 -0.816399 -0.005608
0.173223 0.112249 0.228338 -0.502107 0.808686 0.306457
0.328609 0.042951 0.273083 0.740513 0.671089 0.035786
0.268210 0.115980 0.589622 -0.021259 -0.991786 0.126129
0.355936 0.046794 0.287876 0.972840 0.158452 -0.168746
0.276002 0.121785 0.462885 0.003789 0.999992 0.001076
0.440584 0.098123 0.076206 0.052247 -0.994774 0.087725
0.284823 0.141413 0.483625 0.307410 -0.943287 0.125332
0.225582 0.131847 0.102676 0.995410 0.003007 0.095657
0.303957 0.112871 0.673305 -0.149986 0.987651 0.045268
0.211613 0.043854 0.167654 0.375350 0.920341 0.109935
0.383251 0.105342 0.454731 0.094890 -0.995024 -0.030382
0.164434 0.108679 0.398031 0.057278 0.998010 -0.026386
0.217745 0.106760 0.371742 0.060281 -0.991300 -0.117004
0.270155 0.118362 0.601236 0.113728 0.987514 0.109005
0.338088 0.076011 0.504505 -0.980449 -0.113054 -0.161058
0.246274 0.081480 0.150792 0.896562 -0.439906 0.051573
0.248817 0.105981 0.258297 -0.333362 -0.942797 -0.002062
0.371435 0.117524 0.626827 0.053333 0.994557 0.089511
0.299796 0.121785 0.412007 0.004368 0.999914 -0.012343
0.513354 0.113395 0.131659 0.095888 -0.993433 0.062416
0.257431 0.121785 0.326013 -0.019007 0.998670 -0.047921
0.425140 0.123056 0.397732 -0.084791 -0.996395 0.002577
0.386820 0.062804 0.486528 -0.967607 0.235005 -0.092250
0.167365 0.106540 0.419666 -0.271636 -0.960753 -0.056289
0.205686 0.105346 0.138172 0.692113 -0.721785 -0.002495
0.315741 0.128611 0.805418 -0.946234 0.280405 -0.161292
0.354651 0.135587 0.197347 0.975019 -0.179898 -0.130283
0.350480 0.114326 0.481114 -0.070454 -0.997428 -0.013183
0.299989 0.115208 0.615300 0.277406 -0.894549 -0.350469
0.197438 0.131183 0.423315 -0.053903 0.998362 -0.019200
0.380576 0.104938 0.218698 -0.474469 -0.880272 0.000838
0.280119 0.124647 0.781384 -0.979435 -0.201194 -0.015102
0.438883 0.108882 0.317021 0.022873 0.999609 0.016097
0.371928 0.110258 0.562401 -0.414591 -0.909796 0.019648
0.330810 0.126456 0.706548 -0.959384 -0.281920 -0.010176
0.250057 0.100390 0.588782 -0.996848 -0.075873 -0.023175
0.305971 0.070770 0.531559 -0.814285 0.576519 0.067565
0.110696 0.118760 0.278115 0.051872 -0.998578 0.012322
0.288326 0.119429 0.279588 0.015455 0.997984 -0.061560
0.254018 0.102240 0.092508 -0.831522 -0.537853 0.138876
0.371806 0.131183 0.353750 0.037977 0.994798 -0.094520
0.202396 0.052446 0.454307 0.852906 0.513285 -0.095337
0.225301 0.208006 0.087839 0.998712 -0.046086 0.021229
0.265966 0.069835 0.218225 -0.997204 0.065572 0.035837
0.140282 0.126014 0.295948 0.000000 1.000000 0.000000
0.173544 0.086002 0.425255 -0.661404 -0.749983 -0.008386
0.277865 0.088432 0.269757 0.874774 -0.484525 -0.002521
0.322367 0.082056 0.307156 0.980796 -0.194882 -0.007777
0.356727 0.113910 0.496334 -0.088454 -0.996027 -0.010342
0.233477 0.120992 0.122520 -0.996403 0.013273 0.083700
0.439433 0.109393 0.416701 -0.134245 0.989471 -0.054089
0.212888 0.036479 0.362949 0.240942 0.969004 -0.054579
0.143886 0.064954 0.223175 0.808708 -0.588070 -0.012796
0.333064 0.066526 0.549963 0.836965 -0.184774 -0.515119
0.150445 0.086808 0.190142 -0.998472 0.029987 0.046413
0.292909 0.112220 0.188825 0.044913 0.993780 -0.101899
0.183333 0.088499 0.420603 -0.990032 0.140832 -0.001510
0.203464 0.047658 0.184508 0.652345 0.752162 0.093263
0.253369 0.045664 0.184267 -0.612453 0.783485 0.105130
0.481207 0.093641 0.169921 0.874855 -0.481180 0.055633
0.331852 0.083253 0.531287 0.956835 -0.104645 -0.271138
0.203034 0.101008 0.280564 0.623069 -0.782156 -0.004034
0.288094 0.149801 0.671409 -0.667775 -0.130119 -0.732902
0.394597 0.075759 0.170026 -0.999072 -0.015158 0.040319
0.287755 0.065260 0.584944 0.420883 0.906401 -0.035969
0.305341 0.121785 0.406294 0.004953 0.999891 -0.013891
0.496244 0.117711 0.254098 -0.081927 -0.996556 0.012838
0.278353 0.123552 0.390902 0.724850 -0.677847 0.122947
0.369397 0.058978 0.554505 0.243101 0.529290 -0.812868
0.432943 0.111519 0.216972 0.133210 0.986968 0.090277
0.466979 0.096410 0.169227 -0.654567 0.516835 -0.551746
0.362747 0.201338 0.078655 -0.997768 -0.042493 0.051512
0.296324 0.139565 0.456081 -0.067245 -0.990498 0.119963
0.319455 0.110655 0.387055 -0.071725 -0.997387 0.008675
0.336209 0.103638 0.531040 -0.989388 -0.058052 -0.133198
0.440381 0.108883 0.356742 -0.043574 0.998910 -0.016715
0.393493 0.059894 0.217616 -0.968891 0.242648 0.048709
0.240515 0.111696 0.435634 0.102725 -0.993232 -0.054205
0.281332 0.117557 0.843202 -0.409481 -0.912284 0.008028
0.256330 0.117693 0.597487 0.981596 -0.190956 -0.002163
0.297486 0.160937 0.760836 -0.287942 -0.901103 -0.324196
0.288519 0.111163 0.406342 -0.084562 -0.995148 0.050290
0.421846 0.101667 0.168786 -0.003293 -0.999688 0.024759
0.444153 0.076207 0.221932 -0.811640 0.583934 -0.016172
0.293716 0.165890 0.783417 0.060077 -0.928709 -0.365910
0.416773 0.070445 0.424157 0.696621 0.717325 -0.012824
0.274903 0.121631 0.405081 0.845174 -0.521712 0.116175
0.367194 0.117465 0.580872 0.050263 0.998267 0.030598
0.397498 0.102370 0.228320 -0.043049 -0.994007 -0.100481
0.149506 0.091275 0.462683 -0.980783 0.190630 -0.041539
0.247872 0.083368 0.463360 0.996467 -0.027162 -0.079468
0.264845 0.081942 0.388919 -0.996342 -0.079963 -0.030133
0.289239 0.108951 0.076841 0.182563 -0.982995 0.019764
0.102445 0.080995 0.264020 0.863176 -0.497625 -0.085419
0.376221 0.083116 0.457452 0.996455 -0.030910 -0.078240
0.351131 0.110276 0.225355 0.802544 -0.556084 -0.216089
0.308049 0.078906 0.133641 -0.979156 0.003209 0.203085
0.107221 0.093085 0.187628 -0.944416 -0.328166 0.019624
0.126626 0.109164 0.328457 0.074800 0.996933 -0.023013
0.152005 0.078129 0.183713 -0.283792 -0.952237 0.112726
0.278438 0.119865 0.661900 -0.557120 -0.443072 -0.702356
0.291602 0.093126 0.309526 -0.144210 -0.986956 0.071561
0.106357 0.097758 0.056757 0.023760 -0.990330 0.136681
0.325411 0.060330 0.159149 0.930218 0.359530 0.073703
0.184870 0.083829 0.434399 -0.770537 0.637323 0.009567
0.345662 0.039908 0.405721 0.182147 0.979096 -0.090514
0.378632 0.118401 0.559370 -0.348019 0.912607 -0.214550
0.150619 0.110359 0.447042 0.247291 0.962064 -0.115239
0.331164 0.074279 0.098017 0.889195 0.386748 0.244455
0.214629 0.115283 0.658421 -0.911277 -0.231851 0.340322
0.425486 0.094600 0.118384 -0.010281 0.996327 0.085007
0.273622 0.109991 0.361877 -0.059113 -0.997145 0.046993
0.363621 0.115183 0.590007 -0.091166 -0.994869 0.043868
0.309583 0.104959 0.170998 -0.042886 -0.997273 -0.060058
0.457213 0.109397 0.372211 -0.124757 0.990919 -0.050156
0.251997 0.118865 0.637051 0.158366 0.985001 0.068512
0.370969 0.063039 0.086046 -0.429172 0.844650 0.319965
0.445770 0.113047 0.201277 0.145846 -0.983509 0.106955
0.356444 0.041307 0.259350 0.985702 0.166128 0.028161
0.144127 0.126484 0.290736 0.000000 1.000000 0.000000
0.211525 0.113565 0.468700 0.198882 -0.978760 0.049755
0.266590 0.127500 0.693106 0.972856 0.230601 0.019353
0.538662 0.114558 0.160038 -0.057657 -0.997776 0.033457
0.430580 0.062420 0.240476 -0.764432 0.642932 0.047766
0.330673 0.112984 0.352434 0.144518 0.986550 0.076383
0.287977 0.087990 0.380694 0.499421 -0.109823 -0.859370
0.269651 0.091028 0.866659 0.861178 0.488118 -0.141823
0.308309 0.133788 0.740054 0.821836 -0.445467 -0.355167
0.361902 0.039974 0.176917 -0.068750 0.992135 0.104602
0.388946 0.081638 0.462416 -0.998429 -0.006107 -0.055702
0.370421 0.111496 0.142450 -0.219661 -0.975129 -0.029544
0.156708 0.093567 0.162727 0.012096 0.999755 0.018537
0.031253 0.111035 0.141580 0.278984 0.953646 0.112812
0.339199 0.108635 0.101004 0.649595 -0.756291 0.077784
0.401963 0.094035 0.144092 0.010671 0.997440 0.070705
0.101398 0.099292 0.097757 0.034589 -0.997626 0.059549
0.265496 0.057264 0.343168 -0.978165 0.207171 -0.016537
0.361579 0.146768 0.079127 -0.989220 0.021221 0.144894
0.446128 0.109060 0.362378 -0.071928 0.997005 -0.028403
0.193504 0.122882 0.386658 -0.035426 -0.997690 0.057958
0.331819 0.093655 0.744971 -0.975053 0.221396 -0.016009
0.327525 0.091504 0.119703 0.964738 -0.252561 0.074124
0.385252 0.105342 0.588931 0.074562 -0.994053 0.079369
0.342564 0.110538 0.084939 0.589851 -0.793248 0.151108
0.282616 0.119906 0.748343 -0.105562 0.699799 0.706497
0.319368 0.121785 0.413446 0.004221 0.999929 -0.011126
0.330041 0.087099 0.641768 -0.910866 0.412630 -0.007765
0.395014 0.066153 0.345940 -0.995407 0.094280 -0.016632
0.276096 0.079187 0.791036 0.157798 0.987471 -0.001322
0.280196 0.109189 0.331462 -0.078417 -0.996398 0.032287
0.408938 0.097735 0.069492 0.077602 -0.990144 0.116591
0.526599 0.113557 0.247697 -0.767319 -0.585003 -0.262665
0.221703 0.092750 0.271419 -0.952843 0.295711 0.068162
0.322247 0.078933 0.331682 0.990847 -0.133625 -0.019141
0.145262 0.076232 0.368025 0.649188 -0.759047 0.049011
0.082283 0.095719 0.113601 0.129026 0.989251 -0.068817
0.352642 0.112915 0.496446 -0.079534 0.990327 -0.113693
0.437982 0.083795 0.190079 0.999180 -0.021705 0.034181
0.296342 0.169739 0.675668 -0.066232 -0.990692 0.118926
0.331679 0.107346 0.490764 0.919474 -0.391586 -0.035043
0.309709 0.080452 0.830867 -0.418561 0.907384 0.038226
0.377888 0.080485 0.484610 0.995662 -0.033182 -0.086922
0.338101 0.104212 0.290558 0.346952 -0.937859 -0.006700
0.217159 0.090214 0.221691 -0.993603 0.094733 0.061464
0.315709 0.102990 0.078094 0.245661 0.107864 -0.963336
0.363384 0.129221 0.506797 -0.217196 0.975904 0.020930
0.143636 0.108866 0.347785 0.046805 0.998795 -0.014769
0.181309 0.097824 0.391601 0.328658 -0.918462 0.220027
0.249395 0.106990 0.199171 -0.399916 -0.916514 -0.008325
0.220007 0.123608 0.620187 0.173292 0.980170 0.096112
0.298191 0.111595 0.734084 -0.057664 0.997882 -0.030117
0.281990 0.106993 0.248179 -0.095669 -0.995405 0.004068
0.366483 0.130161 0.467826 -0.239188 0.970942 0.007744
0.264883 0.081557 0.786222 0.537171 0.842825 -0.033054
0.226750 0.115816 0.482593 -0.003994 -0.999318 0.036721
0.324166 0.082609 0.395357 0.993042 -0.111919 -0.036633
0.103562 0.076582 0.212796 0.650420 -0.758710 0.036236
0.238481 0.109605 0.453198 0.062317 0.994120 -0.088553
0.335133 0.103106 0.089323 0.834465 -0.526371 0.163100
0.390740 0.105342 0.362653 0.168815 -0.977916 -0.123216
0.139090 0.120479 0.427960 0.452020 -0.881834 -0.134341
0.225717 0.070930 0.127213 -0.234729 -0.969585 0.069335
0.227472 0.240923 0.079567 0.921739 -0.381138 -0.071623
0.330758 0.104923 0.459824 0.881249 -0.472630 -0.004638
0.265124 0.141676 0.761840 0.731953 -0.680596 -0.032154
0.268109 0.129547 0.764177 0.968668 0.226916 -0.100957
0.367344 0.070624 0.438131 0.059640 -0.994509 -0.085994
0.198108 0.050461 0.230329 0.851869 0.521413 0.049463
0.335062 0.108152 0.410801 0.507173 -0.861307 0.030443
0.253736 0.121785 0.334141 -0.023988 0.998680 -0.045418
0.230113 0.225647 0.039743 -0.990885 -0.034291 0.130269
0.383333 0.112472 0.273711 0.146431 0.985237 0.088693
0.278118 0.078856 0.800987 0.150083 0.988673 0.000918
0.238667 0.117557 0.638129 0.021694 0.994377 0.103654
0.370987 0.118803 0.677085 -0.236731 0.960075 0.149042
0.152840 0.101711 0.167661 0.021541 -0.999626 0.016832
0.408905 0.098997 0.101785 0.054129 -0.994469 0.090007
0.145628 0.125544 0.291395 0.300764 -0.539293 0.786578
0.418368 0.129269 0.457553 0.118108 0.992972 0.007563
0.179698 0.093543 0.159056 -0.007273 0.999274 0.037397
0.329494 0.131097 0.618680 -0.914936 -0.403565 -0.005325
0.332692 0.103767 0.141433 0.297931 -0.953265 -0.050235
0.311453 0.071297 0.254587 -0.904560 0.426343 -0.001690
0.318526 0.105992 0.210192 -0.035637 -0.997730 -0.057147
0.143073 0.111531 0.211608 -0.113935 0.991618 0.060938
0.353293 0.129393 0.143171 0.999490 -0.026516 0.017767
0.269905 0.079471 0.778726 0.205414 0.978670 -0.003064
0.381898 0.114773 0.294242 0.125696 -0.988958 0.078501
0.107221 0.083274 0.219305 -0.999777 0.013967 -0.015829
0.317072 0.112944 0.473912 -0.094206 -0.994547 0.044736
0.218897 0.108628 0.223011 0.184209 -0.982644 -0.021848
0.267657 0.138861 0.765876 0.987774 0.121439 -0.097751
0.092955 0.110493 0.193254 -0.037648 0.999104 0.019312
0.361411 0.096012 0.291511 0.301243 0.950982 0.069903
0.326385 0.045763 0.322404 0.848576 0.528983 -0.009747
0.342910 0.035231 0.332914 0.243423 0.969709 -0.020236
0.393228 0.087475 0.208034 -0.967705 -0.250882 0.024583
0.177700 0.111222 0.292996 -0.078866 0.996555 0.025656
0.432067 0.079552 0.185520 0.668962 0.738961 -0.080160
0.091431 0.109856 0.210292 -0.024200 0.999597 0.014806
0.298290 0.064201 0.573822 -0.278229 0.960422 -0.013341
0.197259 0.105342 0.539658 -0.175559 -0.983951 0.031940
0.213646 0.109307 0.461088 -0.658008 0.742005 -0.128275
0.240048 0.117345 0.559657 0.087332 0.996167 0.004864
0.377057 0.093215 0.471254 0.996393 0.028087 -0.080079
0.438510 0.122003 0.365402 -0.074101 -0.997204 0.009677
0.225387 0.171273 0.093861 0.997851 -0.015249 0.063731
0.397806 0.087259 0.428920 -0.703484 -0.710698 -0.004377
0.174988 0.129713 0.406179 -0.142291 0.988920 -0.042322
0.295204 0.095005 0.591403 -0.098263 -0.985664 0.137151
0.377009 0.036390 0.260006 -0.309126 0.949374 0.055945
0.252465 0.074268 0.081321 -0.823169 0.478774 0.305236
0.348857 0.051499 0.494276 0.155457 0.970905 -0.182143
0.162545 0.111484 0.263311 -0.079496 0.996462 0.027286
0.321777 0.121785 0.465288 -0.000143 0.999986 0.005248
0.351895 0.115102 0.549698 -0.065343 -0.997346 0.032106
0.295519 0.105342 0.064476 -0.021769 0.995451 0.092758
0.295019 0.130436 0.382816 -0.867857 -0.477697 0.136490
0.455203 0.108948 0.298205 0.002823 0.999987 0.004343
0.153651 0.122708 0.410598 0.137640 -0.990309 -0.018519
0.240321 0.111526 0.423653 -0.145462 -0.987952 0.052845
0.459540 0.116612 0.247453 0.054441 -0.996947 0.055978
0.227834 0.171396 0.059035 0.989002 0.011589 0.147450
0.380932 0.089066 0.527318 0.972750 0.058492 -0.224357
0.229102 0.046943 0.164790 0.973721 0.222857 0.046933
0.243025 0.076051 0.147952 0.726450 -0.685309 0.051203
0.370957 0.106147 0.065821 -0.478794 -0.785041 0.393022
0.223704 0.121289 0.217945 0.970451 -0.191570 -0.146716
0.275589 0.107714 0.132088 -0.002354 0.986678 -0.162670
0.195001 0.124751 0.413893 -0.035244 -0.998186 0.048803
0.322191 0.108335 0.308548 -0.050480 -0.998270 -0.030140
0.481855 0.117510 0.238774 0.030032 -0.998383 0.048257
0.065554 0.114191 0.145947 -0.034007 -0.999022 0.028244
0.273668 0.144160 0.807730 0.614621 -0.785413 -0.073268
0.118794 0.110162 0.240358 -0.038937 0.999091 0.017354
0.256355 0.041332 0.256979 -0.642212 0.764173 0.060020
0.372349 0.081908 0.181480 0.871219 -0.487696 0.055946
0.422188 0.106596 0.488992 0.284538 -0.957725 0.042449
0.290189 0.103260 0.824184 0.012601 0.040181 0.999113
0.443474 0.078052 0.179713 -0.300348 -0.946174 0.120610
0.284276 0.082675 0.149903 0.881711 -0.030004 0.470834
0.308309 0.102835 0.172918 0.736442 0.672676 -0.071833
0.395309 0.093747 0.157898 0.054888 0.996989 0.054768
0.243891 0.099133 0.164970 0.805124 0.590646 0.053968
0.369202 0.116226 0.587918 -0.060228 -0.996639 0.055525
0.432302 0.122367 0.368669 -0.054208 -0.998371 0.017812
0.390602 0.067434 0.429343 -0.991100 0.122239 -0.052718
0.360293 0.108619 0.337280 -0.034618 -0.999208 0.019639
0.315931 0.085291 0.855971 -0.632684 0.769850 -0.083910
0.147626 0.090499 0.404270 0.974495 0.224311 0.006623
0.300846 0.115077 0.554829 -0.087512 -0.992182 0.088981
0.225498 0.038081 0.396201 0.067926 0.994156 -0.083907
0.277633 0.121785 0.425507 0.002987 0.999955 -0.009042
0.317913 0.104049 0.136470 -0.020987 -0.996238 -0.084084
0.287403 0.084103 0.907600 0.320799 0.932521 -0.165809
0.393247 0.060993 0.202371 -0.968654 0.242257 0.054972
0.306329 0.140750 0.763662 0.261694 0.951622 0.161034
0.405492 0.105761 0.416442 0.244928 -0.967598 -0.061359
0.258822 0.072928 0.481921 -0.989596 0.114238 -0.087458
0.217988 0.111711 0.178863 0.900768 -0.434300 0.000796
0.346428 0.110965 0.077514 0.490642 -0.840927 0.228280
0.257939 0.105253 0.109646 -0.176138 0.971210 -0.160396
0.299378 0.097141 0.247119 -0.272027 -0.962143 0.016788
0.156256 0.072083 0.379224 -0.753649 -0.656590 -0.030048
0.151755 0.096096 0.077375 -0.042008 0.995923 0.079829
0.294590 0.102942 0.094486 -0.052697 -0.996225 -0.068982
0.257329 0.088990 0.672348 0.960678 0.277571 -0.007235
0.347331 0.116017 0.630643 -0.044467 -0.994552 0.094282
0.124228 0.095884 0.089968 -0.013247 0.998608 0.051058
0.230874 0.114017 0.601375 0.098734 -0.992570 0.071107
0.239694 0.112299 0.186544 -0.867087 -0.497954 -0.014224
0.228382 0.118910 0.553216 -0.482889 0.336461 -0.808463
0.309673 0.104392 0.742824 0.517630 -0.416790 -0.747225
0.264087 0.088939 0.193489 -0.959731 -0.279815 0.024909
0.286377 0.071985 0.498293 0.735567 0.641756 0.217002
0.354319 0.115164 0.102313 0.164150 -0.986015 0.028806
0.362196 0.107091 0.283955 -0.065130 -0.997854 -0.006733
0.256165 0.071250 0.525983 -0.936432 0.288517 -0.199630
0.253304 0.084898 0.563044 0.996384 0.033014 0.078284
0.354266 0.109269 0.330289 -0.126722 -0.985260 -0.114907
0.278332 0.136686 0.733491 -0.596155 -0.180864 -0.782232
0.486739 0.110711 0.157732 0.104668 0.991205 0.080972
0.280119 0.106407 0.246723 -0.489892 0.869301 -0.065735
0.263348 0.053897 0.226007 -0.929473 0.364771 0.054979
0.290017 0.133173 0.413435 0.191699 -0.972374 0.133189
0.255901 0.110098 0.707704 0.995074 0.097940 -0.015375
0.246245 0.108684 0.378041 -0.219991 -0.974551 0.043048
0.248578 0.110143 0.605486 -0.996093 -0.088269 0.002612
0.345298 0.123740 0.412729 -0.243228 0.969600 -0.026759
0.277182 0.102961 0.095204 -0.083092 -0.995498 -0.045600
0.313645 0.158156 0.765103 -0.869661 -0.484147 -0.096396
0.169645 0.120501 0.329254 -0.059692 -0.995404 0.074884
0.297065 0.119906 0.750496 0.016153 0.780141 0.625395
0.111223 0.084823 0.207296 0.719358 -0.691738 0.063424
0.400042 0.105489 0.538719 0.243563 -0.968454 0.052667
0.313386 0.123262 0.818788 -0.803903 0.544320 -0.239699
0.256786 0.094754 0.741192 0.984401 0.175435 -0.013294
0.225810 0.154478 0.093013 0.996252 -0.004140 0.086402
0.211365 0.106512 0.622301 -0.984578 0.045322 0.168971
0.347756 0.098641 0.201127 -0.793683 0.605549 0.058117
0.361603 0.134864 0.083783 -0.988442 0.030584 0.148483
0.149506 0.097312 0.442174 -0.993917 -0.110128 -0.000581
0.164726 0.094459 0.130725 -0.015441 0.998707 0.048438
0.232462 0.068532 0.462885 0.024916 -0.995271 -0.093883
0.358782 0.154563 0.059409 0.985665 0.021795 0.167299
0.355707 0.178653 0.095703 0.998481 -0.021184 0.050866
0.231041 0.206066 0.059063 -0.992888 -0.028464 0.115600
0.106369 0.079971 0.170918 -0.322612 0.946516 0.005426
0.325402 0.112995 0.497007 -0.085214 -0.995898 0.030410
0.369719 0.129364 0.568088 -0.150165 0.986348 0.067594
0.380384 0.059502 0.535732 0.045500 0.937061 -0.346188
0.355725 0.050707 0.284034 0.992476 -0.088688 -0.084416
0.435870 0.109909 0.433676 -0.140004 0.988728 -0.053058
0.269032 0.124708 0.465312 0.858891 -0.498273 0.118453
0.192714 0.121099 0.588697 -0.876709 0.325294 0.354351
0.228808 0.047413 0.175169 0.977704 0.205817 0.041655
0.324888 0.091926 0.281833 0.903103 -0.429423 -0.000808
0.217468 0.057960 0.541932 0.565238 0.310180 -0.764391
0.367252 0.114114 0.294344 0.158679 -0.982541 0.097132
0.120486 0.094749 0.160283 0.171079 0.978951 -0.111293
0.284737 0.139381 0.468660 0.318020 -0.939436 0.127759
0.517939 0.115502 0.264441 -0.585896 -0.788481 -0.187144
0.430208 0.119413 0.310210 0.044390 -0.997596 0.053213
0.200549 0.131183 0.431867 -0.042339 0.999040 -0.011218
0.338676 0.108368 0.105341 0.655225 -0.753332 0.056308
0.238403 0.114502 0.517410 -0.049253 0.992127 -0.115144
0.361862 0.151815 0.189549 -0.739596 -0.496917 -0.453951
0.421821 0.102326 0.189410 -0.043551 -0.998977 -0.012161
0.302462 0.111698 0.426641 -0.109420 -0.992925 0.046129
0.286730 0.150911 0.551489 0.207614 -0.973186 0.099026
0.191156 0.070538 0.418335 0.667603 0.744169 -0.022783
0.307343 0.068383 0.149657 -0.778443 0.618506 0.107129
0.207254 0.069759 0.536109 -0.505880 -0.401304 -0.763571
0.362834 0.034361 0.263365 -0.066422 0.996655 0.047620
0.194954 0.061968 0.208394 0.974102 0.222748 0.038830
0.097815 0.096323 0.055938 -0.009510 0.993001 0.117723
0.335505 0.113058 0.438173 0.716077 -0.697814 0.017022
0.055296 0.114365 0.126699 -0.031714 -0.998648 0.041199
0.307754 0.079053 0.617581 -0.119657 0.992814 -0.001792
0.179916 0.130156 0.454910 -0.100228 0.994934 0.007767
0.302004 0.078851 0.638267 -0.065668 0.997840 -0.001598
0.256400 0.118173 0.655385 0.980190 -0.198020 -0.003916
0.220785 0.109637 0.462652 0.053116 -0.998487 -0.014216
0.174182 0.108787 0.361343 -0.028192 0.999566 0.008492
0.357712 0.223845 0.052572 0.994263 -0.015326 0.105861
0.385461 0.109214 0.394554 0.046190 0.998823 0.014793
0.293669 0.147851 0.679454 -0.015290 0.273622 -0.961716
0.278276 0.121987 0.677188 -0.260467 0.808301 0.528022
0.262527 0.117096 0.378025 -0.156906 -0.981361 0.110959
0.392180 0.091941 0.275487 -0.911616 -0.410859 0.012296
0.230161 0.141062 0.070312 -0.984943 0.035024 0.169293
0.440226 0.076717 0.450179 -0.056809 0.998287 0.013960
0.245643 0.079120 0.123674 0.832970 -0.548343 0.074041
0.107071 0.109523 0.308667 0.110976 0.993226 -0.034443
0.524022 0.116036 0.230123 -0.156448 -0.987579 -0.014540
0.358918 0.117044 0.640626 -0.013273 -0.991000 0.133203
0.365713 0.112956 0.131464 -0.164978 -0.985913 -0.027541
0.271996 0.115737 0.233101 -0.001354 0.995026 -0.099611
0.319260 0.119368 0.586257 -0.023829 0.994056 0.106232
0.284082 0.076151 0.498162 0.949581 0.221110 0.222273
0.381041 0.131183 0.378149 0.075937 0.995419 -0.058090
0.264379 0.121785 0.404215 0.000264 0.999832 -0.018332
0.135435 0.056503 0.196702 0.550151 -0.835056 -0.003920
0.134302 0.097987 0.067581 0.005538 -0.990432 0.137888
0.374488 0.035035 0.323734 -0.225661 0.974197 -0.004077
