0.177067 0.164133 0.832847 -0.199494 0.963951 0.176069
0.125305 0.140553 0.641745 -0.908553 0.417668 0.009232
0.255031 0.113943 0.817008 0.990142 -0.033416 0.136022
0.131126 0.156552 0.577947 -0.811938 0.582335 -0.040535
0.156255 0.103461 0.439183 -0.498554 -0.303401 -0.812029
0.172794 0.139909 0.434766 -0.343797 0.425260 -0.837232
0.241900 0.088334 0.467494 0.769462 -0.351750 -0.533105
0.136800 0.151682 0.763065 -0.767552 0.630464 0.115670
0.177214 0.104774 0.968526 -0.295848 0.532954 0.792738
0.169553 0.149801 0.328229 -0.719770 0.667445 -0.190913
0.225466 0.171549 0.568480 0.482626 0.866541 0.127198
0.201780 0.139139 0.430525 0.098551 0.464935 -0.879843
0.162315 0.173803 0.572319 -0.365006 0.919368 0.146740
0.195540 0.065954 0.430175 0.102140 -0.979129 -0.175709
0.195185 0.072500 0.380896 0.121367 -0.977789 -0.170877
0.185194 0.129799 0.192615 -0.999806 -0.017616 -0.008806
0.191126 0.172640 0.278923 -1.000000 0.000000 0.000000
0.234671 0.048189 0.670560 0.608333 -0.793553 -0.014301
0.255599 0.145549 0.573749 0.858773 0.509834 -0.050768
0.205903 0.035911 0.673024 0.217268 -0.975524 -0.033869
0.230619 0.069327 0.402562 0.899562 0.436794 -0.000009
0.161985 0.151497 0.363341 -0.767163 0.616112 -0.178511
0.139641 0.154221 0.498633 -0.781614 0.611831 -0.121417
0.214002 0.085813 0.348587 0.676534 -0.713812 -0.181038
0.242352 0.063206 0.528608 0.683302 -0.703159 -0.196635
0.156377 0.093353 0.384046 -0.816932 -0.543046 -0.194225
0.242122 0.062764 0.530596 0.681564 -0.706036 -0.192313
0.229969 0.158497 0.439152 0.686825 0.711387 -0.148999
0.184593 0.155280 0.891203 -0.070009 0.962054 0.263727
0.223858 0.153170 0.844053 0.588875 0.782074 0.203928
0.250092 0.100911 0.954561 0.337792 0.748037 0.571259
0.074160 0.090333 0.942204 -0.654941 0.582643 -0.481228
0.245374 0.079743 0.818506 0.923018 -0.366850 0.116009
0.178142 0.051402 0.560616 -0.204736 -0.978651 0.018041
0.196288 0.128928 0.189340 0.995803 0.047682 0.078126
0.124122 0.135896 0.707459 -0.918991 0.389882 0.058711
0.232910 0.077988 0.454701 0.726706 -0.665928 -0.168639
0.238956 0.165733 0.548816 0.650575 0.758633 0.035039
0.188570 0.127852 0.136106 -0.992166 -0.067165 -0.105333
0.211903 0.132735 0.284754 0.883225 0.424643 -0.198976
0.201014 0.162148 0.457936 0.018712 0.839207 -0.543490
0.255347 0.124002 0.497286 0.981195 0.127027 -0.145327
0.240382 0.068132 0.830945 0.879297 -0.462981 0.111740
0.202413 0.173621 0.472298 0.221217 0.968255 -0.116386
0.183152 0.077580 0.968220 -0.159885 -0.490976 0.856375
0.168119 0.169811 0.595544 -0.240195 0.920042 0.309563
0.148328 0.158551 0.787814 -0.598335 0.788374 0.143043
0.133322 0.059342 0.611262 -0.728832 -0.682785 -0.051069
0.210728 0.152011 0.338259 0.585986 0.789776 -0.181315
0.154141 0.115132 0.348818 -0.970555 -0.141956 -0.194606
0.112291 0.098732 0.946780 -0.409208 0.748731 0.521488
0.287264 0.058219 0.912313 0.374889 -0.916471 -0.139781
0.194366 0.052926 0.133444 0.952125 -0.295430 0.078607
0.157921 0.150812 0.853759 -0.520397 0.837301 0.167675
0.141971 0.093394 0.460840 -0.879374 -0.439438 -0.183288
0.193651 0.075452 0.148867 0.997324 -0.062826 -0.037374
0.196288 0.153558 0.163321 0.950491 0.256502 0.175424
0.247755 0.058612 0.826249 -0.103229 -0.713590 0.692917
0.177680 0.086785 0.312935 -0.455656 -0.871298 -0.182256
0.231142 0.077496 0.641701 0.427105 -0.652617 0.625837
0.118899 0.114216 0.533101 -0.997015 -0.020294 -0.074495
0.247874 0.080352 0.507836 0.815775 -0.498926 -0.292548
0.182280 0.070104 0.415595 -0.190286 -0.964416 -0.183559
0.199561 0.163523 0.383003 0.242649 0.955603 -0.167164
0.192191 0.053720 0.108337 0.993992 -0.075044 -0.079673
0.183600 0.149466 0.909781 -0.106160 0.942131 0.317993
0.153432 0.072646 0.410634 0.901074 -0.433666 -0.000003
0.137193 0.062140 0.787936 -0.880887 -0.463545 0.095727
0.196152 0.200521 0.082783 0.995563 -0.036679 -0.086658
0.131863 0.135732 0.496538 -0.933348 0.328538 -0.144653
0.145395 0.130444 0.413141 -0.961037 0.193587 -0.197312
0.238989 0.168681 0.713192 0.658796 0.748625 0.074482
0.240371 0.082946 0.471953 0.741057 -0.449736 -0.498571
0.226808 0.143236 0.386458 0.843036 0.507600 -0.177856
0.115393 0.102766 0.661278 -0.996373 -0.084030 0.013383
0.121184 0.120679 0.522453 -0.990798 0.074048 -0.113294
0.193800 0.223573 0.668753 0.976340 0.163103 0.141978
0.193941 0.091186 0.161957 0.998327 -0.041857 -0.039893
0.130829 0.095492 0.492340 -0.841675 -0.366843 -0.396243
0.085218 0.053023 0.811319 -0.510520 0.667500 0.542045
0.118628 0.124748 0.639761 -0.980777 0.195037 0.006147
0.286977 0.101547 0.908954 0.638116 0.493028 -0.591381
0.126140 0.079747 0.567983 -0.872734 -0.478504 -0.096789
0.168656 0.085569 0.350976 -0.617507 -0.765569 -0.180525
0.191451 0.025216 0.809617 -0.033024 -0.998176 0.050538
0.196406 0.049672 0.536038 0.055104 -0.996583 -0.061531
0.189186 0.171244 0.826805 0.019324 0.982969 0.182752
0.123601 0.129276 0.517842 -0.953920 0.206095 -0.218088
0.129783 0.056931 0.794492 0.350146 -0.928863 -0.120879
0.174802 0.136593 0.659376 -0.026895 0.726406 0.686740
0.182381 0.181007 0.535598 -0.156210 0.974238 -0.162663
0.206599 0.158316 0.860680 0.316827 0.920767 0.227613
0.061735 0.078595 0.903095 -0.633303 0.224753 -0.740549
0.216688 0.110382 0.293709 0.970320 -0.148505 -0.190854
0.250351 0.137392 0.603178 0.862509 0.394153 0.317366
0.304076 0.051330 0.805034 0.520833 0.466281 0.715063
0.192557 0.188578 0.712944 0.039156 0.996820 0.069404
0.186396 0.166085 0.139191 -0.994795 -0.077662 -0.065965
0.170997 0.056237 0.522476 -0.300605 -0.946322 -0.118793
0.121846 0.087209 0.709090 -0.965593 -0.257729 0.034735
0.299103 0.096859 0.940406 0.577653 0.792745 0.194608
0.076221 0.040792 0.775692 0.258604 -0.965164 0.039785
0.161033 0.171606 0.742272 -0.414206 0.904451 0.101989
0.127482 0.120503 0.801088 -0.978730 0.149065 0.140952
0.179343 0.055632 0.616965 -0.258143 -0.894288 0.365530
0.252778 0.068482 0.685478 0.846290 -0.532571 0.012681
0.130186 0.066246 0.697555 -0.844045 -0.536229 0.006773
0.135688 0.081730 0.609846 -0.806297 -0.479331 0.346593
0.255402 0.058617 0.915292 0.366129 -0.900936 -0.232945
0.194486 0.104323 0.179304 0.999161 -0.029078 -0.028854
0.338603 0.031019 0.759792 -0.218226 -0.975890 0.004058
0.110541 0.092794 0.961002 -0.247938 0.271542 0.929942
0.262355 0.062009 0.926283 0.289672 -0.954636 0.069002
0.147916 0.055195 0.849575 -0.830313 -0.539090 0.141290
0.214662 0.062185 0.634146 0.174589 -0.840647 0.512671
0.189696 0.225359 0.049038 -0.488570 0.650293 -0.581737
0.216788 0.172760 0.582050 0.378829 0.903173 0.201911
0.084489 0.052705 0.770101 -0.300638 0.950098 -0.083251
0.233931 0.134840 0.407849 0.920922 0.342956 -0.185158
0.185674 0.131681 0.182771 -0.999362 -0.027474 -0.022798
0.178135 0.128076 0.669902 0.037332 0.674240 0.737568
0.147891 0.171265 0.614068 -0.595436 0.803364 -0.007924
0.247633 0.164744 0.576839 0.684939 0.727616 -0.037870
0.195610 0.036059 0.881729 -0.029892 -0.999136 0.028859
0.057661 0.088605 0.900489 -0.578499 0.590652 -0.562556
0.234534 0.132299 0.405536 0.937006 0.295486 -0.186299
0.127425 0.122082 0.616288 -0.856477 0.242350 0.455756
0.203139 0.086645 0.305962 0.475955 -0.860602 -0.181193
0.194040 0.152777 0.906530 0.090484 0.941260 0.325335
0.147708 0.089905 0.439694 -0.814587 -0.547860 -0.190521
0.206867 0.180174 0.551423 0.169876 0.978183 -0.119581
0.140777 0.065116 0.566973 -0.664084 -0.746625 0.039284
0.265566 0.121162 0.628867 0.987352 0.158500 0.003601
0.241619 0.053297 0.585276 0.682099 -0.728035 -0.068604
0.184150 0.036269 0.877226 -0.234970 -0.963916 0.125119
0.142495 0.106813 0.929886 -0.534141 0.833284 -0.142583
0.239427 0.168872 0.669641 0.639872 0.767398 0.040788
0.183752 0.199389 0.635141 -0.970753 -0.013973 -0.239673
0.166307 0.041260 0.628783 -0.311611 -0.948258 -0.060866
0.192362 0.107676 0.134220 0.992516 0.002383 -0.122089
0.211625 0.078618 0.387885 0.457906 -0.869495 -0.185203
0.219669 0.105898 0.432481 0.465390 -0.119553 -0.876994
0.065502 0.045570 0.748401 -0.254875 0.877961 -0.405244
0.238963 0.168347 0.564241 0.590438 0.803528 -0.075664
0.223145 0.056570 0.524748 0.468498 -0.853694 -0.227412
0.146346 0.085793 0.454331 -0.791963 -0.583186 -0.180801
0.075040 0.059468 0.911854 -0.439084 -0.721049 -0.535997
0.298861 0.052548 0.767599 0.326794 0.934826 -0.138948
0.252333 0.068679 0.946851 0.206483 -0.854030 0.477491
0.128728 0.137861 0.522906 -0.926309 0.362981 -0.100980
0.257679 0.099027 0.544698 0.959841 -0.279438 -0.024900
0.261407 0.123850 0.583200 0.977607 0.131924 0.163951
0.130020 0.147008 0.563582 -0.846784 0.525630 0.081674
0.247295 0.102581 0.950290 0.363940 0.810446 0.459047
0.247377 0.142508 0.770792 0.852927 0.506367 0.126916
0.235420 0.158759 0.470127 0.710652 0.691202 -0.131200
0.229640 0.135048 0.892199 0.764814 0.594611 0.247986
0.167386 0.179006 0.661534 -0.331732 0.942960 0.027935
0.132651 0.102665 0.484958 -0.954447 -0.246922 -0.167513
0.197374 0.179326 0.504999 0.120514 0.989108 -0.084504
0.126529 0.066524 0.825499 -0.349530 0.417271 0.838876
0.204390 0.134636 0.944833 0.358514 0.775697 0.519386
0.171976 0.116179 0.671253 -0.258291 0.081611 0.962614
0.283189 0.058394 0.787512 0.320123 0.946147 -0.048252
0.225942 0.169716 0.745713 0.512982 0.851086 0.111816
0.187981 0.054544 0.150969 -0.518782 -0.782856 0.343515
0.265929 0.117033 0.577393 0.993347 0.013062 0.114418
0.267820 0.105522 0.675777 0.997919 -0.056776 0.030572
0.124387 0.123273 0.600568 -0.918751 0.220680 0.327408
0.126790 0.127244 0.770880 -0.962647 0.244687 0.115929
0.167003 0.065542 0.473881 -0.239687 -0.830730 -0.502431
0.129430 0.139377 0.512767 -0.892478 0.375070 -0.250609
0.255248 0.119730 0.487257 0.986779 0.057802 -0.151415
0.196982 0.090242 0.664749 -0.110068 -0.706512 0.699089
0.139593 0.053275 0.598576 -0.632686 -0.771814 -0.063342
0.238298 0.133209 0.428659 0.934259 0.304147 -0.186161
0.255395 0.082165 0.556040 0.897792 -0.422962 -0.122775
0.190011 0.043121 0.532312 0.029395 -0.977175 -0.210390
0.159888 0.153558 0.844772 -0.483555 0.858538 0.170550
0.181063 0.116935 0.206372 -0.953078 0.021241 -0.301978
0.194682 0.122916 0.172043 0.997217 -0.071396 -0.021443
0.193398 0.170803 0.478992 -0.061418 0.904306 -0.422444
0.147633 0.143711 0.431275 -0.878353 0.440634 -0.185303
0.267173 0.064454 0.814528 0.348984 0.928318 0.128202
0.147302 0.162064 0.483077 -0.679370 0.723626 -0.121746
0.261363 0.099257 0.541683 0.972368 -0.179124 -0.149717
0.264410 0.121861 0.675517 0.986988 0.156406 0.037298
0.238670 0.048325 0.732180 0.668599 -0.743111 0.027578
0.213388 0.097563 0.299748 0.871964 -0.454292 -0.182476
0.070643 0.082870 0.937823 -0.684464 -0.003506 0.729038
0.194209 0.239315 0.620101 0.860915 -0.114909 -0.495602
0.142342 0.064493 0.567472 -0.648392 -0.760181 0.041383
0.212672 0.126901 0.279562 0.937297 0.286710 -0.198173
0.218595 0.061754 0.503405 0.400147 -0.904774 -0.145831
0.243184 0.095230 0.966821 0.231403 0.442959 0.866164
0.218553 0.039351 0.768859 0.480543 -0.876047 0.040256
0.290234 0.097448 0.946705 0.499723 0.796730 0.339851
0.225482 0.065310 0.939233 0.206904 -0.958542 0.195928
0.216655 0.172743 0.512417 0.388778 0.916610 -0.093158
0.235178 0.046354 0.814606 0.731704 -0.676896 0.080131
0.159496 0.041813 0.709297 -0.460646 -0.887533 -0.009510
0.187327 0.101496 0.160605 -0.996847 0.014610 -0.077987
0.190247 0.064621 0.169673 -0.001225 -0.846464 0.532444
0.086745 0.045630 0.810964 -0.371849 -0.135071 0.918414
0.262371 0.092468 0.578003 0.973108 -0.223655 -0.055132
0.190332 0.216408 0.628223 -0.820751 -0.090653 -0.564047
0.257924 0.093201 0.534452 0.942254 -0.285193 -0.175561
0.235658 0.152855 0.469736 0.503315 0.720965 -0.476323
0.255866 0.088180 0.745252 0.946954 -0.313092 0.072469
0.247681 0.155738 0.556058 0.782098 0.620458 0.057910
0.260389 0.104149 0.588837 0.958204 -0.193183 0.211009
0.145714 0.077396 0.876874 -0.940503 -0.304713 0.150347
0.241157 0.102264 0.445955 0.941547 -0.280528 -0.186528
0.227598 0.044328 0.697998 0.516315 -0.856395 -0.002566
0.233335 0.117677 0.371960 0.981988 0.029461 -0.186634
0.147527 0.060376 0.391529 0.901073 -0.433667 -0.000002
0.124749 0.121133 0.774660 -0.980157 0.160607 0.116176
0.130716 0.068781 0.734805 -0.884580 -0.464279 0.044302
0.186936 0.175603 0.498912 -0.122529 0.940601 -0.316632
0.206889 0.041032 0.572239 0.255884 -0.960119 -0.112666
0.221124 0.086184 0.369740 0.764973 -0.619253 -0.177039
0.233124 0.070612 0.480905 0.626051 -0.640311 -0.445041
0.191467 0.145036 0.656510 0.196844 0.808226 0.554998
0.151701 0.156933 0.438146 -0.739579 0.653786 -0.159959
0.221818 0.149307 0.368335 0.733309 0.657458 -0.173224
0.249476 0.102306 0.471412 0.855183 -0.094509 -0.509637
0.212093 0.054743 0.585386 0.239580 -0.957738 0.159180
0.201422 0.087171 0.295317 0.423781 -0.887760 -0.179701
0.195350 0.049174 0.590456 0.001573 -0.983322 0.181866
0.126421 0.126337 0.770814 -0.965729 0.232470 0.115432
0.166970 0.059800 0.497264 -0.267569 -0.886706 -0.377040
0.168268 0.036683 0.752844 -0.349563 -0.936693 0.020273
0.231713 0.155246 0.441239 0.729037 0.667066 -0.153389
0.232841 0.064809 0.604563 0.476588 -0.822663 0.309983
0.150950 0.170091 0.551534 -0.571466 0.812310 -0.116527
0.261799 0.091058 0.660899 0.967052 -0.254334 0.011174
0.128990 0.101559 0.805657 -0.988228 -0.069261 0.136411
0.227184 0.131608 0.907173 0.723814 0.649008 0.234267
0.257310 0.123063 0.759685 0.975143 0.193252 0.108395
0.138060 0.059796 0.907742 -0.511161 -0.800630 -0.312580
0.125842 0.120397 0.612698 -0.882203 0.206003 0.423416
0.146048 0.152572 0.470555 -0.671702 0.571820 -0.470997
0.239718 0.113035 0.647031 0.747148 0.116023 0.654453
0.189118 0.041361 0.110791 -0.170504 -0.878499 -0.446283
0.118409 0.102278 0.943720 -0.423073 0.821286 0.382751
0.145663 0.047304 0.723754 -0.640758 -0.767699 0.008223
0.207607 0.060954 0.635292 0.079181 -0.855666 0.511435
0.197629 0.029443 0.769589 0.088746 -0.995732 0.025354
0.252361 0.069293 0.756943 0.240618 0.874224 -0.421705
0.191126 0.077928 0.283765 1.000000 0.000000 0.000000
0.116408 0.117589 0.548656 -0.991623 0.038937 -0.123154
0.267567 0.065452 0.937533 0.257180 -0.903514 0.342814
0.166293 0.104301 0.303864 -0.888267 -0.415777 -0.195222
0.184652 0.128632 0.202885 -0.999951 -0.007205 0.006750
0.242741 0.167320 0.684885 0.682339 0.729184 0.052004
0.199606 0.173172 0.495362 0.046313 0.938080 -0.343308
0.267479 0.110303 0.553293 0.994415 0.005774 -0.105384
0.122977 0.130669 0.557680 -0.964232 0.262130 0.039300
0.194750 0.051361 0.509686 0.044410 -0.990392 -0.130966
0.213400 0.094968 0.304774 0.843120 -0.507062 -0.178991
0.254050 0.107975 0.812366 0.986683 -0.095566 0.131617
0.194767 0.103335 0.184818 0.999260 -0.035099 -0.015734
0.160158 0.109396 0.325278 -0.933199 -0.301458 -0.195608
0.195498 0.068648 0.162129 0.943942 -0.307091 0.121113
0.295493 0.076044 0.906675 0.507879 -0.391624 -0.767261
0.264586 0.120840 0.687914 0.989151 0.139568 0.045841
0.148181 0.063717 0.544934 -0.600971 -0.798244 -0.040501
0.120764 0.089539 0.677143 -0.968116 -0.250148 0.013316
0.228009 0.048295 0.855822 0.702854 -0.706475 0.082998
0.249084 0.106573 0.473207 0.967942 -0.187025 -0.167663
0.120269 0.118287 0.520575 -0.992007 0.034866 -0.121271
0.112069 0.077212 0.905210 -0.551964 -0.139280 -0.822154
0.187428 0.119432 0.161201 -0.996979 -0.016893 -0.075811
0.215700 0.052345 0.532502 0.371763 -0.903623 -0.212738
0.238513 0.061830 0.775613 -0.589523 -0.769274 -0.246332
0.259730 0.130826 0.536971 0.946897 0.282524 -0.153510
0.237201 0.163699 0.586472 0.627629 0.748980 0.212392
0.132416 0.098375 0.823770 -0.982728 -0.107500 0.150631
0.140007 0.167916 0.629677 -0.672830 0.739784 0.004317
0.147542 0.048685 0.643274 -0.569984 -0.820551 -0.042599
0.158432 0.164910 0.775668 -0.471665 0.871219 0.136050
0.188582 0.211297 0.085960 -0.066741 0.890260 0.450536
0.201164 0.075825 0.375222 0.247389 -0.952532 -0.177428
0.248092 0.058495 0.761125 -0.460911 -0.792363 -0.399652
0.239231 0.099012 0.643509 0.653780 -0.296147 0.696325
0.156787 0.169463 0.582502 -0.421936 0.881857 0.210471
0.149047 0.116479 0.374333 -0.975141 -0.107403 -0.193815
0.215485 0.121196 0.283305 0.969392 0.151089 -0.193525
0.157250 0.041148 0.806385 -0.629408 -0.771747 0.090843
0.151542 0.047626 0.841195 -0.760832 -0.636236 0.127820
0.132746 0.159446 0.629722 -0.772627 0.634850 0.003597
0.144487 0.127722 0.451054 -0.728031 0.147559 -0.669475
0.253591 0.150694 0.604203 0.823130 0.567742 -0.011202
0.236353 0.082712 0.461148 0.781188 -0.600763 -0.169793
0.125059 0.097842 0.547814 -0.960012 -0.278755 -0.025945
0.062564 0.084971 0.914396 -0.941020 0.288465 -0.176834
0.131374 0.132121 0.492188 -0.888058 0.268008 -0.373530
0.160065 0.118515 0.310099 -0.977404 -0.087985 -0.192197
0.258818 0.110795 0.783770 0.991708 -0.061419 0.112887
0.155132 0.099135 0.958234 -0.356404 0.723971 0.590628
0.178256 0.056707 0.941530 -0.162855 -0.893110 0.419323
0.186174 0.164570 0.167596 -0.144188 0.817080 0.558203
0.188281 0.191908 0.714120 -0.714842 0.274118 0.643319
0.133993 0.058205 0.580421 -0.693923 -0.716555 -0.070851
0.245916 0.166152 0.662741 0.701851 0.711471 0.034843
0.260598 0.068839 0.946688 0.219757 -0.832763 0.508147
0.190198 0.031094 0.640777 0.010828 -0.998149 -0.059837
0.228125 0.074462 0.399111 0.899562 0.436793 -0.000011
0.191370 0.135295 0.206156 -0.246340 0.879824 -0.406481
0.173612 0.106166 0.262447 -0.900202 -0.390548 -0.192635
0.126982 0.097846 0.523810 -0.948801 -0.291685 -0.121226
0.252142 0.134998 0.600315 0.888418 0.350559 0.296347
0.239970 0.067765 0.833111 0.878505 -0.464320 0.112408
0.218222 0.156992 0.838959 0.486820 0.849362 0.203938
0.185269 0.182993 0.690941 -0.978347 -0.204511 -0.031802
0.129933 0.066826 0.666462 -0.833332 -0.552605 -0.013604
0.224517 0.041949 0.764480 0.552307 -0.832616 0.041318
0.226147 0.167554 0.758429 0.528146 0.840038 0.124088
0.150934 0.067456 0.401793 0.901074 -0.433666 -0.000003
0.205291 0.143411 0.277712 0.657567 0.724395 -0.207021
0.249243 0.088146 0.806036 0.947379 -0.298361 0.115988
0.252161 0.093361 0.612020 0.840075 -0.365788 0.400590
0.155287 0.116610 0.339089 -0.973922 -0.118810 -0.193288
0.121811 0.103867 0.553722 -0.984726 -0.174101 0.002106
0.183763 0.070901 0.405962 -0.185801 -0.965495 -0.182474
0.115843 0.101989 0.691008 -0.996861 -0.071630 0.033718
0.249092 0.130535 0.480226 0.960533 0.231657 -0.153984
0.257542 0.080411 0.609639 0.919275 -0.392138 -0.034071
0.202520 0.178942 0.523407 0.173059 0.983559 -0.051601
0.090266 0.100472 0.926248 -0.501181 0.860663 0.089871
0.204170 0.033607 0.830065 0.242225 -0.967827 0.068101
0.154322 0.170021 0.547421 -0.487730 0.872176 0.037798
0.237214 0.090341 0.449577 0.844620 -0.504028 -0.180479
0.225923 0.070750 0.951620 0.162917 -0.861769 0.480430
0.246098 0.130664 0.465368 0.959146 0.231248 -0.162980
0.177921 0.173703 0.594752 -0.108514 0.948180 0.298629
0.232526 0.131425 0.888081 0.828314 0.507810 0.236697
0.150818 0.172626 0.594482 -0.568522 0.822347 -0.023001
0.259880 0.132207 0.696184 0.954742 0.292086 0.056154
0.160093 0.160773 0.808576 -0.445347 0.878547 0.172688
0.122642 0.133230 0.667710 -0.942235 0.333820 0.027517
0.191095 0.182967 0.514611 0.007624 0.997464 -0.070764
0.151619 0.172251 0.680721 -0.529603 0.847216 0.041791
0.236587 0.129772 0.411377 0.951324 0.244974 -0.187005
0.166674 0.174525 0.578107 -0.298299 0.936730 0.183178
0.220192 0.040098 0.764281 0.495114 -0.867994 0.038056
0.220755 0.080927 0.448831 0.500212 -0.529231 -0.685348
0.224780 0.091561 0.443196 0.552287 -0.353582 -0.754956
0.246475 0.130333 0.466538 0.960502 0.225982 -0.162385
0.264320 0.125766 0.581132 0.970208 0.240125 -0.032200
0.296282 0.053451 0.794185 0.416240 0.897198 0.147583
0.207330 0.157269 0.364278 0.477566 0.860803 -0.175925
0.244495 0.138755 0.810278 0.886490 0.433978 0.160620
0.129684 0.070180 0.768266 -0.163104 0.923181 -0.348044
0.194986 0.033789 0.600447 0.093667 -0.992412 -0.079661
0.251772 0.114898 0.833069 0.988994 0.011891 0.147480
0.186839 0.129367 0.415998 -0.092688 0.208577 -0.973604
0.215400 0.147678 0.446696 0.264277 0.665748 -0.697808
0.231784 0.169382 0.574499 0.552058 0.820532 0.148187
0.193970 0.098925 0.165974 0.998495 -0.029721 -0.046081
0.187476 0.147791 0.137917 -0.994478 -0.071053 -0.077230
0.249799 0.152500 0.565973 0.813264 0.573582 0.098006
0.157704 0.046359 0.583618 -0.410108 -0.908233 -0.083207
0.141432 0.147498 0.623783 -0.544389 0.677877 0.494089
0.255157 0.143096 0.714443 0.898528 0.432859 0.072667
0.231174 0.165202 0.758197 0.598335 0.792055 0.121017
0.223221 0.043454 0.669556 0.468630 -0.883115 -0.022222
0.163121 0.073736 0.443533 -0.541503 -0.820841 -0.181643
0.190966 0.028066 0.718327 -0.013645 -0.999743 -0.018112
0.174235 0.143905 0.285576 -0.761867 0.610402 -0.216721
0.211333 0.104442 0.962612 0.363848 0.538901 0.759737
0.242711 0.093291 0.909585 0.849050 0.289890 -0.441677
0.192567 0.068860 0.122985 0.995357 -0.056449 -0.077966
0.193825 0.185001 0.134874 0.535403 0.729062 0.426395
0.133185 0.150172 0.536495 -0.825116 0.564131 -0.030637
0.133773 0.159106 0.557688 -0.772388 0.628076 -0.094538
0.304274 0.099196 0.910480 0.575433 0.458200 -0.677444
0.259565 0.133922 0.676383 0.946543 0.319829 0.042031
0.061425 0.077448 0.900464 -0.556917 0.225254 -0.799440
0.144777 0.062182 0.768323 0.594890 -0.758424 -0.266268
0.100101 0.061855 0.903304 -0.433120 -0.521381 -0.735234
0.147191 0.147767 0.837383 -0.658989 0.734559 0.161733
0.169850 0.087333 0.335661 -0.630139 -0.755669 -0.178577
0.137226 0.164124 0.572440 -0.660824 0.739741 0.126865
0.305976 0.064183 0.931301 0.342218 -0.861528 0.375041
0.227712 0.059859 0.566604 0.471622 -0.880564 0.046683
0.192474 0.037583 0.560251 0.063941 -0.987754 -0.142312
0.196225 0.176178 0.789072 0.111213 0.982319 0.150601
0.168681 0.172455 0.512516 -0.352938 0.901860 -0.249166
0.185434 0.032923 0.644010 -0.053157 -0.996930 -0.057480
0.199234 0.153131 0.644673 0.255119 0.808361 0.530533
0.187721 0.153930 0.299633 -0.187297 0.960494 -0.205844
0.179936 0.147694 0.909470 -0.177911 0.934360 0.308739
0.200079 0.163824 0.630378 0.233170 0.846319 0.478933
0.146155 0.062682 0.573312 -0.604709 -0.793920 0.063391
0.257370 0.105682 0.614748 0.895424 -0.160680 0.415209
0.193943 0.168863 0.621441 0.145349 0.894136 0.423550
0.144524 0.106816 0.937643 -0.466222 0.882916 0.055634
0.269923 0.052677 0.760570 -0.300955 -0.765710 -0.568431
0.252143 0.085363 0.552113 0.864586 -0.502484 0.001076
0.114050 0.106164 0.665088 -0.999135 -0.037095 0.018819
0.158155 0.171885 0.559451 -0.424604 0.900808 0.090866
0.127580 0.144424 0.711651 -0.862493 0.502099 0.063273
0.128365 0.095372 0.519943 -0.932468 -0.334538 -0.136340
0.104966 0.089032 0.904795 -0.559730 0.278414 -0.780505
0.188115 0.123194 0.679058 0.179475 0.635533 0.750924
0.122850 0.135237 0.629787 -0.941763 0.336278 0.000093
0.258595 0.102732 0.510539 0.954782 -0.142469 -0.260949
0.161857 0.082786 0.389271 -0.643666 -0.743257 -0.182381
0.229980 0.044541 0.738477 0.579412 -0.814614 0.026172
0.139752 0.067046 0.945645 -0.240055 -0.823590 0.513881
0.226257 0.137341 0.370135 0.894143 0.408417 -0.183585
0.217152 0.038853 0.758289 0.442663 -0.896145 0.031205
0.247296 0.064355 0.745352 0.815108 -0.576884 0.052951
0.231748 0.099869 0.401138 0.912764 -0.360002 -0.193030
0.153585 0.044257 0.823271 -0.697683 -0.707950 0.109752
0.140931 0.074119 0.775755 0.053165 0.971015 -0.233029
0.192719 0.177415 0.085471 0.985617 -0.123310 -0.115557
0.257754 0.122024 0.760326 0.979304 0.171310 0.107779
0.245802 0.130025 0.462447 0.961408 0.220188 -0.164961
0.165975 0.111440 0.666838 -0.502815 -0.354095 0.788539
0.212243 0.076826 0.403249 0.464309 -0.865574 -0.187616
0.294247 0.096453 0.907046 0.570368 0.312404 -0.759660
0.206042 0.173469 0.505048 0.148617 0.944185 -0.293987
0.142930 0.098776 0.955301 -0.369808 0.725136 0.580878
0.119188 0.092891 0.627408 -0.970072 -0.242015 -0.019715
0.105607 0.049637 0.783462 0.329888 -0.937913 -0.107201
0.193781 0.079548 0.153425 0.997666 -0.058226 -0.035679
0.152817 0.164574 0.484180 -0.588260 0.799644 -0.120497
0.162427 0.083297 0.384193 -0.645248 -0.742013 -0.181858
0.131656 0.147413 0.518254 -0.842239 0.495018 -0.213519
0.132445 0.133621 0.791897 -0.913354 0.381138 0.143246
0.224371 0.096708 0.964859 0.230982 0.467115 0.853493
0.279345 0.048567 0.765040 -0.338681 -0.867671 -0.363925
0.170760 0.175390 0.519876 -0.287284 0.955187 -0.071316
0.186778 0.209034 0.638018 -0.978686 -0.005399 -0.205291
0.233039 0.161727 0.474908 0.665324 0.735940 -0.125445
0.226448 0.077915 0.395024 0.899563 0.436792 -0.000011
0.223991 0.150205 0.638235 0.519436 0.680198 0.517220
0.226137 0.125885 0.653494 0.602712 0.432846 0.670360
0.191126 0.158992 0.280589 -1.000000 0.000000 0.000000
0.178859 0.178833 0.527722 -0.153053 0.987681 -0.032571
0.089645 0.059955 0.902004 -0.381090 -0.489849 -0.784104
0.212668 0.037174 0.733294 0.332835 -0.942945 0.008687
0.171366 0.150324 0.325852 -0.684820 0.702518 -0.193624
0.193364 0.122407 0.146105 0.994860 -0.068554 -0.074525
0.253998 0.088382 0.558475 0.889922 -0.455301 0.027185
0.185105 0.186599 0.665177 -0.083369 0.996018 0.031573
0.233683 0.168136 0.733706 0.604841 0.790381 0.097289
0.206735 0.177975 0.548429 0.243554 0.968611 0.049740
0.264111 0.124995 0.624651 0.977482 0.211013 0.001635
0.186965 0.184852 0.555101 -0.097772 0.989489 -0.106544
0.155519 0.099424 0.441572 -0.492720 -0.373707 -0.785856
0.207352 0.172509 0.781474 0.265343 0.952612 0.148738
0.131724 0.143495 0.516377 -0.884212 0.450858 -0.122051
0.165500 0.058326 0.597822 -0.411675 -0.880070 0.236642
0.216517 0.037667 0.793356 0.443361 -0.894388 0.059168
0.176322 0.155528 0.343381 -0.461437 0.866245 -0.191558
0.208876 0.057461 0.616567 0.133097 -0.911728 0.388636
0.193544 0.188194 0.672667 0.031275 0.998789 0.037989
0.224681 0.043295 0.829506 0.613176 -0.785870 0.080141
0.136918 0.166582 0.638427 -0.699363 0.714685 0.010783
0.202531 0.059221 0.482514 0.167121 -0.974281 -0.151152
0.231062 0.051113 0.571140 0.569918 -0.815018 -0.104585
0.306230 0.041095 0.794950 -0.165973 -0.971630 0.168488
0.141025 0.052919 0.590465 -0.613217 -0.786896 -0.068984
0.284547 0.057827 0.792943 0.336217 0.941503 0.023024
0.209344 0.177563 0.740633 0.282155 0.953598 0.105073
0.292047 0.051485 0.756320 0.018974 0.245013 -0.969334
0.166628 0.178426 0.573531 -0.372905 0.926117 -0.057009
0.195317 0.201654 0.077174 0.991628 -0.076323 -0.104154
0.214342 0.175573 0.534153 0.277216 0.945727 -0.169565
0.184040 0.053829 0.495918 -0.026206 -0.926672 -0.374957
0.188741 0.147805 0.190588 -0.100294 0.803841 0.586328
0.126103 0.068927 0.759974 -0.144348 0.895437 -0.421137
0.129295 0.139314 0.590130 -0.852775 0.454096 0.258015
0.198522 0.080368 0.441601 0.194069 -0.603860 -0.773104
0.186607 0.138896 0.160531 -0.997496 -0.049235 -0.050761
0.196288 0.141540 0.178887 0.965829 0.202922 0.161235
0.237700 0.113935 0.899593 0.882110 0.470853 0.013405
0.304177 0.050781 0.754362 0.322672 0.917655 -0.231932
0.138222 0.052839 0.750517 -0.782173 -0.621426 0.045114
0.184936 0.185466 0.113384 -0.998460 0.005636 -0.055195
0.202762 0.036476 0.618760 0.196161 -0.978357 -0.065862
0.188275 0.079823 0.323716 -0.024953 -0.985797 -0.166080
0.085765 0.043314 0.757258 0.310263 -0.922254 -0.230618
0.204520 0.174062 0.484907 0.269552 0.956973 -0.107441
0.246206 0.153447 0.516986 0.795573 0.595918 -0.109291
0.196796 0.173429 0.805624 0.128418 0.977389 0.167984
0.174812 0.126605 0.251928 -0.960652 0.170313 -0.219413
0.253244 0.128578 0.608360 0.900755 0.245275 0.358442
0.121364 0.090867 0.568986 -0.942065 -0.324214 -0.086017
0.130441 0.095537 0.508323 -0.927149 -0.341440 -0.154313
0.142875 0.117081 0.407557 -0.977518 -0.083521 -0.193602
0.129911 0.132421 0.499274 -0.951368 0.271828 -0.144942
0.199207 0.029334 0.796328 0.109879 -0.992794 0.047825
0.257437 0.134176 0.556807 0.955748 0.290925 0.043683
0.170160 0.147598 0.313505 -0.729496 0.654002 -0.200294
0.213422 0.179920 0.680579 0.310636 0.949249 0.049312
0.277114 0.066817 0.941605 0.254372 -0.848167 0.464658
0.124492 0.080240 0.678139 -0.927137 -0.374681 0.005545
0.236667 0.146357 0.460796 0.533380 0.652749 -0.537981
0.128972 0.069424 0.636162 -0.835132 -0.549192 -0.030700
0.112774 0.109338 0.663945 -0.999787 0.002148 0.020507
0.262557 0.053458 0.810767 -0.230581 -0.923613 0.306222
0.250058 0.156171 0.708199 0.805433 0.588622 0.069289
0.194388 0.088815 0.170388 0.998442 -0.052728 -0.018236
0.169694 0.099746 0.963079 -0.332814 0.674389 0.659116
0.238840 0.048557 0.715714 0.647901 -0.761553 0.016182
0.157148 0.110536 0.341716 -0.950770 -0.239189 -0.197041
0.115615 0.116015 0.569503 -0.997142 0.028427 0.070002
0.225406 0.155250 0.403852 0.691382 0.704193 -0.161566
0.226648 0.044537 0.680506 0.510338 -0.859873 -0.013199
0.169381 0.131349 0.942195 -0.388386 0.781505 0.488268
0.210636 0.126604 0.269393 0.934976 0.292448 -0.200734
0.183980 0.183540 0.554164 -0.136728 0.984454 -0.110250
0.253765 0.070971 0.682791 0.863226 -0.504661 0.012600
0.256581 0.103155 0.931489 0.608376 0.784387 0.120891
0.149630 0.124287 0.444435 -0.658350 0.085165 -0.747878
0.162774 0.038583 0.794494 -0.512140 -0.855977 0.070830
0.138368 0.104203 0.876136 -0.991929 0.010669 0.126341
0.193946 0.153380 0.904585 0.090587 0.943297 0.319351
0.202075 0.079725 0.349812 0.298792 -0.937840 -0.176577
0.198313 0.149886 0.292600 0.365799 0.906504 -0.210811
0.209472 0.140951 0.283021 0.750662 0.630152 -0.198533
0.250202 0.158403 0.618210 0.760581 0.649242 0.000734
0.262280 0.103927 0.574568 0.975810 -0.197130 0.094519
0.209389 0.044951 0.890872 0.227353 -0.960531 -0.160282
0.139795 0.102514 0.453679 -0.939565 -0.286232 -0.187853
0.226507 0.136568 0.900954 0.704206 0.658962 0.264316
0.128963 0.104805 0.496935 -0.967002 -0.199530 -0.158413
0.194093 0.034579 0.578337 0.086556 -0.991413 -0.098027
0.132227 0.158368 0.621334 -0.784722 0.619842 -0.002721
0.247302 0.099349 0.637167 0.742180 -0.278309 0.609682
0.166496 0.168048 0.465725 -0.391585 0.910741 -0.131194
0.133553 0.059248 0.826878 0.268008 -0.910307 0.315458
0.152984 0.044684 0.706256 -0.545539 -0.838048 -0.007880
0.190636 0.049032 0.599361 -0.075721 -0.968663 0.236557
0.194798 0.206025 0.660945 0.998282 0.030530 0.050015
0.206340 0.038218 0.611226 0.248797 -0.966110 -0.068789
0.165035 0.173643 0.532766 -0.355067 0.934645 -0.019138
0.068073 0.065616 0.910462 -0.558538 -0.534859 -0.634004
0.122548 0.120460 0.598099 -0.939145 0.167291 0.300033
0.142114 0.162845 0.506252 -0.692132 0.714402 -0.102878
0.216522 0.090334 0.658376 0.287504 -0.459195 0.840524
0.144679 0.164406 0.509887 -0.645349 0.757354 -0.099699
0.150607 0.140860 0.406755 -0.894392 0.404067 -0.191813
0.221156 0.140200 0.902645 0.612325 0.739120 0.280641
0.191126 0.077215 0.277702 1.000000 0.000000 0.000000
0.125112 0.104936 0.921357 -0.551677 0.789695 -0.268392
0.171274 0.159776 0.631083 -0.126178 0.846257 0.517618
0.120026 0.090974 0.608469 -0.957473 -0.286561 -0.033591
0.125619 0.114003 0.493826 -0.986588 -0.055010 -0.153684
0.153388 0.152126 0.417259 -0.787808 0.590383 -0.175520
0.140647 0.111501 0.889776 -0.927115 0.324858 -0.186880
0.246971 0.128813 0.468093 0.767136 0.368258 -0.525251
0.179012 0.052153 0.540450 -0.187358 -0.980909 -0.052092
0.050154 0.039786 0.760724 -0.400199 0.916395 -0.007872
0.213466 0.177533 0.550206 0.263921 0.956607 -0.123483
0.211255 0.138269 0.288936 0.806260 0.557482 -0.197883
0.197523 0.152027 0.301212 0.284339 0.936589 -0.204822
0.137662 0.157906 0.748962 -0.714889 0.692000 0.100346
0.214683 0.105653 0.665757 0.321515 -0.176181 0.930370
0.251771 0.114390 0.459989 0.822942 0.145280 -0.549236
0.242474 0.066800 0.546201 0.666476 -0.744986 -0.028391
0.210823 0.034495 0.812525 0.332001 -0.940633 0.070603
0.126222 0.075912 0.640956 -0.886701 -0.461742 -0.023584
0.137949 0.079590 0.617827 -0.769847 -0.497001 0.400407
0.184472 0.140885 0.658465 0.097003 0.749070 0.655351
0.222316 0.058968 0.546036 0.412527 -0.910536 -0.027328
0.148562 0.168633 0.573326 -0.537508 0.831323 0.141376
0.119814 0.109024 0.514373 -0.964226 -0.118398 -0.237172
0.256728 0.141732 0.660932 0.904185 0.425888 0.032699
0.231318 0.128099 0.898411 0.827337 0.500130 0.255700
0.189002 0.184787 0.714248 -0.771020 -0.063091 0.633678
0.194727 0.078454 0.334955 0.132250 -0.977417 -0.164819
0.251218 0.065201 0.619641 0.813917 -0.579856 -0.036147
0.206683 0.039697 0.578416 0.253612 -0.962460 -0.096705
0.121054 0.088648 0.663063 -0.962055 -0.272846 0.002217
0.167681 0.108174 0.290708 -0.926416 -0.320322 -0.197857
0.173170 0.035966 0.708834 -0.261997 -0.964922 -0.016800
0.160710 0.040540 0.820522 -0.592074 -0.799388 0.102116
0.229337 0.148380 0.412442 0.795936 0.580685 -0.171145
0.186704 0.112805 0.174178 -0.998338 0.008751 -0.056969
0.154025 0.168563 0.514767 -0.532233 0.841304 -0.094528
0.215409 0.154474 0.858166 0.473036 0.852172 0.223695
0.195215 0.121160 0.406510 0.048279 0.059263 -0.997074
0.140425 0.117767 0.878278 -0.957895 0.265116 0.110229
0.246331 0.165904 0.670873 0.709763 0.703254 0.040866
0.196288 0.138039 0.177982 0.991003 0.094985 0.094295
0.136738 0.153183 0.512248 -0.795223 0.595719 -0.112867
0.112286 0.084543 0.905468 -0.539078 0.090235 -0.837408
0.122563 0.085116 0.591693 -0.921207 -0.386018 -0.048655
0.229034 0.053640 0.882226 0.737333 -0.675522 0.003099
0.194974 0.167682 0.163328 0.599945 0.670076 0.437109
0.176936 0.063245 0.469183 -0.279196 -0.945960 -0.164953
0.172632 0.069326 0.445378 -0.360128 -0.915191 -0.180926
0.201883 0.157964 0.350059 0.309499 0.933408 -0.181548
0.246246 0.119116 0.851686 0.975956 0.135401 0.170809
0.321888 0.036427 0.773518 -0.219438 -0.974786 0.040498
0.196838 0.037172 0.884144 -0.010477 -0.999901 0.009444
0.193314 0.132996 0.136155 0.993493 -0.082171 -0.078860
0.112412 0.087579 0.961016 -0.253435 -0.066781 0.965045
0.254925 0.140615 0.531914 0.878968 0.445088 -0.171204
0.189681 0.185162 0.719115 -0.373323 0.051670 0.926261
0.129373 0.127978 0.613087 -0.835240 0.330057 0.439813
0.130642 0.152533 0.693822 -0.806230 0.589463 0.050275
0.173905 0.168604 0.491677 -0.308595 0.878372 -0.365009
0.296525 0.053472 0.790552 0.395070 0.912231 0.108421
0.101204 0.058857 0.912503 -0.472179 -0.818406 -0.327504
0.194618 0.160316 0.133026 0.990893 -0.120761 -0.059557
0.158969 0.113106 0.324662 -0.956906 -0.215241 -0.194940
0.187690 0.087633 0.663305 -0.244670 -0.761706 0.599950
0.169007 0.055784 0.545311 -0.337090 -0.940670 -0.038870
0.249732 0.115302 0.842943 0.987262 0.038369 0.154405
0.224308 0.063840 0.504175 0.480400 -0.864928 -0.145311
0.167608 0.081032 0.384472 -0.561593 -0.806316 -0.185656
0.186714 0.159016 0.175213 -0.176222 0.808425 0.561600
0.145724 0.158143 0.783577 -0.623716 0.769514 0.137209
0.217918 0.039050 0.771068 0.474869 -0.879079 0.041465
0.133220 0.132063 0.801895 -0.912675 0.378479 0.154201
0.135787 0.087275 0.487141 -0.750702 -0.501589 -0.429948
0.180153 0.184477 0.633938 -0.167566 0.985843 0.005931
0.139487 0.146506 0.485698 -0.770499 0.493473 -0.403505
0.221355 0.057713 0.580822 0.376084 -0.918260 0.123938
0.321275 0.091566 0.905612 0.444713 0.128118 -0.886463
0.193081 0.165998 0.631473 0.151080 0.867017 0.474823
0.162843 0.121525 0.300252 -0.979532 -0.001533 -0.201284
0.195775 0.180828 0.518096 0.017882 0.977268 -0.211250
0.207838 0.175245 0.504916 0.275377 0.956789 -0.093395
0.132063 0.144574 0.754681 -0.866317 0.488300 0.105159
0.237018 0.128540 0.411030 0.957006 0.221615 -0.187151
0.230669 0.173009 0.625582 0.509869 0.860229 0.006345
0.067456 0.080253 0.927027 -0.908608 -0.168480 0.382159
0.211653 0.038579 0.840934 0.411553 -0.908231 0.075758
0.161773 0.049730 0.888936 -0.641787 -0.752247 0.149113
0.205940 0.114467 0.675917 0.398921 0.468805 0.788088
0.188016 0.046362 0.130786 -0.528623 -0.834639 0.154712
0.212731 0.103494 0.284800 0.926383 -0.326400 -0.187822
0.180313 0.051128 0.928367 -0.213351 -0.940855 0.263200
0.343889 0.029427 0.741422 -0.295658 -0.930281 -0.217172
0.198265 0.092930 0.247350 0.581910 -0.789884 -0.193557
0.187916 0.192630 0.088931 -0.982306 -0.135479 -0.129304
0.228725 0.172458 0.563422 0.469107 0.879316 -0.082109
0.244223 0.150592 0.603725 0.742606 0.587700 0.321162
0.173441 0.113996 0.960910 -0.363396 0.604873 0.708570
0.132130 0.156178 0.696558 -0.774682 0.630177 0.052382
0.241421 0.146588 0.476539 0.854777 0.498542 -0.144265
0.145206 0.140345 0.436702 -0.905129 0.382852 -0.184842
0.067017 0.067082 0.908349 -0.566507 -0.417214 -0.710635
0.196288 0.203252 0.080156 0.996998 -0.011243 -0.076601
0.204292 0.063705 0.461159 0.200559 -0.965912 -0.163680
0.250376 0.104289 0.471189 0.859572 -0.055988 -0.507938
0.243181 0.069882 0.526686 0.703628 -0.703842 -0.097539
0.138162 0.075234 0.513705 -0.757457 -0.636503 -0.145338
0.184823 0.087468 0.972049 -0.287744 -0.086900 0.953757
0.178826 0.156717 0.343073 -0.379393 0.905668 -0.189278
0.187262 0.028874 0.742586 -0.071086 -0.997468 0.001907
0.188289 0.143102 0.242397 -0.315808 0.904361 -0.287048
0.206177 0.167834 0.484709 0.127774 0.903382 -0.409358
0.252376 0.092689 0.503500 0.897339 -0.307794 -0.316299
0.170464 0.123504 0.268020 -0.974901 0.071669 -0.210787
0.124645 0.134322 0.557545 -0.945522 0.322729 0.042831
0.183751 0.096054 0.194932 -0.961724 -0.230630 0.147979
0.132126 0.065444 0.827107 -0.203478 0.001302 0.979079
0.138092 0.051900 0.674748 -0.694822 -0.718949 -0.018307
0.137027 0.137976 0.473299 -0.914153 0.372362 -0.160219
0.162534 0.160684 0.815626 -0.412013 0.893901 0.176597
0.179237 0.073739 0.399942 -0.296830 -0.936532 -0.186544
0.194660 0.032228 0.640797 0.070808 -0.995786 -0.058281
0.208345 0.056455 0.610407 0.138038 -0.928431 0.344909
0.241171 0.084635 0.472120 0.755132 -0.425390 -0.498819
0.173483 0.050550 0.526760 -0.196203 -0.952586 -0.232560
0.246823 0.165231 0.666527 0.715469 0.697630 0.037638
0.157046 0.075161 0.958842 -0.205050 -0.596558 0.775934
0.192985 0.140669 0.122944 0.991526 -0.089519 -0.094142
0.209474 0.136080 0.276270 0.822300 0.531428 -0.203487
0.226262 0.154537 0.407675 0.707932 0.687357 -0.162393
0.239855 0.055719 0.565192 0.664484 -0.738837 -0.112164
0.194198 0.179793 0.631188 0.848881 -0.376132 -0.371384
0.154901 0.101161 0.375851 -0.897577 -0.393108 -0.199554
0.251255 0.156742 0.584377 0.763002 0.645880 -0.025841
0.240854 0.058406 0.807182 0.815990 -0.571164 0.089064
0.186956 0.159914 0.136147 -0.995360 -0.070800 -0.065158
0.150107 0.098864 0.957192 -0.360857 0.721099 0.591438
0.224580 0.170010 0.747711 0.495786 0.860910 0.114154
0.130919 0.121066 0.819459 -0.969090 0.196870 0.148687
0.139457 0.069002 0.507771 -0.630364 -0.717706 -0.295871
0.147795 0.075192 0.781887 0.417450 0.899214 -0.130959
0.143093 0.116860 0.406832 -0.977105 -0.087776 -0.193807
0.138011 0.112237 0.443141 -0.973008 -0.132492 -0.188948
0.220086 0.043211 0.634202 0.433139 -0.900089 -0.047236
0.193318 0.031918 0.860563 -0.032309 -0.994895 0.095601
0.256081 0.143722 0.646595 0.888545 0.458270 0.021823
0.030596 0.032475 0.749784 -0.425428 0.904701 -0.022960
0.222472 0.113634 0.319054 0.980360 -0.051951 -0.190251
0.116891 0.118256 0.691655 -0.988755 0.143672 0.041485
0.134357 0.111725 0.862065 -0.989047 0.080558 0.123675
0.174621 0.171366 0.500554 -0.287870 0.904082 -0.315857
0.191126 0.069208 0.271617 1.000000 0.000000 0.000000
0.188726 0.093836 0.210707 -0.066927 -0.959410 -0.273960
0.143478 0.123868 0.450236 -0.732423 0.070674 -0.677171
0.196288 0.136312 0.176438 0.999553 -0.016075 0.025193
0.160258 0.041985 0.690508 -0.436092 -0.899647 -0.021441
0.220404 0.173659 0.538090 0.361770 0.918862 -0.157526
0.182882 0.130256 0.418777 -0.155757 0.226142 -0.961561
0.196958 0.139513 0.428896 0.026185 0.453563 -0.890840
0.121231 0.111019 0.504023 -0.948946 -0.103271 -0.298056
0.196288 0.148352 0.168646 0.965885 0.208995 0.152932
0.209761 0.159945 0.389261 0.461796 0.870553 -0.169944
0.186306 0.171680 0.428226 -0.116498 0.982289 -0.146751
0.207237 0.177487 0.537531 0.247996 0.968753 0.003868
0.300851 0.064030 0.931053 0.335401 -0.875584 0.347649
0.135781 0.153881 0.749440 -0.766700 0.633994 0.101104
0.203623 0.173165 0.787985 0.214126 0.964586 0.154025
0.067426 0.097642 0.926446 -0.512586 0.820660 0.252532
0.322612 0.088444 0.905488 0.479475 0.026202 -0.877164
0.256217 0.114650 0.490353 0.988124 -0.026391 -0.151372
0.255410 0.085768 0.542845 0.903441 -0.398909 -0.157051
0.234734 0.171302 0.621601 0.557764 0.829992 0.003431
0.149225 0.048156 0.635983 -0.543998 -0.837714 -0.047979
0.202270 0.173488 0.789758 0.195509 0.968346 0.155185
0.133866 0.161345 0.664445 -0.742894 0.668779 0.029044
0.163744 0.177446 0.669259 -0.378039 0.925161 0.034099
0.129445 0.070478 0.949136 -0.243394 -0.759210 0.603622
0.213471 0.142332 0.306548 0.764920 0.615704 -0.189224
0.119852 0.126348 0.557985 -0.977130 0.187256 -0.100756
0.175400 0.082966 0.441976 -0.145884 -0.615095 -0.774840
0.244924 0.064952 0.529190 0.712018 -0.675194 -0.192728
0.144741 0.161021 0.486938 -0.708042 0.696020 -0.119300
0.251312 0.065386 0.588488 0.814263 -0.577563 -0.058289
0.131502 0.057533 0.799759 0.351676 -0.932152 -0.086121
0.184880 0.137699 0.191038 -0.999840 -0.017838 -0.001607
0.167003 0.053157 0.526090 -0.287285 -0.928714 -0.234432
0.162297 0.093369 0.346797 -0.770827 -0.609505 -0.185279
0.181242 0.145525 0.652183 0.043506 0.777182 0.627771
0.224160 0.043239 0.687072 0.474591 -0.880131 -0.011565
0.209848 0.163977 0.416595 0.393181 0.904974 -0.162575
0.216310 0.130365 0.939909 0.572567 0.684896 0.450649
0.236442 0.089527 0.892860 0.995100 0.093097 -0.033285
0.292445 0.097242 0.945744 0.512948 0.799328 0.312984
0.245529 0.128916 0.830110 0.938037 0.297839 0.177139
0.210109 0.036616 0.831477 0.361059 -0.929666 0.073196
0.243801 0.081939 0.629600 0.629772 -0.572628 0.524865
0.199857 0.160065 0.868462 0.206090 0.950524 0.232446
0.176816 0.156090 0.452540 -0.308433 0.719332 -0.622439
0.136004 0.069614 0.793729 -0.912628 -0.394501 0.107141
0.256745 0.079005 0.716523 0.914261 -0.402820 0.043158
0.139664 0.056269 0.789916 -0.843490 -0.529300 0.091469
0.182828 0.180182 0.749184 -0.097340 0.989289 0.108778
0.193547 0.162043 0.349745 0.022001 0.985180 -0.170109
0.134000 0.080833 0.507645 -0.765100 -0.566340 -0.306401
0.063542 0.041024 0.746784 -0.143232 0.650823 -0.745596
0.204345 0.087906 0.660329 -0.005189 -0.723266 0.690550
0.237234 0.116846 0.896367 0.903227 0.418552 0.094846
0.132511 0.159279 0.613527 -0.779912 0.625835 -0.008230
0.180468 0.111434 0.967581 -0.248140 0.528566 0.811816
0.230749 0.110037 0.372325 0.969064 -0.156872 -0.190544
0.177563 0.177332 0.511140 -0.190457 0.978004 -0.085056
0.167695 0.054472 0.574444 -0.336859 -0.938938 0.070151
0.194660 0.130337 0.165118 0.996634 -0.078236 -0.024496
0.217657 0.130398 0.307402 0.915081 0.352563 -0.195770
0.168537 0.175770 0.558054 -0.285306 0.954218 0.089822
0.251845 0.070464 0.757375 0.246606 0.899101 -0.361666
0.256465 0.077992 0.653190 0.904415 -0.426638 -0.003635
0.176346 0.067524 0.446554 -0.284006 -0.942102 -0.178285
0.185214 0.178710 0.631243 -0.785208 -0.486695 -0.382853
0.133182 0.159260 0.566139 -0.779116 0.622763 -0.071727
0.165996 0.157579 0.839235 -0.385864 0.905898 0.174522
0.238501 0.147167 0.820618 0.780959 0.600764 0.170837
0.233200 0.160659 0.466785 0.679028 0.722371 -0.130769
0.290679 0.098229 0.937415 0.598225 0.784721 0.162296
0.257048 0.094395 0.753500 0.967117 -0.240492 0.082753
0.187079 0.027033 0.812467 -0.109213 -0.992280 0.058757
0.186516 0.236046 0.658634 -0.945450 0.260935 0.195032
0.121528 0.109007 0.530052 -0.990357 -0.104027 -0.091498
0.107752 0.102647 0.925844 -0.483679 0.874329 -0.040033
0.243442 0.106348 0.916271 0.734607 0.671601 -0.096459
0.237181 0.169727 0.682006 0.622199 0.781220 0.050637
0.204308 0.128006 0.237852 0.881791 0.403135 -0.244799
0.134968 0.083777 0.497394 -0.759329 -0.536153 -0.368727
0.146575 0.062812 0.780597 0.613465 -0.768255 -0.182880
0.257776 0.068322 0.806287 0.301447 0.952873 -0.034101
0.261537 0.090310 0.690431 0.964744 -0.261240 0.031986
0.220525 0.172567 0.545266 0.440985 0.897040 0.029174
0.205687 0.144472 0.913961 0.339212 0.872738 0.351088
0.131372 0.128532 0.801030 -0.939995 0.306349 0.150198
0.144601 0.085364 0.639536 -0.693890 -0.432582 0.575665
0.126563 0.137167 0.547807 -0.930256 0.366889 0.004059
0.192976 0.160729 0.105185 0.989075 -0.107872 -0.100467
0.134278 0.157478 0.575787 -0.729140 0.669262 0.142979
0.195306 0.098346 0.194057 0.998589 -0.051641 0.012410
0.134038 0.163104 0.613092 -0.747561 0.664149 -0.007734
0.160278 0.058542 0.919093 -0.413801 -0.906776 0.080786
0.283587 0.059343 0.815863 0.466460 0.495779 0.732543
0.197920 0.073821 0.447790 0.194066 -0.690232 -0.697079
0.158606 0.133283 0.916891 -0.549747 0.794023 0.259432
0.240728 0.061059 0.806958 -0.370662 -0.923186 0.101668
0.259848 0.085958 0.704804 0.948524 -0.314242 0.039425
0.185121 0.186599 0.131902 -0.265923 0.821682 0.504107
0.206301 0.159991 0.634452 0.310289 0.803958 0.507318
0.274495 0.050904 0.799582 -0.276290 -0.954807 0.109575
0.122558 0.085021 0.673964 -0.949444 -0.313862 0.006879
0.197400 0.165856 0.626790 0.199369 0.868334 0.454146
0.199065 0.185102 0.718962 0.129525 0.988499 0.078062
0.246109 0.138528 0.795456 0.880859 0.449535 0.148342
0.160288 0.132109 0.437702 -0.519040 0.254493 -0.815985
0.187628 0.078868 0.146483 -0.995275 0.030012 -0.092343
0.137540 0.059739 0.823974 0.351200 -0.933002 0.078526
0.156776 0.149256 0.858785 -0.540822 0.824608 0.165930
0.299934 0.098551 0.922443 0.677015 0.680686 -0.279851
0.127558 0.072608 0.680380 -0.882238 -0.470804 0.000154
0.270458 0.063263 0.808283 0.333144 0.939160 0.083634
0.086517 0.044385 0.799170 0.166248 -0.961238 0.219963
0.139958 0.145222 0.622275 -0.585643 0.644478 0.491599
0.189615 0.049005 0.105894 -0.986570 0.043971 -0.157310
0.141701 0.168123 0.686365 -0.638114 0.768609 0.045286
0.303378 0.043533 0.805170 0.259243 -0.582443 0.770424
0.265264 0.118797 0.695416 0.992616 0.110350 0.050364
0.133583 0.091096 0.625615 -0.824999 -0.273831 0.494362
0.178757 0.183879 0.616410 -0.195954 0.980575 -0.008599
0.158974 0.111679 0.327741 -0.950295 -0.242225 -0.195616
0.310450 0.087446 0.906100 0.464320 0.010058 -0.885610
0.161291 0.057370 0.578612 -0.430018 -0.897404 0.098747
0.118817 0.093927 0.600817 -0.966914 -0.252518 -0.036216
0.317940 0.037803 0.779901 -0.204571 -0.976644 0.065699
0.177903 0.037546 0.599951 -0.135802 -0.987455 -0.080565
0.221788 0.176675 0.598275 0.382104 0.923946 -0.017880
0.183751 0.075875 0.179392 -0.860194 -0.436716 0.263335
0.140950 0.056927 0.560807 -0.613044 -0.779798 -0.126854
0.074970 0.098996 0.913226 -0.526515 0.831289 -0.178158
0.172170 0.058460 0.618665 -0.351021 -0.854191 0.383591
0.109113 0.051191 0.798911 0.328963 -0.944113 0.020848
0.223945 0.161478 0.799980 0.550118 0.819072 0.162762
0.218884 0.177494 0.690374 0.394374 0.917123 0.057924
0.228887 0.048107 0.585190 0.544518 -0.835175 -0.077342
0.196417 0.162284 0.865652 0.144248 0.963195 0.226819
0.146613 0.057133 0.546832 -0.551041 -0.817253 -0.168675
0.236866 0.079284 0.470745 0.755627 -0.634480 -0.162674
0.140173 0.141211 0.816912 -0.798763 0.578610 0.164890
0.189209 0.226105 0.028845 -0.964229 -0.179550 -0.194999
0.195820 0.171158 0.820579 0.123733 0.975475 0.182042
0.188813 0.061203 0.460288 0.081279 -0.832175 -0.548524
0.152950 0.105784 0.376425 -0.930688 -0.306510 -0.199681
0.131473 0.083912 0.545730 -0.862424 -0.504722 -0.038479
0.210136 0.174117 0.585685 0.296818 0.927933 0.225475
0.128436 0.147649 0.669625 -0.852895 0.521125 0.031588
0.184361 0.089450 0.273230 -0.391181 -0.902073 -0.182320
0.159887 0.090536 0.368127 -0.757015 -0.626388 -0.185921
