0.065483 0.537811 0.736860 -0.965154 0.251634 0.071826
0.096823 0.490396 0.708404 0.925226 0.379302 0.009308
0.040566 0.345324 0.864406 -0.981678 -0.044051 0.185386
0.072108 0.680804 0.533858 -0.999258 0.034894 -0.016312
0.079648 0.441651 0.884687 0.052440 0.749754 0.659636
0.082164 0.691418 0.545562 0.986038 0.152817 0.066159
0.082766 0.674441 0.516774 0.999055 0.036565 -0.023483
0.070438 0.491311 0.128178 -0.986502 -0.083127 -0.141081
0.093325 0.300287 0.331888 0.993581 -0.105721 -0.040260
0.115048 0.444427 0.739362 0.962089 0.269156 0.044047
0.069516 0.560346 0.695889 -0.978450 0.201286 0.046028
0.072251 0.694391 0.520578 -0.995300 0.096513 0.007938
0.102346 0.268675 0.558853 0.919050 -0.379110 -0.107812
0.101523 0.362735 0.402322 0.992413 -0.051816 -0.111496
0.086025 0.548762 0.570312 0.986832 0.100613 -0.126649
0.092226 0.441339 0.433467 0.814499 0.550709 -0.182511
0.099837 0.223702 0.795974 0.956212 -0.275773 0.098023
0.092387 0.357916 0.297275 0.995307 -0.045024 -0.085653
0.130067 0.357773 0.605720 0.996727 -0.079416 -0.015082
0.115411 0.294241 0.665464 0.959349 -0.280836 -0.027941
0.077154 0.525371 0.138400 0.041546 0.982016 0.184167
0.067752 0.539951 0.625343 -0.973836 0.218392 -0.062833
0.071637 0.680854 0.508913 -0.997608 -0.033189 -0.060640
0.099357 0.399960 0.376370 0.986568 0.139968 -0.084222
0.029140 0.391816 0.755656 -0.985258 0.168636 0.028801
0.045435 0.275676 0.696474 -0.950164 -0.310512 -0.027746
0.104510 0.260916 0.859962 0.908420 -0.366720 0.200723
0.067420 0.177059 0.612247 -0.955227 -0.129434 -0.266061
0.071074 0.100395 0.632145 -0.995729 -0.058094 -0.071754
0.065528 0.288997 0.271979 -0.990925 -0.000986 -0.134415
0.057987 0.251207 0.624804 -0.920759 -0.376719 -0.101414
0.062102 0.406092 0.268160 -0.997412 0.017501 -0.069739
0.062522 0.415469 0.310478 -0.982992 0.181954 -0.024910
0.082550 0.724390 0.414806 0.995999 0.080809 -0.038149
0.063060 0.236573 0.840725 -0.699225 -0.630423 0.337122
0.090121 0.338089 0.275998 0.987115 -0.070907 -0.143446
0.121410 0.423420 0.588952 0.958008 0.284854 -0.032847
0.097098 0.212335 0.779024 0.955269 -0.277480 0.102303
0.124153 0.336105 0.650068 0.984790 -0.173743 -0.001422
0.107769 0.399063 0.431471 0.962276 0.215461 -0.166138
0.092671 0.397636 0.258220 0.992873 -0.034223 -0.114153
0.129214 0.361744 0.675906 0.997772 -0.065638 0.011989
0.042518 0.357334 0.455344 -0.967095 -0.154037 -0.202485
0.047587 0.459699 0.759127 -0.955015 0.294022 0.038683
0.084001 0.610332 0.542716 0.992560 -0.029794 -0.118054
0.086647 0.340593 0.234535 0.952326 -0.092732 -0.290646
0.078976 0.027331 0.481711 0.477151 -0.872406 -0.105999
0.070788 0.487870 0.122057 -0.962338 -0.177244 -0.206131
0.122581 0.404466 0.814658 0.980250 0.152810 0.125539
0.129909 0.357327 0.619939 0.996540 -0.082522 -0.009858
0.037488 0.300323 0.804316 -0.978629 -0.196723 0.059879
0.092771 0.318433 0.313756 0.995494 -0.059799 -0.073592
0.064812 0.273845 0.304667 -0.996192 -0.083952 -0.023525
0.069000 0.096861 0.691534 -0.971541 -0.218341 0.091839
0.095763 0.323442 0.352199 0.994845 -0.072738 -0.070658
0.115396 0.315807 0.863565 0.957568 -0.228980 0.175020
0.081866 0.042163 0.511048 0.992579 0.071118 -0.098641
0.061417 0.258888 0.879957 -0.643674 -0.646700 0.409223
0.088234 0.131152 0.657810 0.989764 -0.105906 -0.095660
0.063329 0.408925 0.247255 -0.989345 -0.036611 -0.140912
0.060686 0.228310 0.668276 -0.947175 -0.317599 -0.044620
0.051322 0.366091 0.421351 -0.984840 0.022189 -0.172038
0.095404 0.197073 0.757871 0.965541 -0.252317 0.063770
0.073311 0.067284 0.595439 -0.995582 -0.088045 -0.032618
0.080272 0.403480 0.200677 0.214963 -0.513067 -0.830995
0.089587 0.265764 0.245615 0.961194 0.009010 -0.275727
0.092416 0.412772 0.906899 0.606654 0.494117 0.622752
0.108498 0.421576 0.873402 0.892245 0.242516 0.380899
0.099545 0.301221 0.448410 0.887552 -0.445154 -0.118698
0.054337 0.459322 0.624490 -0.942117 0.331238 -0.051927
0.082424 0.672204 0.553373 0.996114 0.085219 0.022230
0.076415 0.471471 0.133736 -0.189286 -0.709187 -0.679135
0.057615 0.225094 0.791546 -0.945520 -0.317072 0.073869
0.036315 0.411455 0.828012 -0.974572 0.154364 0.162420
0.117199 0.446143 0.807771 0.929036 0.369938 0.006176
0.073165 0.223686 0.213129 -0.846618 0.089640 -0.524597
0.087429 0.451548 0.307851 0.846030 0.522525 0.105832
0.073179 0.494669 0.108875 -0.822147 -0.411073 -0.393818
0.087064 0.128001 0.747012 0.784497 -0.517234 0.342102
0.087344 0.462190 0.194254 0.996749 0.014400 -0.079274
0.076195 0.506148 0.192902 0.097507 0.943085 0.317936
0.100519 0.247417 0.663203 0.941326 -0.328932 -0.075554
0.066269 0.443788 0.204613 -0.992712 -0.007632 -0.120272
0.062809 0.216496 0.617705 -0.965029 -0.227078 -0.130973
0.029095 0.368602 0.748808 -0.996450 0.066343 0.051830
0.074465 0.617748 0.691488 -0.601279 0.646263 0.469902
0.072789 0.552046 0.758847 -0.328722 0.710682 0.621991
0.064522 0.482915 0.522868 -0.931522 0.343215 -0.120294
0.106005 0.271691 0.658345 0.935442 -0.346145 -0.071643
0.088766 0.147243 0.631596 0.979667 -0.129861 -0.152932
0.108765 0.325353 0.890755 0.967667 -0.084452 0.237673
0.038099 0.296445 0.802478 -0.975705 -0.211327 0.057802
0.088840 0.128397 0.687623 0.990707 -0.133125 -0.027881
0.057097 0.414690 0.429976 -0.941395 0.299229 -0.155684
0.084576 0.455012 0.305608 0.613751 0.766790 0.187997
0.061100 0.512123 0.755040 -0.952435 0.298007 0.063708
0.027319 0.366399 0.610121 -0.999985 0.005093 -0.002095
0.070635 0.593108 0.677630 -0.985169 0.163226 0.052905
0.118752 0.310682 0.655514 0.969050 -0.246486 -0.013705
0.095790 0.236569 0.581359 0.927811 -0.347742 -0.135061
0.089488 0.137377 0.692243 0.987738 -0.154442 -0.022836
0.127772 0.400196 0.713059 0.990337 0.135793 0.028154
0.091363 0.319682 0.292973 0.995324 -0.049945 -0.082681
0.067536 0.130198 0.703869 -0.980601 -0.189265 0.050988
0.106396 0.471668 0.734784 0.937585 0.344764 0.045517
0.061733 0.389566 0.288374 -0.997877 0.022541 -0.061094
0.102022 0.259137 0.650926 0.931052 -0.356735 -0.076695
0.097008 0.223451 0.657665 0.956333 -0.278027 -0.090154
0.055357 0.360161 0.396030 -0.990896 -0.007446 -0.134425
0.096796 0.249251 0.568845 0.912240 -0.388830 -0.128954
0.084953 0.495013 0.161028 0.989259 0.146100 -0.004691
0.061848 0.309659 0.336859 -0.995963 -0.058765 -0.067851
0.097314 0.273636 0.515267 0.844187 -0.511506 -0.160345
0.063390 0.189630 0.705241 -0.970499 -0.240768 0.012752
0.083766 0.455279 0.162390 0.758336 -0.450616 -0.471033
0.083800 0.210923 0.209906 0.975353 0.007171 -0.220535
0.094034 0.189529 0.723647 0.972458 -0.233065 0.002480
0.088218 0.529630 0.636108 0.967039 0.253484 -0.024107
0.115414 0.298864 0.587887 0.956645 -0.287987 -0.043510
0.041069 0.304853 0.512668 -0.947479 -0.309818 -0.079350
0.062261 0.221512 0.619932 -0.959223 -0.256026 -0.119758
0.126624 0.407917 0.736000 0.984724 0.170146 0.037010
0.118780 0.429145 0.564478 0.950807 0.305802 -0.049503
0.127336 0.405338 0.684377 0.981987 0.188605 0.011384
0.070423 0.106369 0.641910 -0.995708 -0.065875 -0.065008
0.083761 0.336778 0.949081 0.389826 -0.483867 0.783523
0.089456 0.448063 0.302763 0.948295 0.315345 0.035978
0.041999 0.429666 0.570418 -0.960356 0.273374 -0.054620
0.084882 0.362988 0.226856 0.860485 -0.219734 -0.459655
0.073043 0.233316 0.555755 -0.301234 -0.750633 -0.588055
0.043665 0.283199 0.679347 -0.954043 -0.298712 -0.023927
0.066103 0.316308 0.958765 -0.632740 -0.302977 0.712633
0.065809 0.440625 0.221980 -0.995442 0.035990 -0.088314
0.083682 0.622544 0.615989 0.994495 0.102681 0.020886
0.098926 0.230737 0.673200 0.956785 -0.277453 -0.087079
0.085299 0.067074 0.621480 0.989378 -0.144649 -0.014398
0.116362 0.430170 0.540131 0.949756 0.303621 -0.076012
0.041431 0.433180 0.719848 -0.960082 0.279619 -0.007439
0.085364 0.220851 0.290689 0.830261 -0.518341 0.204913
0.085683 0.199178 0.234074 0.980714 -0.188919 -0.050095
0.071278 0.077673 0.674419 -0.930573 -0.330632 0.157213
0.064894 0.329591 0.288756 -0.994538 -0.017967 -0.102821
0.060781 0.385598 0.308245 -0.997288 0.037091 -0.063567
0.036364 0.313744 0.589868 -0.970790 -0.237559 -0.033659
0.068439 0.471441 0.249022 -0.954281 0.292584 0.061181
0.127983 0.359550 0.494362 0.994400 -0.053037 -0.091413
0.070477 0.586142 0.641542 -0.991803 0.126961 -0.014395
0.063856 0.528604 0.746618 -0.960346 0.269114 0.072887
0.028681 0.377280 0.646789 -0.995806 0.089927 0.016810
0.087288 0.125959 0.633336 0.986805 -0.068870 -0.146539
0.114096 0.451270 0.799364 0.968357 0.249408 0.008974
0.128220 0.393529 0.515191 0.979348 0.190824 -0.066809
0.123763 0.331122 0.518259 0.981582 -0.184016 -0.051336
0.082585 0.658190 0.567473 0.997126 0.075047 0.010401
0.127418 0.404396 0.693709 0.984102 0.176838 0.016471
0.083727 0.050249 0.586433 0.989488 -0.144104 -0.012130
0.100395 0.227354 0.778386 0.959860 -0.273702 0.061291
0.089851 0.161763 0.633652 0.973259 -0.173821 -0.150178
0.050402 0.322269 0.458144 -0.928802 -0.326934 -0.174477
0.076105 0.371373 0.950595 -0.059948 0.578834 0.813239
0.061471 0.207551 0.731434 -0.962974 -0.268451 0.024795
0.063358 0.329460 0.307360 -0.996576 -0.019332 -0.080389
0.071377 0.580158 0.727111 -0.882744 0.394995 0.254443
0.062953 0.296241 0.325672 -0.996202 -0.066876 -0.055769
0.055181 0.238474 0.770592 -0.944302 -0.328431 0.020644
0.070256 0.354276 0.961625 -0.444045 0.473468 0.760692
0.110652 0.349556 0.880601 0.974938 0.039664 0.218914
0.079817 0.256188 0.890157 0.018958 -0.832970 0.552993
0.072613 0.086613 0.599004 -0.995192 -0.013384 -0.097027
0.075440 0.681140 0.601547 -0.602569 0.699620 0.383982
0.052903 0.462568 0.672193 -0.946784 0.321394 -0.017476
0.065288 0.408972 0.214683 -0.949868 -0.141337 -0.278881
0.087464 0.113061 0.653131 0.991153 -0.105264 -0.080842
0.098436 0.222439 0.741627 0.959930 -0.278800 0.028380
0.096457 0.489706 0.698773 0.925934 0.377684 0.000387
0.074476 0.201948 0.200281 -0.864842 -0.456809 -0.208262
0.072076 0.070791 0.657497 -0.932493 -0.331164 0.144176
0.077587 0.591695 0.526180 -0.029165 -0.250645 -0.967640
0.105597 0.326386 0.903144 0.963181 -0.039268 0.265970
0.071543 0.512576 0.123753 -0.987972 0.138842 -0.068071
0.053337 0.328435 0.908323 -0.950682 -0.127361 0.282813
0.079114 0.325257 0.967290 0.007386 0.864258 0.502995
0.113642 0.394546 0.854694 0.959044 0.164862 0.230335
0.129838 0.370105 0.613001 0.999719 -0.021537 -0.009890
0.085480 0.220246 0.244993 0.988891 -0.101740 -0.108371
0.079963 0.042823 0.612416 0.281130 -0.920532 0.271270
0.078988 0.633728 0.674949 0.330006 0.752978 0.569315
0.101768 0.310007 0.414835 0.939686 -0.341660 -0.016077
0.066012 0.480739 0.514936 -0.885979 0.419070 -0.198549
0.093615 0.330121 0.934896 0.788043 0.473793 0.393074
0.056862 0.301727 0.397257 -0.929164 -0.363613 -0.066639
0.082837 0.667257 0.522244 0.999225 0.014855 -0.036463
0.120153 0.319191 0.529957 0.971125 -0.233614 -0.048375
0.083243 0.705302 0.453499 0.998553 -0.015747 -0.051415
0.100508 0.480049 0.683784 0.930190 0.367077 -0.000961
0.078691 0.027440 0.467724 0.400432 -0.904594 -0.146166
0.039514 0.301779 0.618697 -0.961715 -0.272744 -0.026745
0.130056 0.358878 0.605608 0.997132 -0.074203 -0.014906
0.082352 0.215940 0.285588 0.556756 -0.763596 0.327024
0.040850 0.322434 0.495752 -0.956453 -0.265082 -0.122188
0.127620 0.400773 0.504204 0.965630 0.248756 -0.075367
0.078139 0.548352 0.529510 0.101601 0.260049 -0.960235
0.032566 0.411611 0.589296 -0.973082 0.228733 -0.028166
0.114932 0.362190 0.859469 0.982095 0.055907 0.179899
0.078047 0.529202 0.780717 0.014981 0.757297 0.652898
0.066681 0.452941 0.269744 -0.964622 0.260629 0.039719
0.075252 0.642589 0.502237 -0.490764 -0.511850 -0.705096
0.085182 0.209574 0.263355 0.840287 -0.531398 0.107393
0.106713 0.393182 0.425230 0.975669 0.150297 -0.159628
0.074004 0.334777 0.942370 -0.196991 -0.565943 0.800564
0.068461 0.539144 0.576935 -0.970916 0.205452 -0.122931
0.028907 0.400217 0.609043 -0.981028 0.193566 -0.010754
0.094139 0.444326 0.461927 0.823813 0.519856 -0.226015
0.090873 0.374221 0.257730 0.987217 -0.076216 -0.139976
0.090269 0.168155 0.630356 0.971006 -0.179426 -0.157970
0.062940 0.496323 0.622786 -0.946120 0.320159 -0.048521
0.069633 0.234397 0.227967 -0.984954 -0.060156 -0.162007
0.071867 0.706992 0.453951 -0.996223 -0.058478 -0.064194
0.067856 0.453614 0.300417 -0.905463 0.420714 0.056009
0.040241 0.334475 0.485285 -0.961665 -0.231702 -0.146680
0.027290 0.377581 0.545307 -0.998343 0.051083 -0.026492
0.083579 0.626355 0.623013 0.992331 0.117347 0.038849
0.079991 0.230188 0.310670 0.199166 -0.870886 0.449322
0.096968 0.214830 0.761695 0.955397 -0.283726 0.081957
0.072984 0.682571 0.577366 -0.983984 0.165163 0.067052
0.128091 0.350056 0.671025 0.993003 -0.117812 0.008111
0.074847 0.593781 0.531916 -0.553700 -0.172069 -0.814745
0.083397 0.048166 0.601144 0.938854 -0.341074 0.047135
0.031829 0.410055 0.545570 -0.974670 0.220825 -0.035414
0.080934 0.546017 0.535590 0.513313 0.240830 -0.823717
0.081110 0.293377 0.428747 0.131057 -0.991341 0.008142
0.127960 0.379267 0.767005 0.998693 0.011300 0.049849
0.119789 0.304512 0.815134 0.974635 -0.222596 0.023204
0.084273 0.208630 0.216488 0.982803 -0.039998 -0.180271
0.077717 0.528998 0.126494 0.073734 0.984906 0.156600
0.069417 0.316228 0.961206 -0.517370 -0.367528 0.772820
0.102622 0.233617 0.811745 0.959849 -0.267462 0.084581
0.083332 0.632359 0.556721 0.998165 0.026754 -0.054329
0.053325 0.261092 0.864713 -0.835442 -0.470455 0.284093
0.068321 0.547992 0.666044 -0.976254 0.216608 -0.003101
0.113568 0.319267 0.490475 0.969153 -0.219224 -0.112625
0.080615 0.739918 0.414091 0.794024 0.601907 0.085050
0.096023 0.494415 0.720146 0.924532 0.380652 0.018552
0.083613 0.626054 0.632836 0.990363 0.127990 0.052919
0.128568 0.356305 0.737643 0.994844 -0.095576 0.033933
0.094928 0.421896 0.371700 0.939278 0.340016 -0.046325
0.091310 0.290608 0.309519 0.992536 -0.120985 -0.015295
0.031484 0.329617 0.695698 -0.991238 -0.130071 0.022984
0.088051 0.531954 0.639857 0.968429 0.248469 -0.020226
0.027749 0.381369 0.557013 -0.996569 0.080227 -0.020328
0.099210 0.453563 0.500888 0.919580 0.359017 -0.159624
0.027551 0.384520 0.525081 -0.995602 0.087661 -0.033052
0.029130 0.400154 0.742371 -0.978903 0.203602 0.017186
0.088494 0.272910 0.233074 0.930493 0.020228 -0.365750
0.129472 0.360311 0.654909 0.997474 -0.070929 0.003827
0.100645 0.259424 0.616720 0.921085 -0.377160 -0.096708
0.127190 0.349804 0.772300 0.990914 -0.126457 0.045803
0.097674 0.236529 0.626552 0.940766 -0.321186 -0.108622
0.101143 0.229816 0.785119 0.960452 -0.271503 0.061785
0.031088 0.409213 0.727519 -0.972055 0.234723 0.003848
0.041312 0.288775 0.731599 -0.964013 -0.265513 0.013510
0.033402 0.326463 0.819591 -0.992610 -0.095543 0.074817
0.034753 0.391692 0.825660 -0.977844 0.171669 0.119793
0.107583 0.354549 0.889667 0.963774 0.083547 0.253298
0.070047 0.566551 0.576062 -0.984912 0.127140 -0.117406
0.094814 0.305161 0.944739 0.810113 -0.358530 0.463867
0.095015 0.413852 0.313442 0.994681 0.097341 -0.033693
0.107385 0.334157 0.458237 0.967294 -0.152665 -0.202571
0.029165 0.371605 0.491838 -0.995926 0.003085 -0.090119
0.045999 0.287299 0.559089 -0.940186 -0.330084 -0.084227
0.088813 0.513920 0.561357 0.967076 0.222095 -0.124252
0.071769 0.661596 0.516800 -0.995099 -0.033886 -0.092895
0.087255 0.241665 0.551761 0.578840 -0.712936 -0.395811
0.091804 0.480934 0.545104 0.934430 0.331769 -0.129496
0.042524 0.289243 0.648120 -0.954820 -0.295652 -0.030142
0.067644 0.245212 0.241409 -0.988090 -0.060379 -0.141534
0.040995 0.384056 0.856577 -0.965694 0.136579 0.220867
0.072069 0.707066 0.474768 -0.999340 0.023427 -0.027746
0.057074 0.333745 0.386540 -0.991744 -0.057821 -0.114458
0.048145 0.274407 0.639679 -0.941196 -0.331853 -0.063439
0.068040 0.138088 0.653431 -0.988777 -0.130366 -0.072971
0.066109 0.259722 0.322392 -0.929470 -0.352481 0.108826
0.086968 0.086597 0.651722 0.991794 -0.126086 -0.021126
0.062693 0.202605 0.686502 -0.969676 -0.242752 -0.028269
0.095368 0.365136 0.325666 0.996329 -0.036081 -0.077630
0.073166 0.079461 0.585851 -0.992777 0.055098 -0.106573
0.096778 0.215831 0.741039 0.957405 -0.284213 0.050967
0.128921 0.375453 0.687344 0.999816 -0.001294 0.019124
0.063344 0.478426 0.549293 -0.929118 0.357744 -0.093592
0.075513 0.514526 0.165972 -0.127925 0.960546 0.246953
0.102832 0.402532 0.415628 0.961568 0.234869 -0.142207
0.108543 0.409542 0.444200 0.922934 0.338123 -0.184029
0.082290 0.709478 0.511323 0.985260 0.158180 0.065126
0.072071 0.569401 0.740031 -0.821503 0.452925 0.346399
0.104981 0.275457 0.553070 0.927058 -0.362088 -0.097241
0.081274 0.626090 0.679646 0.747726 0.534174 0.394416
0.121568 0.316604 0.802117 0.979325 -0.200089 0.029781
0.070310 0.585386 0.704133 -0.979356 0.184547 0.082487
0.061315 0.208313 0.736602 -0.961949 -0.271506 0.030638
0.086479 0.332295 0.931022 0.447213 -0.326184 0.832829
0.129268 0.381223 0.592857 0.998048 0.058436 -0.022014
0.044749 0.385414 0.870381 -0.954451 0.139761 0.263611
0.096791 0.234425 0.611490 0.938335 -0.324355 -0.119673
0.089893 0.115353 0.724869 0.970402 -0.223474 0.091533
0.077202 0.601025 0.716013 -0.057145 0.764052 0.642619
0.072466 0.195938 0.233086 -0.825000 -0.529814 0.196655
0.088993 0.141735 0.760339 0.891511 -0.368267 0.263793
0.055315 0.308558 0.408307 -0.929483 -0.355923 -0.096849
0.091981 0.478344 0.539093 0.932516 0.334260 -0.136690
0.068393 0.541398 0.601514 -0.973708 0.209122 -0.090341
0.113161 0.280734 0.780339 0.960114 -0.279438 -0.009763
0.077174 0.327848 0.951203 -0.056099 0.503274 0.862304
0.089493 0.448970 0.268476 0.986915 0.161210 0.003042
0.041070 0.427854 0.561421 -0.961906 0.267940 -0.054258
0.077661 0.630882 0.683725 0.032521 0.798097 0.601651
0.028653 0.366088 0.707575 -0.998327 0.042365 0.039349
0.061970 0.484719 0.618339 -0.936129 0.349253 -0.041045
0.048683 0.390067 0.428391 -0.973918 0.147921 -0.172056
0.072905 0.726890 0.471117 -0.938442 0.339578 0.063352
0.063592 0.439536 0.434329 -0.888365 0.439177 -0.133909
0.032120 0.411270 0.750628 -0.970246 0.242042 0.006160
0.126521 0.407116 0.558560 0.965647 0.255007 -0.049970
0.068076 0.216083 0.581659 -0.783805 -0.448270 -0.429771
0.122838 0.326905 0.771764 0.982212 -0.185312 0.030319
0.090544 0.472413 0.835221 0.557087 0.701592 0.444323
0.062159 0.433220 0.434945 -0.901476 0.407993 -0.144507
0.095620 0.212123 0.706197 0.960146 -0.279490 0.002412
0.072768 0.081797 0.690921 -0.774739 -0.552850 0.306816
0.068054 0.135795 0.658014 -0.988720 -0.137872 -0.058511
0.042944 0.354757 0.870730 -0.976001 -0.002700 0.217748
0.061945 0.407391 0.295139 -0.993830 0.103508 -0.039847
0.028877 0.381153 0.639088 -0.993640 0.111642 0.014669
0.122519 0.390956 0.484628 0.973107 0.183582 -0.139141
0.090185 0.276563 0.286703 0.995360 -0.048424 -0.083147
0.061065 0.247577 0.854888 -0.629262 -0.680948 0.374618
0.083877 0.206207 0.207640 0.978200 -0.013239 -0.207243
0.080584 0.181646 0.799386 0.068614 -0.728262 0.681855
0.065309 0.439437 0.264932 -0.984055 0.177629 0.009170
0.083759 0.620104 0.615955 0.995020 0.098378 0.016055
0.069822 0.113838 0.643744 -0.994089 -0.085373 -0.067068
0.074808 0.397124 0.204391 -0.273481 -0.470836 -0.838762
0.091118 0.291075 0.395335 0.616297 -0.752850 0.231073
0.081727 0.517607 0.071863 0.822026 -0.024005 -0.568943
0.118685 0.312478 0.627491 0.968266 -0.249152 -0.019606
0.083633 0.626764 0.650103 0.985665 0.148614 0.079869
0.071823 0.076458 0.631712 -0.984845 -0.172430 0.018679
0.105590 0.275425 0.578603 0.930257 -0.355840 -0.089441
0.027578 0.357387 0.679263 -0.999385 -0.024946 0.024649
0.063959 0.440752 0.430339 -0.889660 0.440011 -0.122048
0.075503 0.740490 0.444576 -0.502972 0.851304 0.149333
0.089357 0.533620 0.699528 0.955982 0.290095 0.044081
0.111675 0.448909 0.838068 0.831076 0.428193 0.354914
0.101239 0.285886 0.913536 0.901175 -0.299588 0.313258
0.049705 0.435711 0.863174 -0.817269 0.403579 0.411333
0.061586 0.331648 0.927762 -0.841617 -0.157668 0.516548
0.088613 0.283610 0.261402 0.981405 -0.028887 -0.189765
0.119582 0.315415 0.660948 0.971875 -0.235348 -0.008372
0.091087 0.273238 0.345441 0.934366 -0.332449 0.128206
0.047037 0.354604 0.438566 -0.975092 -0.125271 -0.183040
0.076005 0.715334 0.530667 -0.396896 0.861589 0.316447
0.080137 0.115787 0.598670 0.208077 0.372381 -0.904454
0.065301 0.529734 0.673443 -0.968505 0.248498 -0.015689
0.038676 0.303399 0.638164 -0.966131 -0.257525 -0.016477
0.044185 0.433776 0.542439 -0.957366 0.281325 -0.065623
0.049680 0.410871 0.879580 -0.916417 0.249381 0.313032
0.100935 0.228478 0.791369 0.959281 -0.272315 0.075002
0.095995 0.197911 0.780085 0.959140 -0.261954 0.106913
0.067440 0.322539 0.258618 -0.975516 0.003785 -0.219896
0.082018 0.697418 0.549398 0.979155 0.182932 0.088272
0.043909 0.448616 0.764383 -0.958854 0.281864 0.033926
0.084641 0.281895 0.479841 0.359855 -0.881686 -0.305180
0.081974 0.680974 0.581557 0.982449 0.165148 0.086722
0.077761 0.500482 0.807026 0.019783 0.778944 0.626781
0.104885 0.476358 0.723503 0.931117 0.362457 0.040575
0.090580 0.487287 0.519663 0.939785 0.288741 -0.182848
0.088340 0.246351 0.318129 0.899670 -0.406205 0.159975
0.061693 0.321198 0.332761 -0.996567 -0.038244 -0.073433
0.070928 0.219942 0.244649 -0.983652 -0.172195 -0.052706
0.082084 0.049522 0.617848 0.671280 -0.715504 0.193489
0.082252 0.519026 0.137442 0.925171 0.369126 0.088345
0.127261 0.405104 0.609054 0.974009 0.225059 -0.025576
0.036406 0.304487 0.768713 -0.979780 -0.194703 0.046063
0.083271 0.632614 0.578865 0.996877 0.077497 -0.015169
0.050136 0.448816 0.643474 -0.947615 0.315933 -0.047039
0.076148 0.445206 0.383532 -0.421400 0.905944 -0.041087
0.081938 0.206149 0.202144 0.812855 0.128823 -0.568042
0.086520 0.248610 0.323465 0.761619 -0.588950 0.270322
0.050465 0.325335 0.430097 -0.936926 -0.321562 -0.136991
0.107667 0.270428 0.714379 0.946619 -0.319313 -0.044179
0.102137 0.330060 0.917108 0.955113 0.027030 0.295007
0.066572 0.533279 0.632455 -0.970912 0.231269 -0.062014
0.079852 0.463043 0.465036 0.038456 0.900617 -0.432909
0.126735 0.342757 0.573875 0.989658 -0.140469 -0.029083
0.086801 0.535738 0.555199 0.981604 0.119629 -0.148800
0.093279 0.477864 0.573378 0.929804 0.350859 -0.111184
0.097647 0.231433 0.640601 0.948406 -0.298940 -0.105641
0.095879 0.254051 0.546437 0.886134 -0.437573 -0.152632
0.029134 0.391706 0.752262 -0.985401 0.167897 0.028206
0.066945 0.449205 0.187281 -0.988487 -0.039280 -0.146120
0.027716 0.356408 0.694652 -0.999210 -0.025024 0.030889
0.100475 0.409093 0.411508 0.943050 0.304489 -0.133950
0.080849 0.220892 0.298525 0.341924 -0.839229 0.422826
0.034942 0.312002 0.700733 -0.980808 -0.194092 0.018562
0.070297 0.572498 0.550067 -0.983690 0.095790 -0.152245
0.037160 0.429704 0.782646 -0.965524 0.258340 0.032008
0.124428 0.333857 0.535399 0.983712 -0.174134 -0.044593
0.089491 0.300283 0.273205 0.987558 -0.035951 -0.153093
0.028053 0.358708 0.705928 -0.999321 -0.005735 0.036397
0.064705 0.328583 0.291283 -0.995473 -0.019255 -0.093079
0.083299 0.631628 0.577735 0.997047 0.074451 -0.018805
0.045865 0.453297 0.831317 -0.853633 0.458267 0.247593
0.051189 0.292632 0.890333 -0.926178 -0.261365 0.271812
0.086362 0.475045 0.161142 0.996776 0.022795 -0.076925
0.049604 0.324931 0.456174 -0.932018 -0.318036 -0.173768
0.066100 0.336424 0.941026 -0.641703 -0.502258 0.579616
0.096513 0.359192 0.344658 0.995937 -0.044705 -0.078172
0.127937 0.386649 0.499065 0.985690 0.148085 -0.080539
0.104367 0.455266 0.559964 0.939752 0.329153 -0.092333
0.082948 0.411501 0.914086 0.195556 0.648984 0.735240
0.064150 0.425006 0.307316 -0.970360 0.241508 -0.008632
0.071247 0.313881 0.234133 -0.858054 0.001185 -0.513558
0.056170 0.253816 0.653711 -0.924929 -0.368573 -0.093062
0.098539 0.301825 0.424784 0.856211 -0.516183 -0.021397
0.065743 0.157422 0.719147 -0.974482 -0.214647 0.065660
0.027057 0.347343 0.559879 -0.992917 -0.115170 -0.029191
0.031830 0.332398 0.766201 -0.994146 -0.093630 0.053925
0.081952 0.073774 0.561029 0.806153 0.425878 -0.410786
0.063413 0.400627 0.248667 -0.980270 -0.066931 -0.185984
0.026727 0.354567 0.634034 -0.998119 -0.061145 0.004551
0.082750 0.719951 0.425357 0.998519 0.026882 -0.047303
0.090468 0.462942 0.489463 0.841223 0.479145 -0.250526
0.084817 0.595310 0.676352 0.981738 0.176210 0.071704
0.096843 0.213632 0.760665 0.956396 -0.281178 0.079028
0.040934 0.427696 0.593713 -0.961579 0.270428 -0.047262
0.029126 0.400492 0.739772 -0.978658 0.204851 0.016286
0.064044 0.193078 0.654522 -0.973995 -0.218893 -0.058480
0.092851 0.519414 0.737174 0.940127 0.335870 0.057896
0.086453 0.157559 0.775862 0.567016 -0.625010 0.536521
0.088031 0.125822 0.742879 0.844892 -0.463312 0.267393
0.085950 0.560662 0.644322 0.986618 0.162092 -0.017647
0.100410 0.250489 0.651745 0.935616 -0.344048 -0.079086
0.110214 0.270982 0.771000 0.958727 -0.284105 -0.011227
0.091561 0.436149 0.366734 0.875548 0.482212 -0.029789
0.082486 0.204432 0.201561 0.890831 0.078158 -0.447561
0.073951 0.531116 0.082510 -0.823508 0.313422 -0.472865
0.067973 0.232169 0.288235 -0.964735 -0.250438 0.081036
0.120581 0.426825 0.713778 0.971936 0.233459 0.028923
0.052268 0.469192 0.724596 -0.949473 0.313030 0.022658
0.120665 0.345283 0.484527 0.984712 -0.115683 -0.130229
0.063253 0.495868 0.610299 -0.945587 0.320025 -0.058737
0.076530 0.567052 0.530759 -0.175232 0.099153 -0.979522
0.086659 0.449599 0.446251 0.561599 0.777364 -0.283394
0.096906 0.484407 0.667392 0.928967 0.369367 -0.024260
0.084908 0.073898 0.602953 0.995671 -0.025232 -0.089455
0.069719 0.557258 0.594814 -0.981880 0.165725 -0.091903
0.100630 0.457318 0.852271 0.622833 0.633976 0.458425
0.123520 0.417230 0.661821 0.972564 0.232627 0.002007
0.129241 0.381719 0.619861 0.998816 0.047851 -0.008801
0.097337 0.219320 0.725545 0.959329 -0.281756 0.017348
0.035698 0.375928 0.838153 -0.983015 0.102203 0.152431
0.089159 0.380010 0.937759 0.526103 0.451664 0.720566
0.070718 0.589358 0.583169 -0.992219 0.072534 -0.101198
0.100225 0.371656 0.381410 0.995651 -0.019229 -0.091151
0.078968 0.240299 0.544299 0.054186 -0.836277 -0.545623
0.079063 0.713721 0.532926 0.405896 0.843504 0.351780
0.057909 0.302243 0.386437 -0.953293 -0.294965 -0.065025
0.044856 0.279176 0.843967 -0.935025 -0.319493 0.153793
0.114087 0.306197 0.863445 0.954192 -0.250336 0.163861
0.055697 0.331215 0.400528 -0.981260 -0.149430 -0.121650
0.122067 0.420426 0.826691 0.987429 0.044947 0.151535
0.122218 0.421586 0.701273 0.974065 0.225196 0.022017
0.045319 0.273227 0.745216 -0.954421 -0.298401 -0.006046
0.092729 0.199419 0.617155 0.958631 -0.250175 -0.135787
0.040294 0.431272 0.730632 -0.961522 0.274723 -0.001629
0.069361 0.562663 0.742087 -0.970488 0.214657 0.109886
0.029184 0.365401 0.804563 -0.996159 0.056563 0.066847
0.067965 0.292913 0.244183 -0.968682 0.017008 -0.247720
0.099611 0.224280 0.777431 0.958497 -0.276164 0.070825
0.090351 0.153658 0.679534 0.980223 -0.190879 -0.052223
0.071454 0.623867 0.553840 -0.994645 0.010937 -0.102774
0.091302 0.441213 0.422821 0.796484 0.582609 -0.161803
0.083112 0.521513 0.121899 0.969592 0.241934 0.036867
0.074067 0.341648 0.228294 -0.532061 -0.153327 -0.832708
0.060444 0.379047 0.321290 -0.996892 0.039470 -0.068185
0.034804 0.313814 0.761442 -0.985460 -0.163563 0.045995
0.071364 0.287730 0.469828 -0.239265 -0.906262 -0.348484
0.028421 0.340730 0.585172 -0.991291 -0.130077 -0.020539
0.060329 0.296352 0.466508 -0.681188 -0.677513 -0.277415
0.081455 0.074670 0.561054 0.696605 0.526414 -0.487474
0.072469 0.682742 0.549943 -0.995489 0.092885 0.019315
0.127679 0.396903 0.773466 0.993961 0.094562 0.055674
0.114860 0.294802 0.633401 0.957032 -0.287629 -0.036858
0.085982 0.208020 0.246134 0.981166 -0.188972 -0.040038
0.077245 0.219839 0.833365 -0.123399 -0.774662 0.620219
0.036181 0.419017 0.734524 -0.965424 0.260597 -0.006816
0.064666 0.430237 0.238046 -0.996285 0.037839 -0.077354
0.082988 0.648999 0.543218 0.998578 -0.008398 -0.052638
0.126468 0.408017 0.674262 0.979553 0.201073 0.006802
0.059582 0.370141 0.337570 -0.997169 0.018691 -0.072836
0.034307 0.416876 0.824406 -0.986685 0.043348 0.156758
0.075323 0.044741 0.551504 -0.983774 -0.179406 0.001452
0.111335 0.278686 0.749944 0.954123 -0.298220 -0.026715
0.105445 0.400904 0.887772 0.913771 0.214741 0.344831
0.076622 0.266010 0.501647 -0.030008 -0.898251 -0.438457
0.088274 0.529938 0.643864 0.964938 0.262171 -0.012708
0.091516 0.155945 0.721458 0.976257 -0.214457 0.030496
0.061697 0.386521 0.292698 -0.997744 0.022271 -0.063325
0.058126 0.460557 0.544533 -0.932132 0.348551 -0.098194
0.093650 0.435926 0.417398 0.825060 0.547043 -0.141492
0.031339 0.339032 0.818276 -0.995709 -0.049702 0.078062
0.093829 0.445858 0.464055 0.828534 0.513095 -0.224198
0.068393 0.539604 0.585060 -0.971817 0.207148 -0.112528
0.067927 0.339813 0.250278 -0.969639 -0.037810 -0.241602
0.090074 0.286932 0.383793 0.651237 -0.714944 0.254453
0.109401 0.445343 0.555915 0.943999 0.319599 -0.081992
0.078835 0.611130 0.517467 0.203526 -0.420497 -0.884172
0.071783 0.649312 0.517705 -0.991808 -0.043594 -0.120068
0.049306 0.412274 0.452151 -0.934973 0.289488 -0.204993
0.120253 0.321574 0.603666 0.973060 -0.229635 -0.020552
0.075031 0.513111 0.521587 -0.446131 0.595776 -0.667846
0.092702 0.428185 0.342742 0.942212 0.334819 0.011510
0.071330 0.089183 0.634555 -0.992879 -0.116761 -0.023624
0.061267 0.510430 0.729890 -0.955112 0.294626 0.030923
0.053462 0.273530 0.892939 -0.879206 -0.357526 0.314916
0.031104 0.329966 0.667148 -0.990186 -0.139325 0.010926
0.060045 0.220052 0.748621 -0.949434 -0.310429 0.046998
0.068591 0.467710 0.153591 -0.982762 -0.086241 -0.163528
0.111265 0.455943 0.675081 0.943393 0.331381 0.013996
0.084147 0.612231 0.668205 0.983299 0.161043 0.084787
0.093576 0.297417 0.444209 0.687186 -0.719949 -0.097205
0.090380 0.133541 0.731485 0.977787 -0.197608 0.069882
0.105574 0.353950 0.898280 0.956134 0.090289 0.278669
0.088231 0.445149 0.187661 0.988063 -0.070435 -0.137002
0.084902 0.587943 0.638289 0.989156 0.146213 0.013856
0.059974 0.223237 0.734948 -0.946321 -0.321380 0.034532
0.077585 0.039735 0.592276 -0.331987 -0.907711 0.256602
0.091980 0.308996 0.303314 0.996105 -0.051872 -0.071308
0.089969 0.438873 0.385479 0.742927 0.667136 -0.054672
0.080507 0.581701 0.533656 0.462907 -0.189324 -0.865953
0.089728 0.154062 0.651797 0.979533 -0.167741 -0.111259
0.068717 0.472892 0.187219 -0.990322 0.130897 -0.046136
0.037064 0.302424 0.746456 -0.976616 -0.212141 0.034882
0.064774 0.430244 0.226108 -0.994496 -0.003167 -0.104726
0.116227 0.440885 0.767072 0.967648 0.245742 0.057173
0.033282 0.412913 0.567150 -0.972554 0.230116 -0.034441
0.067861 0.126659 0.691930 -0.982679 -0.182403 0.032743
0.120560 0.427102 0.747371 0.974989 0.217553 0.045466
0.071650 0.234484 0.217973 -0.812651 0.137364 -0.566330
0.084338 0.601307 0.607676 0.997372 0.066195 -0.029450
0.100067 0.282700 0.507172 0.847922 -0.507605 -0.152859
0.029196 0.358532 0.817633 -0.996683 0.027394 0.076633
0.051346 0.269381 0.868766 -0.877418 -0.400328 0.264338
0.039296 0.424666 0.630271 -0.963328 0.265929 -0.035790
0.084800 0.584272 0.569171 0.993887 0.028394 -0.106690
0.084830 0.582138 0.554944 0.991119 0.004809 -0.132893
0.065344 0.179892 0.649194 -0.980808 -0.177285 -0.081152
0.041256 0.289488 0.723014 -0.963638 -0.267016 0.010165
0.097126 0.213011 0.777471 0.954953 -0.279020 0.101055
0.061206 0.217629 0.698725 -0.961442 -0.274055 -0.022865
0.091217 0.167007 0.674826 0.977442 -0.197942 -0.073667
0.038671 0.304741 0.615186 -0.964574 -0.262456 -0.026720
0.092663 0.440308 0.432590 0.817967 0.546427 -0.179851
0.075837 0.095156 0.582038 -0.530051 0.615476 -0.583297
0.028393 0.361718 0.713436 -0.999041 0.016623 0.040514
0.053697 0.407015 0.897215 -0.903186 0.228662 0.363276
0.068422 0.118155 0.677003 -0.983712 -0.178830 0.018188
0.077318 0.740181 0.461843 -0.111138 0.969672 0.217682
0.086855 0.538215 0.580715 0.983206 0.143152 -0.113197
0.090433 0.438949 0.321949 0.933247 0.357151 0.038638
0.088788 0.138718 0.658410 0.987079 -0.128752 -0.095384
0.084792 0.583478 0.557298 0.991736 0.006400 -0.128134
0.126968 0.406462 0.677570 0.980741 0.195139 0.008202
0.081718 0.292783 0.434122 0.164229 -0.985844 -0.033764
0.033442 0.356752 0.480561 -0.980990 -0.139941 -0.134447
0.117046 0.293089 0.751881 0.965244 -0.261332 -0.003256
0.099787 0.255621 0.619911 0.922369 -0.374871 -0.093312
0.105581 0.474176 0.725250 0.933615 0.355906 0.041150
0.066093 0.535383 0.679385 -0.970553 0.240882 -0.001636
0.074686 0.207275 0.265811 -0.492784 -0.788785 0.367400
0.088934 0.427424 0.227193 0.992571 0.007858 -0.121413
0.081958 0.037054 0.485978 0.980780 0.159119 -0.112922
0.092919 0.414911 0.278400 0.997300 0.058838 -0.043942
0.069568 0.550298 0.576248 -0.976846 0.179182 -0.116901
0.054237 0.481269 0.758857 -0.947641 0.314640 0.054569
0.121423 0.318878 0.762004 0.978611 -0.204633 0.021116
0.067681 0.457583 0.186578 -0.992556 0.008097 -0.121519
0.075563 0.045654 0.601621 -0.763827 -0.622479 0.170551
0.026063 0.366939 0.516970 -0.998707 -0.029046 -0.041709
0.059772 0.489221 0.698295 -0.940369 0.339568 0.019980
0.036021 0.318154 0.532851 -0.967670 -0.245353 -0.058453
0.106665 0.262820 0.737640 0.952284 -0.303980 -0.027417
0.032607 0.331739 0.824774 -0.994137 -0.074171 0.078682
0.062928 0.207652 0.651646 -0.969947 -0.229626 -0.080464
0.069977 0.296779 0.419658 -0.354994 -0.934868 0.001352
0.030754 0.395866 0.492056 -0.984286 0.158218 -0.078413
0.074556 0.045876 0.586854 -0.952051 -0.299029 0.064653
0.075471 0.630868 0.677041 -0.422671 0.738157 0.525807
0.083972 0.061736 0.586399 0.995440 -0.063039 -0.071585
0.113030 0.402874 0.855317 0.949491 0.189674 0.249983
0.088853 0.297843 0.266015 0.983521 -0.032921 -0.177772
0.128530 0.390412 0.624214 0.993831 0.110363 -0.011001
0.090700 0.479743 0.823174 0.650204 0.663100 0.370854
0.092463 0.430126 0.888671 0.476405 0.627758 0.615595
0.074210 0.292618 0.941049 -0.262550 -0.709808 0.653636
0.109890 0.372570 0.438972 0.980367 0.017522 -0.196403
0.083319 0.609994 0.693706 0.941001 0.269212 0.205042
0.071258 0.608669 0.618503 -0.993786 0.110000 -0.017012
0.106779 0.468897 0.812910 0.863549 0.474422 0.170898
0.058523 0.484446 0.693968 -0.941672 0.336260 0.013511
0.083981 0.506051 0.120932 0.994245 0.082878 -0.067884
0.120439 0.320460 0.664529 0.974600 -0.223929 -0.003262
0.046572 0.438648 0.632336 -0.951935 0.301726 -0.052735
0.091740 0.252620 0.870277 0.478115 -0.734994 0.480822
0.112119 0.292616 0.557644 0.947440 -0.313391 -0.064369
0.031127 0.328970 0.622858 -0.987018 -0.160360 -0.008910
0.061166 0.217232 0.703126 -0.961567 -0.273997 -0.017742
0.085227 0.573675 0.592746 0.992528 0.100676 -0.068943
0.120998 0.401315 0.822073 0.978210 0.151315 0.142156
0.076744 0.232887 0.313874 -0.109348 -0.885366 0.451851
0.078306 0.457318 0.447938 -0.086952 0.944469 -0.316889
0.114618 0.443756 0.838794 0.829897 0.406255 0.382398
0.030677 0.368192 0.820701 -0.993749 0.069303 0.087523
0.069709 0.482872 0.145481 -0.991719 -0.033421 -0.123998
0.088773 0.520653 0.613288 0.963702 0.261946 -0.051596
0.036701 0.340646 0.846802 -0.988997 -0.053276 0.138007
0.112842 0.306501 0.871066 0.947177 -0.256322 0.192755
0.061965 0.337726 0.322470 -0.996542 -0.019100 -0.080860
0.087079 0.546498 0.669984 0.974145 0.225488 0.014029
0.060337 0.314146 0.936482 -0.927858 0.052995 0.369149
0.087888 0.451023 0.236789 0.993410 0.104053 -0.048053
0.082467 0.670397 0.552329 0.996989 0.075971 0.015528
0.036400 0.305065 0.776491 -0.980575 -0.189779 0.049571
0.030898 0.336669 0.745348 -0.995243 -0.085677 0.046366
0.055632 0.368208 0.391306 -0.991826 0.034481 -0.122850
0.090473 0.260848 0.301962 0.993049 -0.117634 -0.004099
0.052732 0.247938 0.773651 -0.943883 -0.330206 -0.006965
0.029160 0.405467 0.756067 -0.973717 0.227305 0.014434
0.119107 0.316371 0.510704 0.968274 -0.242938 -0.058533
0.033227 0.412047 0.501301 -0.973629 0.222428 -0.050710
0.092599 0.196729 0.798641 0.808727 -0.474500 0.347578
0.082735 0.044724 0.556434 0.992577 -0.117332 -0.031992
0.087585 0.081018 0.680428 0.960550 -0.267455 0.076229
0.095119 0.499258 0.715346 0.929312 0.368755 0.019987
0.045326 0.456113 0.781824 -0.957459 0.283998 0.051154
0.086493 0.473079 0.172255 0.997211 0.029103 -0.068723
0.034632 0.391645 0.825168 -0.978087 0.171476 0.118074
0.074368 0.177641 0.192610 -0.691015 -0.700734 0.177397
0.032731 0.406158 0.809233 -0.969541 0.233943 0.072536
0.061325 0.364230 0.945616 -0.814228 0.289831 0.503022
0.104498 0.437255 0.867948 0.808007 0.425343 0.407685
0.083332 0.522378 0.064107 0.967789 0.099740 -0.231161
0.053486 0.466237 0.682899 -0.946725 0.321955 -0.007538
0.044664 0.278950 0.689042 -0.951874 -0.305379 -0.026075
0.063250 0.455086 0.480048 -0.885539 0.437448 -0.156395
0.098499 0.488499 0.716946 0.925433 0.378336 0.020871
0.121629 0.324549 0.542397 0.976142 -0.212809 -0.043109
0.109519 0.446027 0.562264 0.943962 0.321073 -0.076472
0.069682 0.560405 0.639485 -0.983862 0.176230 -0.030965
0.071798 0.692988 0.498798 -0.998994 0.026636 -0.036083
0.084457 0.599873 0.631806 0.992919 0.117995 0.013766
0.050597 0.459576 0.699368 -0.950428 0.310940 -0.001458
0.066281 0.283584 0.257108 -0.983968 0.007646 -0.178182
0.043647 0.450283 0.779578 -0.959203 0.279064 0.045312
0.060812 0.353747 0.333236 -0.996266 -0.021561 -0.083597
0.063542 0.441053 0.450923 -0.866628 0.467771 -0.173626
0.129812 0.374177 0.611155 0.999950 -0.002032 -0.009755
0.084185 0.602715 0.566185 0.995657 0.010035 -0.092559
0.071429 0.182752 0.601805 -0.644757 -0.292047 -0.706397
0.038228 0.299500 0.731133 -0.972599 -0.231050 0.025846
0.088839 0.538077 0.703872 0.957870 0.282441 0.052076
0.097029 0.356206 0.353853 0.995621 -0.048160 -0.080121
0.072145 0.665196 0.537589 -0.998575 0.022775 -0.048253
0.072261 0.646259 0.632409 -0.983962 0.162076 0.074497
0.064003 0.523095 0.687701 -0.964736 0.263152 -0.005988
0.097510 0.285883 0.494029 0.796542 -0.577702 -0.178274
0.066830 0.540428 0.682976 -0.972298 0.233579 0.008788
0.060567 0.254558 0.546063 -0.895720 -0.410840 -0.169988
0.053756 0.268207 0.568232 -0.922658 -0.367015 -0.118327
0.100334 0.244697 0.666628 0.944499 -0.319509 -0.076392
0.053328 0.252169 0.733472 -0.938013 -0.343946 -0.042815
0.068360 0.541843 0.607515 -0.974183 0.210159 -0.082469
0.028781 0.403022 0.531418 -0.979441 0.199507 -0.029869
0.073233 0.443595 0.404283 -0.560021 0.824660 -0.079446
0.082182 0.618247 0.522605 0.870727 -0.271579 -0.409974
0.071487 0.621008 0.625193 -0.994460 0.104675 0.009567
0.067601 0.332626 0.255175 -0.973486 -0.017297 -0.228091
0.061695 0.445812 0.467230 -0.877683 0.446280 -0.174663
0.125262 0.411137 0.566396 0.963929 0.262225 -0.045592
0.074429 0.375562 0.945809 -0.186464 0.582604 0.791078
0.093602 0.424941 0.305006 0.992025 0.124420 -0.020177
0.066444 0.314829 0.272441 -0.985946 -0.002678 -0.167046
0.074177 0.718744 0.508923 -0.827501 0.538050 0.160452
0.081832 0.455378 0.159497 0.519417 -0.599926 -0.608519
0.065931 0.535028 0.685533 -0.969983 0.243109 0.005525
0.071314 0.611723 0.659210 -0.986835 0.153069 0.052208
0.063892 0.500418 0.602965 -0.949008 0.307515 -0.069408
0.081583 0.490896 0.111842 0.711191 -0.503364 -0.490746
0.064237 0.530192 0.739177 -0.962087 0.264715 0.065683
0.071556 0.532230 0.537900 -0.863289 0.347108 -0.366399
0.086694 0.540733 0.586601 0.984410 0.140137 -0.106290
0.099150 0.351704 0.379219 0.992339 -0.085023 -0.089631
0.127686 0.400541 0.597961 0.979594 0.198878 -0.029037
0.057301 0.237300 0.725585 -0.939481 -0.342600 -0.001199
0.037932 0.431284 0.841529 -0.898424 0.217910 0.381248
0.089377 0.528797 0.679667 0.956164 0.291865 0.023787
0.081425 0.035227 0.524059 0.984403 -0.173324 -0.030143
0.061628 0.333963 0.327224 -0.996683 -0.017376 -0.079499
0.027637 0.361737 0.659043 -0.999836 -0.005171 0.017375
0.048136 0.329736 0.887624 -0.965768 -0.112949 0.233525
0.067984 0.465731 0.248311 -0.966178 0.255016 0.038307
0.073127 0.676199 0.591748 -0.982716 0.170419 0.072293
0.082036 0.046208 0.513771 0.983944 0.134084 -0.117796
0.061567 0.229903 0.611525 -0.947458 -0.297907 -0.116513
0.090101 0.158928 0.652883 0.977037 -0.182782 -0.109495
0.090825 0.286125 0.379728 0.737894 -0.637194 0.222477
0.083978 0.608145 0.694567 0.963589 0.221473 0.149820
0.083942 0.610878 0.572366 0.997219 0.031587 -0.067506
0.032714 0.412309 0.719129 -0.970280 0.241981 -0.001743
0.083733 0.623054 0.643047 0.988972 0.134372 0.062285
0.105233 0.274414 0.580913 0.929302 -0.358042 -0.090578
0.087194 0.239705 0.224711 0.956425 0.031400 -0.290285
0.094389 0.299397 0.350239 0.991162 -0.129195 -0.030103
0.077031 0.044339 0.609918 -0.344293 -0.898000 0.273967
0.083197 0.580909 0.540173 0.903358 -0.076778 -0.421958
0.049703 0.258034 0.770152 -0.945584 -0.324738 -0.020389
0.089301 0.340251 0.266146 0.980484 -0.083466 -0.178002
0.060069 0.340644 0.346990 -0.996495 -0.031157 -0.077632
0.101126 0.396544 0.908222 0.900698 0.184175 0.393474
0.089103 0.332168 0.264954 0.979662 -0.085434 -0.181558
0.070031 0.360312 0.228794 -0.896153 -0.138177 -0.421683
0.073514 0.713623 0.519595 -0.917131 0.377944 0.126603
0.062386 0.217077 0.637551 -0.965030 -0.240522 -0.104236
0.026396 0.351158 0.556429 -0.994300 -0.102470 -0.029459
0.093034 0.327497 0.316315 0.995115 -0.062427 -0.076474
0.055023 0.404844 0.902952 -0.896382 0.230097 0.378885
0.093661 0.195759 0.679592 0.968411 -0.243077 -0.055619
0.095887 0.196774 0.794883 0.944409 -0.288648 0.157401
0.077401 0.683156 0.444638 0.115505 -0.821575 -0.558277
0.063896 0.192727 0.664113 -0.973674 -0.223378 -0.045411
0.115764 0.356504 0.859848 0.984737 0.020361 0.172855
0.079028 0.670458 0.469712 0.375586 -0.736244 -0.562921
0.099815 0.304757 0.397368 0.959727 -0.279763 -0.025627
0.101843 0.468365 0.619087 0.935812 0.348841 -0.050646
0.038783 0.303399 0.632098 -0.965346 -0.260253 -0.019387
0.093719 0.182197 0.732987 0.971947 -0.233488 0.028317
0.093324 0.408854 0.276603 0.997772 0.034950 -0.056824
0.081691 0.528301 0.108489 0.874606 0.481696 0.055082
0.080151 0.567783 0.748214 0.287352 0.706666 0.646569
0.098921 0.223785 0.749120 0.960128 -0.277500 0.033890
0.093442 0.369193 0.299238 0.996415 -0.029791 -0.079185
0.063552 0.286795 0.353027 -0.929113 -0.360933 0.080472
0.060033 0.221545 0.741078 -0.948241 -0.315065 0.039673
0.037568 0.381352 0.843292 -0.976748 0.125687 0.173682
0.064889 0.440540 0.877872 -0.515000 0.637598 0.572925
0.096115 0.200933 0.775817 0.960349 -0.261872 0.095670
0.062348 0.409438 0.273673 -0.997440 0.053323 -0.047641
0.066334 0.447073 0.298893 -0.945917 0.323007 0.030133
0.029691 0.341215 0.704216 -0.995984 -0.084266 0.030256
0.103571 0.404161 0.894910 0.899164 0.230151 0.372203
0.121166 0.321413 0.709680 0.977343 -0.211450 0.009433
0.104481 0.448172 0.511591 0.939679 0.315822 -0.131375
0.102664 0.470011 0.641371 0.935128 0.353033 -0.030055
0.110559 0.451708 0.615761 0.942457 0.333007 -0.029688
0.029351 0.405438 0.590166 -0.976865 0.212892 -0.020313
0.072181 0.724580 0.465541 -0.980283 0.195818 0.026476
0.070976 0.598387 0.606028 -0.993844 0.097996 -0.051675
0.095319 0.291705 0.370969 0.956091 -0.289286 0.046935
0.047576 0.319546 0.478092 -0.937627 -0.308811 -0.159659
0.070673 0.225968 0.230461 -0.986583 -0.102024 -0.127455
0.112927 0.450889 0.704463 0.952349 0.303745 0.027756
0.097465 0.255096 0.568006 0.906103 -0.404717 -0.123211
0.089193 0.112644 0.722954 0.952877 -0.276977 0.123731
0.085852 0.574156 0.725429 0.968721 0.226101 0.102264
0.128258 0.355843 0.765025 0.994048 -0.099638 0.044056
0.087173 0.104895 0.647991 0.990585 -0.113811 -0.076086
0.097253 0.405206 0.353701 0.986363 0.157434 -0.047979
0.030440 0.334879 0.679221 -0.992992 -0.116861 0.017618
0.031801 0.347867 0.830782 -0.994641 -0.019198 0.101587
0.092179 0.440716 0.428830 0.814036 0.554985 -0.171282
0.029165 0.395420 0.767690 -0.982321 0.185172 0.027499
0.129516 0.377895 0.542187 0.997129 0.060395 -0.045669
0.085125 0.205861 0.254394 0.855615 -0.512215 0.074563
0.068570 0.364329 0.951704 -0.568268 0.462738 0.680401
0.082141 0.712373 0.514301 0.978957 0.187403 0.080765
0.085865 0.556150 0.593616 0.989068 0.118736 -0.087443
0.055003 0.312153 0.410674 -0.933255 -0.344146 -0.102954
0.088252 0.525957 0.608835 0.970349 0.233543 -0.062291
0.107295 0.452427 0.578226 0.941766 0.329026 -0.069421
0.043979 0.452298 0.785229 -0.958856 0.279352 0.050580
0.111487 0.455897 0.778396 0.957448 0.281215 0.064889
0.060246 0.215019 0.765415 -0.954861 -0.290859 0.060339
0.062892 0.522680 0.748143 -0.957847 0.279174 0.067763
0.126828 0.345309 0.654478 0.990688 -0.136144 0.001357
0.082668 0.667992 0.484700 0.940727 -0.266164 -0.210212
0.060316 0.488537 0.683491 -0.939255 0.343087 0.009537
0.073913 0.294705 0.415675 -0.189010 -0.980515 0.053531
0.078240 0.540204 0.528584 0.098125 0.337505 -0.936195
0.096487 0.314673 0.362418 0.991662 -0.113475 -0.061076
0.057770 0.341980 0.931053 -0.916297 0.038568 0.398638
0.100411 0.312328 0.400511 0.956187 -0.291748 -0.024268
0.089699 0.151006 0.659859 0.981653 -0.165996 -0.093819
0.086085 0.477143 0.147627 0.992670 -0.028193 -0.117520
0.093021 0.470295 0.517526 0.928594 0.336104 -0.157316
0.077729 0.259203 0.896964 -0.055759 -0.830063 0.554875
0.072057 0.318020 0.232812 -0.787791 -0.011773 -0.615830
0.029062 0.396576 0.704770 -0.982591 0.185321 0.013099
0.093660 0.267681 0.901276 0.655433 -0.608931 0.446777
0.124144 0.336957 0.681951 0.984928 -0.172641 0.010605
0.068531 0.469875 0.180622 -0.993441 0.087721 -0.073350
0.085401 0.573061 0.626966 0.989628 0.142015 -0.021621
0.076383 0.536137 0.774123 -0.080969 0.753221 0.652766
0.092269 0.509969 0.680931 0.943235 0.332089 0.004895
0.043208 0.366328 0.452125 -0.976283 -0.066050 -0.206174
0.096334 0.351443 0.347865 0.995459 -0.053007 -0.079068
0.063907 0.512975 0.644094 -0.959090 0.279267 -0.046445
0.086292 0.540677 0.548913 0.982834 0.089931 -0.161091
0.082651 0.712050 0.484272 0.990630 0.132490 0.033160
0.068790 0.471908 0.164538 -0.993656 0.010244 -0.111999
0.028683 0.341474 0.544676 -0.988680 -0.144848 -0.039115
0.070658 0.080431 0.680029 -0.944206 -0.297147 0.142051
0.062591 0.323180 0.317745 -0.996833 -0.016094 -0.077873
0.029862 0.343809 0.502191 -0.984898 -0.159039 -0.068432
0.058174 0.406707 0.378615 -0.978481 0.191740 -0.076226
0.097819 0.425358 0.413090 0.865977 0.483611 -0.127296
0.028808 0.366591 0.715839 -0.997877 0.048906 0.043005
0.065562 0.322961 0.281772 -0.991405 -0.011343 -0.130339
0.090562 0.262003 0.300911 0.994686 -0.102174 -0.012636
0.094784 0.481138 0.616728 0.930113 0.360190 -0.071779
0.027730 0.366276 0.640244 -0.999807 0.016469 0.010732
0.084725 0.600890 0.699612 0.975115 0.193564 0.108095
0.080981 0.189831 0.591734 0.241387 -0.579291 -0.778559
0.028881 0.403381 0.590636 -0.978457 0.205675 -0.017896
0.059820 0.404296 0.326498 -0.991494 0.123012 -0.042526
0.045421 0.451012 0.835876 -0.834505 0.468355 0.290251
0.111239 0.289771 0.569343 0.945670 -0.318363 -0.065976
0.046585 0.332909 0.883064 -0.969524 -0.099294 0.223973
0.090595 0.439078 0.273228 0.990949 0.133865 -0.009993
0.108239 0.350143 0.888268 0.968468 0.066970 0.239968
0.063695 0.429007 0.332643 -0.952200 0.305475 -0.000620
0.056441 0.347939 0.387649 -0.991661 -0.038292 -0.123052
0.082420 0.226176 0.302570 0.490540 -0.782396 0.383702
0.064152 0.382461 0.265855 -0.990481 -0.012280 -0.137100
0.077479 0.515419 0.065249 0.080206 -0.397122 -0.914254
0.102920 0.353557 0.417996 0.987432 -0.087042 -0.131915
0.029792 0.338315 0.536528 -0.985844 -0.161539 -0.044907
0.070438 0.553360 0.544655 -0.954395 0.179025 -0.238916
0.111742 0.295722 0.868453 0.946001 -0.275896 0.170189
0.085865 0.276399 0.922200 0.334247 -0.747329 0.574263
