0.229122 0.232176 0.961278 -0.025593 0.577886 0.815716
0.215778 0.423801 0.398337 -0.748773 0.610035 -0.259220
0.237439 0.300346 0.137911 -0.996836 0.061137 0.050792
0.244895 0.348194 0.375355 -0.796459 -0.509249 -0.326065
0.254305 0.394538 0.708045 -0.116378 -0.259275 -0.958766
0.191244 0.129212 0.607110 -0.083882 -0.839168 -0.537365
0.289410 0.216858 0.719593 -0.659747 -0.308659 -0.685174
0.283045 0.251729 0.954718 0.302111 0.091903 0.948832
0.259647 0.390488 0.803135 0.580944 0.459034 0.672154
0.236608 0.406461 0.409427 -0.725876 0.452547 -0.517982
0.256786 0.189926 0.527883 0.012530 -0.808072 -0.588951
0.253938 0.426288 0.393019 0.328280 0.931907 -0.154213
0.089609 0.212923 0.730278 -0.994233 -0.061003 0.088203
0.263585 0.362370 0.186928 0.977201 0.064377 -0.202320
0.291441 0.427671 0.449398 0.791052 0.600107 -0.118777
0.116261 0.340937 0.619143 -0.898788 0.396580 -0.186826
0.245184 0.410674 0.312840 0.956145 -0.023704 0.291935
0.151907 0.208085 0.547595 -0.731013 -0.417119 -0.540030
0.157254 0.195721 0.823564 0.878563 0.153182 0.452396
0.286963 0.363045 0.351385 0.951450 0.193006 -0.239775
0.248449 0.309839 0.357545 0.874881 0.381619 -0.298247
0.125062 0.194621 0.908920 -0.744565 -0.478867 0.465092
0.350090 0.205511 0.654500 -0.581800 -0.271824 -0.766564
0.332827 0.229150 0.922200 0.704450 -0.078304 0.705421
0.251232 0.317099 0.322029 0.968313 0.187202 -0.165302
0.322999 0.356812 0.458333 0.969325 0.017515 -0.245156
0.077293 0.307496 0.845553 0.529509 -0.724176 -0.441802
0.227401 0.412613 0.590870 -0.992287 0.103330 -0.068480
0.239840 0.244335 0.831686 0.225698 0.209013 0.951511
0.264572 0.400335 0.497418 0.965221 0.173204 -0.195829
0.358462 0.148754 0.830612 0.821996 -0.480476 0.305722
0.166420 0.186337 0.761434 -0.614459 -0.024566 -0.788566
0.312283 0.158386 0.572018 0.273679 -0.788831 -0.550313
0.078647 0.228201 0.814471 -0.984699 -0.090528 0.148906
0.077329 0.265574 0.785377 -0.988914 0.103607 -0.106374
0.209164 0.451669 0.538874 -0.521532 0.848910 -0.085772
0.259699 0.473595 0.080063 0.718943 -0.693722 0.043258
0.195701 0.157942 0.939435 -0.187380 -0.886099 0.423931
0.179548 0.285744 0.826907 -0.936036 -0.108799 -0.334664
0.228709 0.263110 0.435884 -0.814998 -0.553150 0.172637
0.327249 0.175432 0.843988 0.323169 -0.940673 0.103423
0.233382 0.428437 0.351892 -0.337098 0.916817 -0.214035
0.212057 0.394359 0.674185 -0.551493 -0.026862 -0.833747
0.223893 0.382767 0.888916 -0.092625 0.692067 0.715865
0.237961 0.434672 0.446799 0.167358 0.957960 -0.233030
0.211507 0.269011 0.957451 -0.168562 0.196980 0.965808
0.234759 0.368368 0.902342 -0.010349 0.665000 0.746771
0.389503 0.271719 0.843117 0.951842 -0.207425 0.225771
0.230492 0.346055 0.709642 0.537752 -0.574737 -0.616847
0.154134 0.360921 0.502992 -0.936988 0.089547 -0.337690
0.382161 0.196511 0.826253 0.936298 -0.250237 0.246430
0.154889 0.100632 0.793810 -0.529556 -0.848204 0.010967
0.290938 0.370996 0.792087 0.933241 0.344543 0.101745
0.199412 0.448503 0.647379 -0.524296 0.850843 -0.034351
0.198904 0.209508 0.505081 -0.217249 -0.826205 -0.519796
0.242392 0.374443 0.716124 0.572477 -0.183291 -0.799171
0.264702 0.386486 0.623796 0.990139 0.024929 -0.137855
0.329408 0.399391 0.798276 0.803381 0.587099 0.099463
0.232208 0.439286 0.449102 -0.543180 0.811257 -0.216371
0.262335 0.220585 0.843433 -0.186936 0.041298 0.981504
0.352825 0.196285 0.887509 0.805118 -0.252224 0.536813
0.376224 0.189699 0.837259 0.906849 -0.283456 0.311894
0.083250 0.239242 0.836026 -0.957224 -0.020982 0.288587
0.319665 0.413528 0.580565 0.797885 0.595820 -0.091530
0.371792 0.245114 0.626229 -0.011423 -0.166605 -0.985958
0.267368 0.445816 0.248129 0.990288 -0.117369 -0.074525
0.265806 0.381026 0.324689 0.987767 0.062836 -0.142713
0.349072 0.287379 0.532396 0.931514 0.179274 -0.316453
0.257366 0.245410 0.165926 0.154059 -0.953086 0.260563
0.209603 0.357763 0.908508 -0.179543 0.640699 0.746505
0.256594 0.385571 0.792865 0.404715 0.525944 0.748057
0.340360 0.120097 0.819073 -0.346450 -0.837538 0.422496
0.264851 0.506554 0.556287 0.656362 0.750703 0.075064
0.088746 0.302237 0.771606 -0.944222 0.315124 -0.095614
0.271306 0.239615 0.733434 -0.659492 -0.217368 -0.719598
0.240471 0.231713 0.464227 0.008449 -0.889152 -0.457533
0.385338 0.202863 0.822140 0.950450 -0.224290 0.215264
0.189708 0.156399 0.928736 -0.153523 -0.980348 0.123890
0.275695 0.325104 0.335865 0.977791 -0.135254 -0.160100
0.259005 0.543980 0.474102 0.570426 0.820598 -0.035115
0.359090 0.332891 0.734623 0.921695 0.376060 -0.095169
0.225432 0.436366 0.693580 -0.319050 0.881205 -0.348834
0.273760 0.240113 0.730527 -0.661054 -0.231180 -0.713837
0.207082 0.372385 0.674256 0.144853 -0.171978 -0.974393
0.302780 0.379196 0.428765 0.929160 0.311637 -0.198859
0.245220 0.248856 0.427280 -0.225237 -0.893911 0.387546
0.280465 0.404710 0.739809 0.800745 0.331069 0.499200
0.267115 0.152871 0.928770 0.244645 -0.729281 0.638982
0.265616 0.416381 0.311702 0.973118 -0.192752 -0.126047
0.383962 0.310244 0.832082 -0.172411 -0.837447 0.518611
0.133999 0.363453 0.553294 -0.934998 0.164869 -0.314002
0.265335 0.388349 0.340830 0.992485 -0.002831 -0.122336
0.105056 0.122055 0.814477 0.135907 -0.117068 0.983781
0.315714 0.349921 0.651693 -0.607065 -0.075353 -0.791071
0.181063 0.201974 0.689864 0.666716 -0.289769 -0.686676
0.384540 0.055636 0.772867 -0.402456 -0.894552 -0.194436
0.393169 0.272470 0.650227 0.915160 0.183822 0.358735
0.196059 0.250665 0.956486 -0.275256 0.149648 0.949652
0.308451 0.426858 0.771203 0.718006 0.694970 0.038523
0.279807 0.376239 0.748742 0.860285 0.180771 0.476687
0.339547 0.321525 0.575848 0.609752 0.310595 -0.729201
0.194313 0.441413 0.560825 -0.658618 0.745747 -0.100414
0.207160 0.098027 0.663102 -0.057677 -0.931684 -0.358663
0.359018 0.211388 0.642749 -0.566571 -0.252052 -0.784517
0.159640 0.377355 0.514038 -0.913440 0.304238 -0.270308
0.091192 0.245849 0.856629 -0.915804 0.029509 0.400540
0.176936 0.339016 0.453878 -0.946974 -0.009062 -0.321182
0.241487 0.391743 0.258290 -0.969676 0.222287 -0.101574
0.182778 0.268269 0.842613 -0.989200 -0.141732 0.037363
0.267011 0.520139 0.521921 0.800906 0.598450 0.020197
0.236330 0.477188 0.065277 -0.996141 0.019498 0.085577
0.279959 0.346032 0.327040 0.988427 -0.034689 -0.147679
0.192511 0.444528 0.746441 -0.429373 0.899235 0.083756
0.256615 0.280719 0.343010 0.013874 -0.975802 -0.218217
0.226385 0.337247 0.325224 -0.971816 -0.027383 -0.234145
0.240863 0.301455 0.297535 -0.980831 -0.109473 -0.161202
0.288308 0.336285 0.781809 0.964533 -0.008409 -0.263830
0.362372 0.173848 0.606577 0.905799 -0.366170 -0.213184
0.354377 0.194687 0.884655 0.809715 -0.260326 0.525921
0.280089 0.350669 0.825122 -0.225672 0.383796 0.895418
0.230676 0.078353 0.781002 -0.041962 -0.996729 -0.069075
0.193041 0.219035 0.765986 -0.668321 0.351279 0.655706
0.248813 0.489060 0.493093 0.170256 0.547349 -0.819403
0.245671 0.429233 0.194112 -0.994681 0.078156 0.067091
0.254965 0.322396 0.938588 0.131094 0.521812 0.842927
0.259298 0.379175 0.327096 -0.988603 -0.129010 0.077591
0.122709 0.254273 0.905499 -0.786833 0.093262 0.610078
0.317676 0.206759 0.810067 0.295815 0.908875 -0.294005
0.287972 0.427541 0.813696 0.386956 0.855708 0.343554
0.273556 0.319226 0.211987 0.977628 -0.119334 -0.173212
0.229915 0.341224 0.615980 -0.009581 -0.996442 0.083732
0.170640 0.331734 0.708068 -0.822281 0.266892 0.502615
0.114022 0.116945 0.771709 0.589573 -0.704509 -0.395058
0.334007 0.195155 0.898925 0.797595 -0.539791 0.269196
0.228267 0.313469 0.450819 -0.999693 -0.024780 0.000592
0.377166 0.310051 0.658082 0.834720 0.240871 0.495201
0.266101 0.300098 0.186992 0.998349 0.017164 -0.054814
0.227196 0.446348 0.626206 -0.955717 0.282752 -0.081581
0.228748 0.142578 0.804338 -0.464055 -0.566207 0.681221
0.237081 0.258164 0.082474 -0.956552 -0.215554 0.196327
0.340904 0.118837 0.653029 0.613925 -0.747976 -0.252245
0.227755 0.371862 0.413666 -0.960008 0.163416 -0.227332
0.240224 0.228761 0.388839 -0.550661 -0.817381 0.169293
0.253333 0.087653 0.700122 0.074408 -0.974716 -0.210696
0.072647 0.288961 0.828744 0.791978 0.398966 0.462166
0.122218 0.321453 0.652688 -0.857166 0.257115 0.446273
0.335373 0.230110 0.840515 -0.133554 -0.870236 -0.474186
0.210392 0.396652 0.383642 -0.806336 0.528928 -0.264683
0.257726 0.534324 0.472363 0.567621 0.793991 -0.217682
0.289780 0.276130 0.390195 0.744547 -0.364095 -0.559540
0.236114 0.429748 0.520055 0.780890 0.416492 -0.465558
0.312003 0.102138 0.669045 0.320747 -0.918481 -0.231331
0.301792 0.202763 0.878768 -0.932920 0.240416 -0.268069
0.237942 0.378021 0.335758 -0.822903 -0.225055 -0.521710
0.090541 0.298398 0.825780 -0.916896 0.327904 0.227556
0.141431 0.263176 0.926285 -0.669605 0.169405 0.723140
0.289355 0.151437 0.919448 0.378955 -0.629386 0.678429
0.101394 0.296033 0.627333 -0.978092 0.176307 0.110684
0.163286 0.095975 0.791149 -0.475896 -0.879398 -0.013492
0.198785 0.325092 0.743711 -0.872912 0.207052 0.441762
0.241725 0.320466 0.163629 -0.991697 0.125276 0.029031
0.230278 0.337604 0.711709 0.559300 -0.565972 -0.605688
0.132710 0.241322 0.566122 -0.933792 -0.041564 -0.355394
0.197372 0.443656 0.559535 -0.629216 0.771309 -0.095755
0.259774 0.337380 0.148557 0.998554 -0.000547 -0.053749
0.256054 0.222381 0.840797 -0.260069 0.079712 0.962294
0.140218 0.191468 0.783436 -0.674930 0.728736 -0.115814
0.275142 0.210581 0.499059 0.077424 -0.849058 -0.522596
0.096646 0.295158 0.853579 -0.066683 -0.133955 -0.988741
0.383301 0.194563 0.678949 0.972761 -0.167638 0.160107
0.097571 0.287631 0.720573 -0.963514 0.261786 0.055760
0.255100 0.278386 0.084595 -0.131511 0.927279 -0.350512
0.115514 0.192481 0.680123 -0.901772 0.050638 0.429235
0.160302 0.098701 0.755701 -0.482974 -0.871303 -0.086989
0.229082 0.219945 0.348065 -0.959053 -0.256284 -0.120567
0.241333 0.439575 0.115039 -0.997771 -0.018667 0.064062
0.238996 0.248080 0.746800 0.503432 -0.221521 -0.835155
0.307264 0.167666 0.777776 0.826683 -0.077147 0.557354
0.240907 0.318025 0.139742 -0.999154 -0.018841 0.036556
0.253976 0.373634 0.105458 -0.439778 -0.081838 -0.894370
0.220314 0.452185 0.555501 -0.701898 0.706463 -0.090830
0.152776 0.260700 0.639711 0.627967 -0.186109 -0.755660
0.277482 0.293132 0.711090 -0.657232 -0.187945 -0.729879
0.242258 0.412112 0.319993 0.734644 -0.654704 -0.177934
0.307115 0.387353 0.714786 0.744936 0.329162 0.580278
0.378886 0.273348 0.849805 0.914528 0.171027 0.366590
0.262101 0.263521 0.075247 0.994059 0.071406 -0.082148
0.300373 0.106868 0.652286 0.191506 -0.888088 -0.417882
0.380992 0.189176 0.750893 0.970624 -0.152962 0.185722
0.248133 0.174920 0.749921 0.143148 -0.443176 -0.884932
0.241340 0.458266 0.080759 0.144863 0.824290 0.547321
0.362019 0.278896 0.878715 0.835758 0.190971 0.514820
0.253027 0.411724 0.305117 -0.593437 0.804756 0.014157
0.312226 0.339003 0.449197 0.933259 -0.054185 -0.355094
0.263934 0.377632 0.336590 -0.985896 -0.123771 0.112646
0.087468 0.271418 0.744275 -0.977625 0.130920 -0.164650
0.240747 0.346032 0.375827 0.999142 -0.017778 0.037402
0.260711 0.443673 0.115917 0.999795 -0.010162 -0.017520
0.228259 0.368814 0.394249 -0.885010 0.205985 -0.417525
0.264624 0.395357 0.660332 0.837500 -0.059937 -0.543141
0.273990 0.166581 0.931726 0.306000 -0.940218 0.149514
0.218903 0.086813 0.716060 -0.108912 -0.984908 -0.134517
0.097888 0.239383 0.646029 -0.941315 0.061155 0.331944
0.246593 0.275601 0.088678 -0.511627 0.719580 -0.469513
0.154873 0.250130 0.937480 -0.580545 0.136698 0.802671
0.280593 0.450377 0.691642 0.492076 0.869908 0.033488
0.288843 0.255566 0.773250 0.874615 0.043343 0.482876
0.229244 0.359836 0.877026 -0.390359 0.740124 0.547573
0.171610 0.344334 0.453253 -0.944320 0.023227 -0.328206
0.331676 0.209243 0.917383 0.786243 -0.037640 0.616770
0.151546 0.405363 0.755364 -0.784620 0.618722 -0.039435
0.107995 0.181959 0.678795 -0.940360 -0.237774 -0.243284
0.237876 0.314085 0.270241 -0.784169 0.583771 -0.210450
0.238830 0.371832 0.272442 -0.987592 -0.008033 -0.156836
0.248511 0.361446 0.325188 -0.973735 0.088878 0.209621
0.203382 0.081423 0.789283 -0.228653 -0.973442 -0.011353
0.195249 0.168074 0.911995 0.286562 -0.406781 -0.867417
0.097659 0.291693 0.725003 -0.957925 0.283522 0.044655
0.196300 0.304670 0.746335 -0.838847 0.357284 0.410712
0.215240 0.386279 0.754427 -0.965258 0.151238 0.213084
0.242436 0.321975 0.318680 -0.961598 0.181086 0.206245
0.234852 0.296791 0.728422 0.640596 -0.150144 -0.753056
0.387444 0.056253 0.799055 -0.438825 -0.877008 0.195675
0.246086 0.235490 0.070646 -0.340642 -0.893984 -0.291126
0.341340 0.263837 0.506252 0.942478 -0.072658 -0.326276
0.263544 0.462691 0.652408 0.616440 0.772393 0.153006
0.228060 0.337051 0.432662 -0.994725 0.054655 -0.086803
0.383351 0.193096 0.669372 0.966054 -0.258340 -0.000527
0.246337 0.284174 0.287863 -0.526498 -0.803838 0.276848
0.255304 0.466751 0.218563 -0.023146 0.945978 0.323403
0.304714 0.410977 0.828592 0.537824 0.741170 0.401762
0.322408 0.236048 0.846197 -0.852193 -0.442849 -0.278661
0.164886 0.391280 0.531541 -0.857063 0.454298 -0.243016
0.147592 0.262416 0.751834 -0.574393 -0.228439 -0.786059
0.225768 0.448477 0.573163 -0.906589 0.412189 -0.090537
0.203609 0.159259 0.921912 0.135598 -0.828201 -0.543780
0.242923 0.409829 0.332130 0.590486 -0.791169 -0.159307
0.241832 0.311472 0.330124 0.861878 0.494333 -0.113143
0.338976 0.202879 0.667778 -0.598579 -0.287656 -0.747634
0.277489 0.402177 0.679729 -0.553621 -0.002031 -0.832766
0.245878 0.404282 0.211265 -0.958726 0.272285 0.081881
0.239541 0.245264 0.086352 -0.961376 -0.067925 0.266727
0.256820 0.283290 0.286408 0.044317 -0.944821 0.324577
0.164185 0.110239 0.852041 -0.463136 -0.798059 0.385496
0.247451 0.342197 0.355893 -0.990838 0.117911 -0.065860
0.254802 0.232520 0.099035 -0.017256 -0.998552 0.050951
0.114034 0.192039 0.678465 -0.904215 0.051143 0.424003
0.258485 0.319284 0.332216 0.989244 -0.027860 -0.143599
0.262430 0.348481 0.177704 0.998550 0.029518 -0.045027
0.224626 0.188558 0.745806 0.632858 -0.136312 -0.762174
0.318199 0.416710 0.514322 0.821078 0.558571 -0.117601
0.113913 0.198989 0.628351 -0.604441 -0.344757 -0.718188
0.256671 0.441324 0.224480 0.957628 0.245660 0.150331
0.380269 0.068238 0.816107 -0.495793 -0.737886 0.457945
0.202992 0.125491 0.899658 -0.224096 -0.749186 0.623299
0.206664 0.437765 0.794297 -0.220236 0.930514 0.292644
0.137449 0.378262 0.681267 -0.842798 0.537109 0.034725
0.155920 0.283622 0.493826 -0.943890 0.024346 -0.329362
0.235115 0.516925 0.479821 -0.598503 0.758658 -0.257357
0.204530 0.193718 0.959145 -0.105259 -0.913966 0.391901
0.184373 0.089217 0.817685 -0.343687 -0.921564 0.180550
0.163745 0.421557 0.766548 -0.735183 0.677352 -0.026480
0.329257 0.197261 0.680345 -0.613456 -0.307009 -0.727611
0.230235 0.514035 0.510159 -0.845350 0.528063 -0.080827
0.183522 0.193835 0.932695 0.137828 0.986672 0.086495
0.250467 0.229363 0.832160 -0.055414 0.152370 0.986769
0.228305 0.310422 0.545634 -0.296994 -0.939313 0.171717
0.246870 0.424454 0.267434 0.860393 0.354618 0.366019
0.261500 0.362097 0.176419 0.999389 -0.015529 -0.031311
0.348972 0.215760 0.552419 0.890401 -0.193966 -0.411781
0.147788 0.403911 0.786984 -0.792300 0.610097 0.006542
0.266416 0.438787 0.276214 -0.313934 -0.887404 -0.337578
0.264872 0.366156 0.451543 0.945241 0.249820 -0.210024
0.373066 0.170631 0.689343 0.951689 -0.285549 0.112912
0.258220 0.362418 0.857526 0.733109 0.147317 0.663964
0.060420 0.087275 0.739286 -0.339754 -0.285158 -0.896243
0.244911 0.341224 0.700227 0.331606 -0.875632 -0.351150
0.250950 0.341224 0.630606 0.138428 -0.987297 0.077989
0.081009 0.288194 0.807873 -0.537853 -0.129981 -0.832958
0.264696 0.424315 0.295681 -0.333572 0.941917 0.039027
0.164195 0.384745 0.522874 -0.886861 0.395181 -0.239395
0.079597 0.276967 0.798929 -0.983173 0.182085 0.014697
0.331491 0.274110 0.719879 0.812914 0.177489 0.554679
0.236854 0.512095 0.543433 -0.472616 0.878655 0.067819
0.094466 0.251339 0.711840 -0.980495 0.081080 -0.179041
0.187363 0.227665 0.937599 0.197787 0.894718 -0.400449
0.392197 0.240700 0.628286 0.633173 -0.261822 -0.728383
0.265206 0.401096 0.590809 0.998659 0.044053 -0.027204
0.321592 0.260693 0.844895 -0.839171 0.424842 0.339560
0.114782 0.224690 0.799155 -0.573654 -0.553535 -0.603754
0.236531 0.158276 0.935651 0.095130 -0.967186 0.235589
0.252575 0.269254 0.242301 -0.226597 -0.925127 0.304621
0.269069 0.255650 0.731347 -0.667864 -0.185060 -0.720909
0.303298 0.297481 0.840071 0.910511 0.068193 0.407823
0.265372 0.380251 0.296456 0.997194 0.074665 0.005332
0.078564 0.308600 0.830363 0.467532 -0.772112 0.430415
0.227857 0.360744 0.593050 -0.989969 -0.130770 -0.053484
0.220895 0.083668 0.745993 -0.095374 -0.991330 -0.090378
0.258320 0.412792 0.081785 -0.223707 -0.285688 -0.931846
0.237145 0.330636 0.584286 -0.062304 -0.982562 0.175189
0.240074 0.216754 0.365816 -0.630823 -0.774591 0.045499
0.160307 0.282922 0.642646 0.648557 -0.168017 -0.742390
0.260490 0.268116 0.079087 -0.968507 -0.169973 -0.181945
0.228185 0.322575 0.405826 -0.994398 0.059700 -0.087222
0.232620 0.347141 0.904941 -0.162635 0.636397 0.754021
0.211025 0.381384 0.887775 -0.180908 0.687290 0.703495
0.216139 0.266233 0.852093 0.412820 0.142355 0.899619
0.209388 0.313438 0.759666 -0.935914 0.259240 0.238454
0.422112 0.062093 0.785155 0.868495 -0.475692 -0.139404
0.245304 0.155501 0.558977 0.007446 -0.771552 -0.636122
0.309161 0.185150 0.770610 0.848222 0.207109 0.487468
0.265222 0.370577 0.548316 0.995787 0.032973 -0.085567
0.315912 0.251341 0.455151 0.838799 -0.292950 -0.458908
0.380150 0.242603 0.690569 0.995243 0.061484 -0.075571
0.268201 0.277979 0.356259 0.463473 -0.722151 -0.513508
0.220318 0.425750 0.833630 -0.145319 0.874765 0.462243
0.206856 0.455199 0.707073 -0.324909 0.944336 0.051613
0.256407 0.345080 0.921556 0.141565 0.613942 0.776553
0.256290 0.488844 0.493383 0.564693 0.449147 -0.692379
0.372825 0.170515 0.822827 0.896442 -0.359706 0.258851
0.228109 0.331900 0.562137 -0.963093 -0.268718 -0.015559
0.138141 0.136762 0.691678 -0.571570 -0.816793 -0.078466
0.227883 0.357818 0.579379 -0.988912 -0.145994 -0.027189
0.229596 0.377440 0.804952 0.388560 0.330168 0.860238
0.352760 0.245033 0.704278 0.864180 0.124947 0.487423
0.143984 0.197707 0.559547 -0.708772 -0.435544 -0.554927
0.228851 0.485971 0.562990 -0.892961 0.443894 -0.074690
0.252968 0.185248 0.955327 0.063154 -0.202175 0.977311
0.266474 0.377431 0.290423 0.999312 0.033418 -0.016072
0.118357 0.125941 0.803775 0.643191 -0.740917 0.193255
0.356673 0.281658 0.566214 0.934081 0.172713 -0.312512
0.065377 0.133164 0.764665 -0.929755 0.252005 -0.268420
0.144091 0.295728 0.547609 -0.947152 0.142677 -0.287309
0.258967 0.342239 0.131073 0.998509 -0.015532 -0.052334
0.249308 0.271246 0.247232 -0.451729 -0.845222 0.285555
0.234444 0.446630 0.721078 0.181209 0.965547 0.186768
0.325612 0.104218 0.719636 0.472432 -0.879852 -0.051652
0.257407 0.496714 0.489767 0.612395 0.500315 -0.612092
0.134499 0.289875 0.609721 0.621814 -0.149782 -0.768708
0.248895 0.387176 0.296983 0.975215 -0.216892 0.043750
0.264752 0.279952 0.835419 -0.237956 0.240267 0.941089
0.277829 0.358501 0.253246 0.990276 0.088078 -0.107688
0.216713 0.417997 0.848870 -0.157672 0.826974 0.539678
0.111743 0.224939 0.859581 -0.535449 0.709372 0.458351
0.285635 0.355201 0.902444 0.348593 0.613366 0.708707
0.246754 0.470471 0.119139 -0.991579 0.089018 0.094062
0.335203 0.294976 0.907953 0.706199 0.308118 0.637453
0.260914 0.276975 0.230083 0.893649 0.435005 -0.110280
0.262033 0.262938 0.091456 0.998732 0.021218 -0.045662
0.338093 0.246184 0.495727 0.918015 -0.151555 -0.366441
0.259298 0.452473 0.062156 0.996974 -0.030134 -0.071653
0.331671 0.392449 0.685643 0.746784 0.222831 0.626626
0.359368 0.141082 0.655588 0.852759 -0.506972 -0.125625
0.201082 0.209950 0.778156 -0.649500 0.078883 0.756259
0.389753 0.289267 0.631372 0.974707 0.212843 -0.068143
0.259189 0.460990 0.178598 0.998416 0.018233 0.053233
0.256623 0.458206 0.662035 0.052064 0.974842 0.216729
0.247415 0.215197 0.493025 0.004687 -0.850343 -0.526209
0.269869 0.385359 0.245881 0.977061 0.161970 -0.138267
0.099351 0.282912 0.861611 -0.871629 0.233091 0.431197
0.293703 0.114657 0.635713 0.182757 -0.865518 -0.466346
0.264754 0.366862 0.254969 0.999008 0.016253 -0.041462
0.125795 0.174610 0.697399 -0.860968 0.007122 0.508610
0.373931 0.296715 0.825918 0.427328 -0.020013 0.903875
0.149414 0.396241 0.699405 -0.787358 0.613206 -0.063607
0.217416 0.383574 0.683594 -0.464250 -0.154611 -0.872105
0.260883 0.324187 0.320318 0.435217 0.826592 -0.356836
0.241127 0.335098 0.361420 0.999952 0.005112 0.008386
0.260811 0.440914 0.089686 0.999221 0.014517 -0.036685
0.263337 0.311282 0.133090 0.996507 0.067781 -0.048790
0.286501 0.323501 0.352392 0.894564 -0.225390 -0.385946
0.134723 0.201689 0.570263 -0.854434 -0.260885 -0.449312
0.264231 0.410021 0.282576 0.583038 -0.740873 0.333429
0.269629 0.354685 0.369373 -0.998326 0.057634 -0.004835
0.256142 0.497320 0.087702 0.270062 0.961919 0.042164
0.132741 0.180963 0.585955 -0.752741 -0.462734 -0.468250
0.091008 0.158554 0.762551 -0.650301 0.164691 -0.741610
0.295519 0.229999 0.773094 0.722743 0.393146 0.568400
0.242620 0.293237 0.363981 -0.009897 0.384115 -0.923232
0.280450 0.354872 0.309961 0.989577 0.056607 -0.132411
0.266529 0.295856 0.271393 -0.015330 -0.977701 -0.209443
0.163862 0.272784 0.649707 0.646731 -0.174758 -0.742428
0.275466 0.225108 0.732921 -0.657852 -0.237642 -0.714672
0.228518 0.284921 0.468029 -0.867749 -0.478466 0.134470
0.078593 0.214531 0.777376 -0.983199 -0.157567 -0.092151
0.376357 0.275569 0.855542 0.899014 0.181226 0.398662
0.234646 0.419982 0.849930 -0.010591 0.836033 0.548578
0.148650 0.268723 0.751185 -0.664266 0.022110 -0.747170
0.247973 0.357220 0.364696 -0.920449 0.329834 -0.209723
0.382914 0.192501 0.759865 0.975452 -0.163517 0.147500
0.156199 0.382649 0.542077 -0.890187 0.384168 -0.244912
0.265043 0.359528 0.198469 0.981108 0.097616 -0.167029
0.312315 0.367046 0.650598 -0.589291 -0.034531 -0.807182
0.280253 0.361352 0.309587 0.987282 0.100042 -0.123556
0.161530 0.169400 0.784951 -0.063838 -0.997616 0.026220
0.132396 0.163506 0.885690 -0.672554 -0.539806 0.506242
0.192156 0.139523 0.592465 -0.092943 -0.808912 -0.580536
0.240422 0.320808 0.282979 -0.762970 0.623514 -0.170608
0.212540 0.365233 0.368290 -0.934775 0.029766 -0.353992
0.247094 0.440435 0.700751 -0.241215 0.949340 0.201419
0.135611 0.356240 0.586038 -0.639488 0.183602 -0.746556
0.151989 0.102399 0.799099 -0.537769 -0.841490 0.051948
0.354741 0.250027 0.636450 -0.496502 -0.143301 -0.856125
0.128436 0.354099 0.724836 -0.923647 0.366795 -0.111073
0.345600 0.105821 0.775444 0.054981 -0.916856 -0.395413
0.075454 0.248643 0.782139 -0.992386 0.027890 -0.119971
0.154985 0.283578 0.752230 -0.637932 0.602113 -0.480107
0.264513 0.408034 0.679447 0.936335 0.156960 -0.314072
0.103204 0.170289 0.727949 -0.937497 -0.129048 -0.323182
0.242940 0.423267 0.729923 -0.046763 0.908695 -0.414833
0.205085 0.389203 0.392720 -0.876333 0.401600 -0.266003
0.175984 0.430877 0.788007 -0.518229 0.842608 0.146463
0.261859 0.387285 0.191898 0.998702 -0.002554 -0.050867
0.247680 0.438440 0.240114 0.030995 -0.784380 0.619506
0.240345 0.220075 0.334721 -0.413081 -0.305866 -0.857794
0.277869 0.403681 0.337330 0.912095 0.382247 -0.148220
0.249382 0.341224 0.836603 0.454322 -0.657973 0.600553
0.044288 0.102029 0.769387 -0.978929 0.195972 -0.057381
0.132863 0.227464 0.851228 0.685027 0.657687 0.313346
0.253355 0.440598 0.795488 0.117966 0.961137 0.249598
0.253531 0.107715 0.881188 0.084531 -0.828154 0.554090
0.162670 0.193036 0.548986 -0.489186 -0.652225 -0.579051
0.238882 0.244166 0.133413 -0.996666 -0.081244 -0.007464
0.314276 0.174552 0.838968 -0.247536 -0.938957 0.238927
0.170641 0.411551 0.548016 -0.813314 0.558758 -0.162199
0.337630 0.117184 0.651743 0.556688 -0.774876 -0.299442
0.198235 0.291319 0.767976 -0.193977 0.486696 0.851763
0.228664 0.268269 0.424827 -0.958531 -0.274450 0.076785
0.259839 0.284727 0.495895 0.258745 -0.923770 0.282313
0.230463 0.444649 0.787467 -0.051029 0.979137 0.196690
0.107402 0.278435 0.672029 -0.951221 0.232628 0.202639
0.153878 0.180451 0.663122 0.624025 -0.311394 -0.716678
0.212306 0.357772 0.750967 -0.936958 0.156225 0.312577
0.291482 0.215111 0.781923 0.673889 0.434711 0.597410
0.148274 0.204751 0.867457 0.959120 0.248883 -0.134707
0.091705 0.174641 0.792047 -0.654137 0.538621 0.531029
0.117858 0.175693 0.772260 0.000288 0.354841 -0.934927
0.040537 0.097405 0.781995 -0.983715 0.144375 0.107059
0.292757 0.395345 0.664494 -0.572001 0.014972 -0.820117
0.257240 0.290643 0.221035 0.991433 0.076303 0.106010
0.260343 0.409784 0.087808 0.998186 0.020105 -0.056758
0.347353 0.122169 0.714463 0.746495 -0.662214 -0.064944
0.380657 0.220421 0.846889 0.922444 -0.136397 0.361237
0.304051 0.304482 0.832425 0.986077 0.019344 0.165163
0.157395 0.354871 0.685782 -0.800591 0.264539 0.537656
0.273722 0.306618 0.231048 0.962077 -0.217740 -0.164310
0.193768 0.446844 0.725992 -0.491762 0.870531 0.018614
0.225107 0.338947 0.325163 -0.964836 0.164893 -0.204700
0.135265 0.159702 0.712882 -0.826799 -0.029000 0.561750
0.291584 0.444551 0.531019 0.648923 0.756437 -0.081864
0.103030 0.257375 0.681324 -0.975582 0.096343 -0.197375
0.373773 0.222299 0.620375 0.889274 -0.150026 -0.432068
0.227829 0.363972 0.586054 -0.993214 -0.109132 -0.040207
0.241563 0.392922 0.368321 -0.405799 -0.887369 -0.218869
0.263653 0.424504 0.649711 0.969299 0.244310 -0.027799
0.106535 0.107078 0.788369 0.719397 -0.689669 0.082616
0.366050 0.187968 0.859786 0.857421 -0.305736 0.413951
0.373961 0.311763 0.841931 0.413750 -0.910310 -0.012151
0.152580 0.365249 0.867175 -0.585305 0.594995 0.550817
0.155453 0.357050 0.496432 -0.938665 0.077606 -0.335984
0.337365 0.119817 0.821826 -0.086251 -0.916822 0.389870
0.258601 0.244170 0.051997 0.297306 0.191455 -0.935390
0.046937 0.107258 0.785623 -0.962645 0.249555 0.105060
0.228742 0.497552 0.567167 -0.828984 0.553171 -0.082380
0.293150 0.292082 0.799789 0.910317 -0.096205 -0.402577
0.176367 0.278788 0.737285 -0.941644 0.237129 0.238905
0.268745 0.351978 0.281243 -0.940880 0.103338 0.322594
0.342898 0.355264 0.575537 0.934934 -0.170471 -0.311188
0.274571 0.384338 0.311931 0.955026 0.252824 -0.154938
0.274618 0.434064 0.404126 0.540354 0.810611 -0.225670
0.413924 0.095359 0.829889 0.826617 -0.154125 0.541249
0.232410 0.380173 0.288113 -0.939419 0.182329 -0.290254
0.228947 0.341224 0.854646 0.275057 -0.656131 0.702735
0.249031 0.251393 0.755143 0.299883 -0.251460 -0.920238
0.225868 0.341224 0.906685 -0.331929 0.505672 0.796316
0.238802 0.369967 0.352151 -0.025830 0.668229 0.743507
0.097391 0.193574 0.714124 -0.977777 -0.205050 -0.043660
0.328234 0.197838 0.808125 0.783924 0.417758 -0.459284
0.079540 0.266605 0.830698 -0.369126 -0.914033 -0.168196
0.374098 0.070024 0.779189 -0.502341 -0.857459 -0.111438
0.228839 0.500964 0.563495 -0.770506 0.633924 -0.066794
0.356342 0.357445 0.667912 0.802024 0.277109 0.529120
0.340024 0.299661 0.507994 0.907339 0.230097 -0.351841
0.207980 0.080670 0.802123 -0.216515 -0.973220 0.077229
0.157823 0.347488 0.497712 -0.945704 0.046028 -0.321754
0.267857 0.347436 0.325443 -0.984422 0.175465 -0.011210
0.304277 0.351369 0.409929 0.957634 0.072362 -0.278749
0.266542 0.424228 0.226181 0.956276 0.288286 0.049266
0.191822 0.134339 0.599655 -0.078425 -0.826969 -0.556752
0.340745 0.331013 0.877281 0.713716 0.470770 0.518638
0.258263 0.239856 0.060226 0.980169 0.082068 -0.180370
0.132487 0.376589 0.809587 -0.799505 0.577880 0.163848
0.263148 0.098545 0.658189 0.107347 -0.933770 -0.341394
0.139029 0.241172 0.822256 0.796032 0.362979 0.484334
0.170288 0.428383 0.756712 -0.705500 0.708322 -0.023453
0.148940 0.105103 0.808493 -0.554661 -0.823744 0.117461
0.236711 0.406820 0.327644 0.945917 -0.276437 -0.169776
0.284026 0.089389 0.736295 0.252484 -0.965539 -0.063130
0.244203 0.244093 0.435708 -0.018065 -0.928425 -0.371081
0.329127 0.206447 0.677848 -0.611312 -0.290910 -0.735982
0.210965 0.382155 0.676233 -0.163295 -0.153484 -0.974565
0.333536 0.171101 0.567312 0.444565 -0.735138 -0.511795
0.099778 0.094788 0.749361 0.355538 -0.643415 -0.677946
0.335316 0.219884 0.667008 -0.598324 -0.260542 -0.757711
0.117665 0.354933 0.807175 -0.840817 0.527503 0.121523
0.238592 0.322521 0.276753 -0.964802 -0.245445 -0.094410
0.266618 0.445524 0.536755 0.960155 0.221415 -0.170519
0.193823 0.113362 0.634286 -0.070596 -0.876245 -0.476667
0.087134 0.278167 0.839442 -0.041423 0.991277 -0.125114
0.349204 0.272580 0.822781 0.818178 0.574916 0.007561
0.251132 0.330000 0.582884 0.048897 -0.975704 0.213565
0.137308 0.380957 0.710621 -0.846038 0.532798 0.018582
0.237808 0.196956 0.325479 -0.759461 -0.539107 -0.364120
0.110711 0.206523 0.625649 -0.062726 -0.345572 -0.936294
0.280839 0.197394 0.827474 0.920307 -0.352833 0.168951
0.378742 0.202510 0.841844 0.914195 -0.225599 0.336678
0.226239 0.244592 0.732430 0.671444 -0.144535 -0.726824
0.240001 0.332078 0.299624 0.799632 -0.209847 0.562630
0.260231 0.466128 0.141515 0.932084 0.340661 0.123168
0.108216 0.244977 0.813087 -0.856555 0.507318 0.094564
0.189327 0.245857 0.461090 -0.651602 -0.588709 -0.478369
0.244279 0.207036 0.347120 -0.438782 -0.875885 -0.200739
0.265151 0.419258 0.592892 0.997589 0.066937 -0.018334
0.318541 0.101456 0.754985 0.409536 -0.911701 -0.032887
0.219237 0.375243 0.328583 -0.940353 0.145506 -0.307514
0.329399 0.268760 0.723775 0.828860 0.166176 0.534207
0.138752 0.366337 0.660216 -0.790430 0.240745 0.563260
0.279872 0.178324 0.741412 -0.647169 -0.252699 -0.719246
0.081337 0.265658 0.834338 -0.150914 -0.984561 -0.088681
0.050189 0.060594 0.742591 -0.371756 -0.754579 -0.540748
0.250409 0.472220 0.046062 -0.220282 0.619307 -0.753615
0.226208 0.392234 0.800139 0.262216 0.653616 0.709950
0.256526 0.326371 0.317181 -0.854069 0.518101 -0.046226
0.300709 0.345768 0.407177 0.953530 0.049139 -0.297265
0.253151 0.243619 0.438893 0.098300 -0.914490 -0.392485
0.290058 0.193863 0.947750 0.331650 -0.397413 0.855611
0.186663 0.095290 0.686218 -0.246502 -0.958798 -0.141222
0.165020 0.154605 0.909266 -0.391157 -0.771750 0.501397
0.332330 0.391436 0.574957 0.866647 0.475154 -0.152161
0.268013 0.344778 0.344024 0.987512 -0.138337 -0.075385
0.089033 0.183638 0.815043 -0.926216 -0.327764 0.186265
0.216788 0.134480 0.786410 -0.258053 -0.851768 0.455961
0.133703 0.141507 0.633245 -0.677025 -0.667031 -0.310978
0.265911 0.428165 0.213751 0.969968 0.241015 0.032763
0.319686 0.318884 0.443248 0.856667 0.208736 -0.471753
0.231576 0.100634 0.870308 -0.049488 -0.864523 0.500150
0.238341 0.433110 0.279559 0.971231 0.097803 -0.217128
0.257881 0.204124 0.341335 0.626036 -0.700846 -0.341898
0.339277 0.270583 0.500057 0.948040 -0.043744 -0.315130
0.388350 0.213604 0.671592 0.958844 -0.044363 0.280447
0.334284 0.310005 0.642250 -0.323064 0.048283 -0.945145
0.245500 0.341224 0.808047 0.265159 -0.764835 0.587126
0.262267 0.397606 0.198637 0.995274 -0.076708 -0.059540
0.302467 0.139631 0.732061 -0.635232 -0.533862 -0.558096
0.109699 0.226828 0.886404 -0.845073 -0.061178 0.531139
0.034050 0.071380 0.741649 -0.922262 -0.268294 -0.278301
0.209919 0.320729 0.368284 -0.947250 0.041138 -0.317844
0.118264 0.215787 0.882446 -0.727184 0.649338 0.222629
0.150044 0.204148 0.550949 -0.709370 -0.442733 -0.548436
0.171640 0.209721 0.960302 -0.475960 -0.051627 0.877950
0.219788 0.342676 0.909082 -0.546040 0.620666 0.562684
0.211484 0.092591 0.677952 -0.107245 -0.962624 -0.248703
0.262300 0.290008 0.115377 0.993213 0.067431 -0.094771
0.343832 0.246928 0.910731 0.775683 0.025535 0.630606
0.209767 0.321882 0.691371 0.521908 -0.176262 -0.834592
0.307480 0.428810 0.705024 0.718481 0.695547 -0.000002
0.275993 0.210119 0.844302 0.092317 -0.190716 0.977295
0.180027 0.251935 0.674873 0.655906 -0.218166 -0.722627
0.338197 0.239956 0.498058 0.915852 -0.164539 -0.366255
0.252655 0.241901 0.413846 0.024616 -0.948550 0.315668
0.263552 0.330180 0.307633 -0.868040 0.486271 -0.100233
0.311282 0.095338 0.777976 0.383449 -0.923046 -0.030877
0.209984 0.267542 0.706575 0.696228 -0.208257 -0.686947
0.266979 0.304422 0.719680 -0.350956 -0.662948 -0.661309
0.262128 0.322380 0.289643 -0.767040 0.602003 -0.221907
0.266305 0.419267 0.333936 -0.203253 0.978671 0.029851
0.217708 0.408131 0.861737 -0.145857 0.779054 0.609754
0.221538 0.198616 0.522754 -0.029711 -0.842575 -0.537760
0.222996 0.290325 0.715949 0.679564 -0.267466 -0.683122
0.261094 0.365193 0.113898 0.998720 -0.024080 -0.044475
0.142468 0.317372 0.678153 -0.872673 0.271331 0.405983
0.367401 0.353586 0.636272 0.887042 0.458156 -0.056999
0.199421 0.230661 0.948672 0.038935 0.989575 -0.138655
0.310147 0.301639 0.404331 0.922379 -0.069687 -0.379948
0.260546 0.437316 0.708044 0.637936 0.756786 0.142522
0.349617 0.218859 0.882734 0.901082 -0.423073 0.095193
0.253126 0.427480 0.418622 0.312340 0.934258 -0.172066
0.259325 0.479951 0.047925 -0.570347 -0.710166 -0.412758
0.107189 0.230483 0.659666 -0.859855 0.144265 0.489731
0.314451 0.102834 0.668787 0.345437 -0.911775 -0.222124
0.247792 0.453230 0.672733 0.038771 0.957983 0.284194
0.183100 0.327308 0.657832 0.653151 -0.125494 -0.746757
0.207460 0.234691 0.454915 -0.105602 -0.866829 -0.487295
0.315904 0.345513 0.652748 -0.615436 -0.092849 -0.782699
0.147849 0.240913 0.933125 -0.650675 0.161571 0.741968
0.228349 0.303680 0.395510 -0.998482 0.030511 -0.045861
0.203271 0.291763 0.950765 -0.224786 0.320529 0.920181
0.327817 0.404762 0.662407 0.780001 0.625321 -0.023906
0.353088 0.352120 0.817688 0.846773 0.500797 0.179383
0.114361 0.288830 0.656181 -0.950110 0.296610 0.096507
0.326595 0.263734 0.928649 0.663557 0.137897 0.735307
0.244065 0.340512 0.213275 -0.769131 -0.634346 0.077732
0.248488 0.374940 0.265516 -0.777916 0.187728 0.599671
0.160011 0.207697 0.795968 0.227558 0.967898 0.106731
0.262506 0.446502 0.770667 0.228059 0.957307 0.177630
0.261754 0.329648 0.179837 0.146166 -0.986010 -0.080128
0.146263 0.390047 0.679131 -0.794034 0.599171 -0.102492
0.255969 0.414153 0.304979 -0.585767 0.802479 0.113602
0.407897 0.117588 0.838256 0.845030 0.098458 0.525576
0.282186 0.294953 0.784753 0.891846 0.445927 -0.075887
0.378899 0.178827 0.765054 0.957812 -0.287253 -0.009008
0.279841 0.356185 0.291545 0.989563 0.072508 -0.124531
0.090462 0.197209 0.836355 -0.919201 -0.271080 0.285631
0.135638 0.231220 0.693648 -0.897291 0.105923 0.428544
0.256420 0.421297 0.755983 0.312986 0.323138 0.893097
0.256690 0.277784 0.482607 0.103913 -0.923978 0.368057
0.330294 0.185078 0.890438 0.549756 -0.796078 0.253038
0.261785 0.349838 0.812615 -0.311541 0.228588 0.922328
0.278087 0.185310 0.911772 -0.285462 -0.326658 -0.901003
0.307936 0.190093 0.779616 0.932724 0.336780 -0.128862
0.265621 0.280915 0.378996 0.997973 -0.038839 -0.050405
0.137605 0.208294 0.702323 -0.871731 0.060516 0.486234
0.343643 0.209012 0.895557 0.837648 -0.523461 0.155994
0.267246 0.300644 0.307709 -0.766379 -0.549612 0.332550
0.310413 0.305062 0.927017 0.533234 0.405865 0.742250
0.309401 0.275591 0.422075 0.857314 -0.281862 -0.430774
0.378983 0.072547 0.832260 -0.441187 -0.594203 0.672515
0.255324 0.411463 0.298604 -0.796050 0.555397 -0.240498
0.265403 0.428672 0.309732 0.893791 0.446150 -0.045687
0.206195 0.183745 0.545151 -0.078283 -0.792187 -0.605237
0.260964 0.200885 0.839586 -0.023211 -0.190796 0.981355
0.415399 0.038298 0.765660 0.168781 -0.895083 -0.412721
0.194802 0.376596 0.780236 -0.937153 0.061324 -0.343489
0.207512 0.200383 0.937426 0.169599 -0.537022 -0.826343
0.265880 0.415664 0.314457 0.969422 -0.209849 -0.127215
0.224129 0.422079 0.843693 -0.105033 0.850306 0.515701
0.236245 0.188510 0.533776 -0.071287 -0.796585 -0.600309
0.236466 0.353881 0.247021 -0.985986 0.121969 -0.113823
0.141887 0.117555 0.692513 -0.642985 -0.750196 -0.154194
0.235944 0.362368 0.871655 -0.205739 0.743730 0.636032
0.132677 0.146229 0.789678 0.625232 -0.697213 0.350684
0.263308 0.304536 0.135016 0.996521 0.069623 -0.045814
0.160380 0.120883 0.866620 -0.485443 -0.735976 0.471894
0.216932 0.307730 0.775111 -0.884197 -0.098344 -0.456644
0.269856 0.294324 0.270974 0.835988 -0.544325 0.069524
0.325155 0.259984 0.852864 -0.703956 0.604830 0.372325
0.243083 0.266880 0.120969 -0.937084 -0.313788 0.153003
0.364320 0.186257 0.599633 0.929202 -0.319877 -0.185101
0.397054 0.293576 0.834334 -0.895117 0.080659 0.438474
0.101026 0.290149 0.860216 -0.863161 0.274582 0.423743
0.260425 0.237698 0.841837 -0.283431 0.120046 0.951449
0.265447 0.355331 0.581437 0.999553 -0.006558 -0.029176
0.127261 0.175461 0.774188 0.049177 0.225984 -0.972889
0.258741 0.370837 0.837660 0.673651 0.270354 0.687824
0.252346 0.288834 0.087864 -0.900549 -0.124220 -0.416630
0.194940 0.378881 0.724278 -0.763984 0.365411 0.531792
0.302844 0.336209 0.816635 0.990579 0.135702 0.018388
0.139338 0.384239 0.710478 -0.836165 0.548085 0.020784
0.388529 0.204957 0.803089 0.975236 -0.204382 0.084516
0.234891 0.080139 0.817249 -0.033360 -0.977055 0.210360
0.130166 0.280050 0.909051 -0.723141 0.227437 0.652180
0.128653 0.250849 0.583972 -0.904688 -0.022842 -0.425461
0.338009 0.261574 0.651978 -0.485211 -0.116124 -0.866652
0.259094 0.280275 0.063554 0.978373 0.043194 -0.202290
0.263364 0.240533 0.113950 0.956745 -0.290744 0.010355
0.292251 0.166474 0.730882 -0.648204 -0.318854 -0.691494
0.279085 0.421192 0.354748 0.644965 0.744193 -0.173772
0.311438 0.346346 0.429904 0.961290 0.023719 -0.274514
0.263607 0.298364 0.259643 -0.009793 -0.978374 -0.206611
0.169015 0.168578 0.779300 -0.144624 -0.989358 -0.015941
0.233537 0.369741 0.310240 -0.945224 0.080840 -0.316253
0.392432 0.072846 0.764136 -0.132820 -0.685553 -0.715804
0.242591 0.430315 0.826202 0.067257 0.902033 0.426395
0.265928 0.413898 0.321540 0.565589 -0.793971 -0.222979
0.276883 0.319904 0.772591 0.973258 -0.008593 -0.229552
0.116647 0.183288 0.632480 -0.915823 -0.301002 -0.265832
0.117500 0.227634 0.859864 -0.226968 0.837703 0.496728
0.176360 0.182110 0.689681 0.662293 -0.314621 -0.679987
0.248799 0.359440 0.330908 -0.992169 0.042161 0.117569
0.256877 0.493477 0.049062 0.504964 0.830740 -0.234270
0.193329 0.237178 0.457378 -0.431428 -0.742082 -0.513015
0.161321 0.161618 0.918119 -0.368143 -0.914836 0.165968
0.235224 0.344713 0.808026 0.375013 0.109828 0.920491
0.259374 0.344593 0.813271 0.849418 -0.356427 0.389164
0.265444 0.420242 0.581693 0.996077 0.087981 -0.009488
0.143307 0.190886 0.562881 -0.639301 -0.514678 -0.571316
0.195741 0.120551 0.622621 -0.047974 -0.863558 -0.501962
0.314113 0.100373 0.708663 0.396314 -0.916657 -0.051717
0.260233 0.304777 0.305756 -0.785190 -0.491394 0.376841
0.247904 0.249669 0.178447 -0.298005 -0.911971 0.281962
0.227952 0.121566 0.616728 -0.080654 -0.860887 -0.502362
0.259743 0.412612 0.085218 0.998888 0.006733 -0.046667
0.274761 0.087820 0.734618 0.213091 -0.974283 -0.073248
0.099189 0.208705 0.689091 -0.977144 -0.170458 -0.127022
0.375977 0.071009 0.799629 -0.580535 -0.792904 0.185157
0.343249 0.118663 0.732645 0.707662 -0.704957 -0.047442
0.154075 0.135643 0.697178 0.277840 -0.756845 -0.591600
0.361508 0.332796 0.621671 0.040498 0.106646 -0.993472
0.346478 0.210519 0.657127 -0.585357 -0.266364 -0.765772
0.363745 0.150667 0.744117 0.852529 -0.521680 -0.032323
0.275299 0.451348 0.734259 0.412733 0.906917 0.084578
0.102202 0.185097 0.702359 -0.964468 -0.239953 -0.110560
0.246704 0.483637 0.027972 0.013161 0.039950 -0.999115
0.187119 0.356165 0.428661 -0.934529 0.012390 -0.355670
0.262048 0.271043 0.132120 0.918697 0.388947 -0.068677
0.228673 0.278987 0.834307 0.410479 0.191509 0.891533
0.244633 0.380271 0.349477 -0.103989 0.680447 0.725382
0.259919 0.288550 0.503230 0.240840 -0.927096 0.287209
0.260645 0.324510 0.131195 0.998459 0.026218 -0.048910
0.090493 0.282367 0.741568 -0.976118 0.216649 -0.016011
0.329170 0.401809 0.675615 0.786768 0.606378 0.115332
0.277655 0.223959 0.954356 0.336439 0.418201 0.843751
0.258570 0.452978 0.078618 0.999141 0.024949 -0.033089
0.261495 0.260008 0.208784 0.320291 -0.906249 0.275911
0.188994 0.091403 0.722286 -0.256820 -0.959772 -0.113495
0.266804 0.408002 0.217082 0.944094 -0.320124 -0.078786
0.316303 0.418152 0.630222 0.761883 0.645319 -0.055658
0.390269 0.310642 0.842039 -0.535165 -0.840576 -0.083843
0.347813 0.160507 0.871754 0.757917 -0.456248 0.466261
0.185620 0.159074 0.917541 0.092712 -0.903851 -0.417682
0.141686 0.377593 0.607564 -0.857712 0.451689 -0.245576
0.269573 0.354443 0.367980 -0.998285 0.058338 -0.004826
0.225490 0.258365 0.843822 0.293555 0.156813 0.942993
0.181636 0.324280 0.723316 -0.792723 0.299902 0.530706
0.088371 0.197024 0.752142 -0.976294 -0.201963 -0.077859
0.228515 0.285259 0.460797 -0.881328 -0.453176 0.133765
0.303478 0.168436 0.559756 0.176300 -0.733086 -0.656889
0.328611 0.284485 0.655976 -0.325147 0.026300 -0.945298
0.297606 0.304367 0.772226 0.363753 0.918889 0.152731
0.328146 0.363541 0.697928 0.757361 0.209688 0.618413
0.216614 0.149978 0.746903 0.690644 -0.371416 -0.620533
0.359064 0.290526 0.606352 0.870950 0.258873 -0.417650
0.249927 0.413445 0.296938 -0.964647 0.061086 -0.256368
0.245781 0.459803 0.083144 0.579595 0.707571 0.404242
0.139611 0.277743 0.547634 -0.948891 0.066066 -0.308613
0.283818 0.410052 0.375419 0.883211 0.443459 -0.152586
0.338664 0.347648 0.586062 0.833796 -0.330893 -0.441921
0.144838 0.396181 0.748089 -0.810893 0.583770 -0.040799
0.241226 0.412389 0.521991 0.081430 0.938403 -0.335812
0.137399 0.153767 0.795773 0.495101 -0.677567 0.543855
0.227149 0.408641 0.628017 -0.998596 0.040258 -0.034431
0.244021 0.364631 0.261301 -0.861987 0.216766 0.458248
0.228209 0.319765 0.407824 -0.995916 0.050215 -0.075033
0.217616 0.360178 0.370154 -0.924015 -0.044699 -0.379735
0.239518 0.407804 0.434597 -0.542649 0.665879 -0.511994
0.391715 0.272938 0.790290 0.971148 0.230984 -0.059319
0.257498 0.205255 0.503621 0.013852 -0.833330 -0.552602
0.236423 0.382759 0.345033 0.296373 0.688671 0.661736
0.189399 0.396904 0.455062 -0.830756 0.464702 -0.306426
0.166915 0.272818 0.782977 0.387155 0.283884 0.877223
0.194379 0.316311 0.798044 -0.892666 -0.077580 -0.443993
0.376693 0.300659 0.745072 0.932089 0.352989 -0.081291
0.272394 0.454325 0.589034 0.616855 0.787039 0.007750
0.276996 0.288511 0.334298 0.960526 -0.174824 -0.216395
0.155054 0.386012 0.556518 -0.873038 0.430766 -0.228573
0.249423 0.409568 0.312770 -0.806074 -0.560038 -0.191315
0.296510 0.256527 0.764346 0.770904 0.245638 0.587681
0.230923 0.510394 0.483899 -0.756125 0.639043 -0.141063
0.187050 0.325306 0.729537 -0.787080 0.308342 0.534258
0.269352 0.320509 0.829778 -0.340222 0.261796 0.903168
0.110679 0.277693 0.658579 -0.941222 0.234495 0.243132
0.248610 0.292861 0.511684 -0.213878 -0.937848 0.273308
0.237572 0.080242 0.818460 -0.014488 -0.974950 0.221952
0.277611 0.332273 0.279824 0.986004 -0.107247 -0.127649
0.096403 0.175115 0.796590 -0.428965 0.430449 0.794168
0.236936 0.304224 0.332756 -0.194256 -0.937980 0.287154
0.227634 0.385840 0.523153 -0.986040 0.090514 -0.139760
0.228650 0.269071 0.397748 -0.999818 -0.018900 -0.002612
0.188846 0.277678 0.678384 0.678267 -0.186729 -0.710694
0.097036 0.135246 0.811163 -0.003913 0.085241 0.996353
0.268777 0.329145 0.710545 -0.504117 -0.288540 -0.814009
0.216036 0.353958 0.826983 -0.423161 0.267833 0.865564
0.120245 0.165721 0.690059 -0.895925 -0.150800 0.417826
0.121585 0.317369 0.666846 -0.928642 0.370966 -0.002923
0.239565 0.448545 0.238233 -0.994012 -0.086400 -0.066890
0.335910 0.204661 0.734867 0.789928 0.105411 0.604071
0.327294 0.247831 0.879234 -0.421654 0.824652 0.377038
0.314005 0.253234 0.432449 0.808182 -0.377246 -0.452248
0.247211 0.341224 0.692622 0.267762 -0.922431 -0.278253
0.243519 0.348000 0.385864 0.033610 0.337779 -0.940625
0.103294 0.164082 0.833183 -0.831809 -0.475268 0.286731
0.132004 0.118411 0.774959 -0.557657 -0.826181 -0.080270
0.230312 0.341224 0.818777 0.193111 -0.793608 0.576971
0.236877 0.199908 0.326661 -0.779630 -0.491222 -0.388430
0.228847 0.246972 0.367812 -0.988805 -0.137388 -0.058215
0.093766 0.304895 0.830267 -0.896544 0.362707 0.254266
0.265173 0.237031 0.959719 0.203070 0.204982 0.957468
0.272484 0.430205 0.710574 0.695953 0.717465 0.029887
0.265923 0.246223 0.355766 0.971874 -0.162072 -0.170861
0.168162 0.233861 0.496151 -0.706197 -0.509111 -0.492028
0.250413 0.394013 0.260654 0.970295 -0.236426 0.051295
0.306401 0.298302 0.395577 0.896926 -0.166671 -0.409566
0.243420 0.391859 0.337681 -0.940198 -0.302063 -0.157433
0.249186 0.140453 0.919949 0.090273 -0.738107 0.668617
0.184599 0.358059 0.436588 -0.934030 0.019729 -0.356648
0.214503 0.369086 0.354307 -0.938709 0.075768 -0.336281
0.138866 0.326861 0.610023 -0.106414 0.068255 -0.991977
0.239321 0.380345 0.384511 -0.900768 -0.387967 -0.195190
0.260294 0.476512 0.040306 -0.175188 0.844908 -0.505410
0.313574 0.379275 0.645664 -0.578030 -0.010411 -0.815949
0.378151 0.310048 0.776911 0.919235 0.389511 -0.057346
0.260804 0.277155 0.183297 0.971092 -0.205056 0.122196
0.146107 0.208688 0.837013 0.809516 0.570346 0.139246
0.228620 0.272564 0.399108 -0.999784 -0.020604 -0.002654
0.246775 0.471013 0.202932 -0.413102 0.864927 0.285040
0.264096 0.376489 0.131217 0.998056 -0.049834 -0.037423
0.137063 0.272043 0.554805 -0.897573 -0.006661 -0.440816
0.265117 0.338944 0.538635 0.999797 -0.019466 -0.005138
0.141517 0.186723 0.568160 -0.626322 -0.530700 -0.571033
0.097175 0.242844 0.634115 -0.991836 -0.035800 0.122395
0.347542 0.294696 0.542755 0.897457 0.231476 -0.375486
0.275828 0.455491 0.597206 0.513026 0.857938 -0.027337
0.262225 0.291188 0.296986 0.301789 0.906751 -0.294493
0.267202 0.284605 0.837081 -0.196955 0.239295 0.950761
0.343981 0.179867 0.566254 0.650948 -0.585471 -0.483209
0.229465 0.313676 0.372200 -0.817589 0.135996 -0.559512
0.360932 0.332722 0.833118 0.845743 0.471734 0.249372
0.242462 0.440628 0.154148 -0.997813 0.011506 0.065096
0.104480 0.300395 0.613298 -0.948885 0.211225 -0.234522
0.376477 0.193951 0.651763 0.100565 -0.539982 -0.835647
0.240126 0.306005 0.312389 -0.888465 -0.401733 0.221900
0.176499 0.322449 0.717653 -0.843826 0.370848 0.387851
0.327964 0.106578 0.804416 0.407200 -0.907620 0.102044
0.260799 0.443532 0.113585 0.999789 -0.007076 -0.019309
0.034064 0.071689 0.742219 -0.925843 -0.266064 -0.268375
0.274778 0.397067 0.785826 0.255295 0.733240 0.630224
0.366791 0.335103 0.794044 0.903210 0.427745 -0.035283
0.168845 0.268989 0.741223 -0.853725 -0.230614 -0.466873
0.296479 0.283839 0.848308 0.063642 0.160143 0.985040
0.237355 0.296312 0.116707 -0.999271 0.012220 -0.036162
0.193359 0.216590 0.496093 -0.339627 -0.789316 -0.511501
0.312759 0.236415 0.459816 0.468102 -0.710876 -0.524916
0.075285 0.276593 0.821124 -0.994319 -0.061514 -0.086867
0.137057 0.375696 0.663946 -0.843540 0.536175 0.030940
0.313290 0.144525 0.896492 0.502617 -0.618346 0.604173
0.266368 0.384912 0.269063 0.999558 0.019556 -0.022394
0.262090 0.487458 0.111992 0.950630 0.306010 0.051584
0.281565 0.372690 0.888814 0.326080 0.649408 0.686979
0.388918 0.287745 0.828670 -0.470679 0.453184 0.757024
0.266206 0.213393 0.354987 0.859527 -0.425895 -0.282535
0.329334 0.241842 0.820793 -0.284049 -0.884740 -0.369530
0.302848 0.269119 0.844220 0.962318 -0.112305 0.247650
0.156770 0.205446 0.950428 -0.584199 -0.231678 0.777842
0.378826 0.175307 0.671736 0.909727 -0.401265 -0.106695
0.262564 0.257883 0.095147 0.991104 -0.093667 -0.094553
0.359707 0.287492 0.878677 0.824412 0.237506 0.513747
0.264104 0.271463 0.732392 -0.441648 -0.257992 -0.859295
0.220615 0.193552 0.948426 -0.016482 -0.958902 -0.283258
