0.192941 0.426781 0.459225 0.893730 -0.343404 -0.288652
0.222777 0.300647 0.556102 0.679231 -0.362632 -0.638077
0.826850 0.420888 0.405585 0.552471 -0.265740 -0.790036
0.150411 0.268206 0.480658 0.871861 -0.387491 -0.299516
0.871624 0.274458 0.405585 0.588379 -0.585023 -0.558174
0.501961 0.206617 0.602239 -0.519736 0.326151 -0.789620
0.909268 0.253966 0.400527 0.484988 -0.377837 0.788686
0.815813 0.357829 0.422061 -0.860284 -0.348602 0.372005
0.376244 0.145801 0.638145 -0.167483 0.473153 -0.864914
0.260942 0.587200 0.405585 -0.442771 -0.550343 -0.707868
0.126997 0.234120 0.486806 0.055499 -0.422431 -0.904694
0.730263 0.288660 0.478909 -0.561346 0.217991 -0.798355
0.167593 0.133493 0.541059 0.749912 0.446719 -0.487928
0.601360 0.443567 0.302016 -0.399386 -0.630287 0.665755
0.219952 0.069106 0.486358 0.440291 -0.848725 -0.292932
0.134771 0.263270 0.388227 0.917719 -0.389495 0.078012
0.628707 0.198891 0.464705 -0.564887 0.709620 -0.421119
0.215579 0.090374 0.266626 0.650805 0.181304 0.737280
0.339549 0.316481 0.192806 0.230322 -0.313215 0.921329
0.485774 0.357094 0.605366 -0.260313 -0.210886 -0.942212
0.197959 0.608591 0.395923 0.625497 0.149651 0.765740
0.514829 0.312583 0.603620 -0.333086 -0.075625 -0.939859
0.360696 0.600165 0.404478 0.764339 -0.300751 0.570381
0.136408 0.232176 0.504172 0.860503 -0.341336 -0.378185
0.614541 0.617857 0.405585 0.706414 0.591429 -0.388832
0.633637 0.267556 0.272169 -0.551568 0.220305 0.804511
0.305049 0.276788 0.630015 0.265391 -0.313131 -0.911875
0.806225 0.338374 0.381854 -0.791751 -0.038070 0.609657
0.107198 0.163449 0.359983 0.752118 -0.588337 0.296947
0.320295 0.104220 0.104220 -0.038141 0.739407 -0.672178
0.237835 0.605810 0.405585 -0.013833 0.217948 -0.975862
0.451772 0.196707 0.176879 -0.383130 0.244468 0.890756
0.293906 0.170053 0.164143 0.193915 0.176077 0.965088
0.403798 0.186920 0.651271 -0.244139 0.148858 -0.958247
0.940280 0.477794 0.395740 0.392231 -0.135450 -0.909840
0.261066 0.069992 0.277668 0.209709 -0.788145 0.578662
0.747657 0.447778 0.430936 0.359022 0.652954 0.666899
0.438055 0.077442 0.381704 -0.875352 0.471024 0.109065
0.281753 0.085621 0.085621 0.940314 -0.027556 0.339191
0.271453 0.068128 0.509463 0.248369 -0.873015 -0.419711
0.214173 0.445452 0.323772 -0.002920 -0.212945 0.977060
0.438429 0.530429 0.464052 -0.230571 -0.914191 -0.333304
0.767054 0.359233 0.354408 -0.442306 -0.137940 0.886193
0.810365 0.317878 0.382285 -0.888880 0.096630 0.447834
0.415826 0.534093 0.395923 -0.225092 -0.081864 0.970892
0.532153 0.140301 0.494317 -0.517481 0.756609 -0.399695
0.141723 0.122869 0.476692 0.856159 0.442535 -0.266749
0.622582 0.217551 0.304238 -0.555256 0.498649 0.665612
0.203242 0.417312 0.489079 0.839154 -0.328793 -0.433262
0.339110 0.528084 0.491122 0.145365 -0.897790 -0.415743
0.458958 0.396552 0.213107 -0.195939 -0.383190 0.902648
0.559280 0.440499 0.272266 -0.364135 -0.593116 0.718066
0.309817 0.063774 0.731503 -0.016715 -0.630805 -0.775762
0.362972 0.556896 0.405585 0.723496 -0.649696 0.233344
0.530552 0.408509 0.572332 -0.341690 -0.414967 -0.843238
0.531714 0.665542 0.395923 0.108527 -0.889832 -0.443194
0.678861 0.352391 0.508610 -0.515846 -0.206965 -0.831305
0.164334 0.284213 0.315854 -0.958207 0.014946 -0.285685
0.102659 0.161095 0.458148 0.449629 0.729725 -0.515106
0.462466 0.088175 0.432810 -0.806022 0.460034 -0.372422
0.323808 0.065965 0.324621 -0.113206 -0.892883 0.435825
0.830365 0.319132 0.400037 -0.973795 0.085258 0.210842
0.179573 0.358056 0.503606 -0.860077 0.331121 0.388106
0.806252 0.413409 0.391967 -0.062545 -0.339126 0.938659
0.609802 0.179597 0.356744 -0.564095 0.666327 0.487653
0.441062 0.595233 0.405585 0.124613 -0.044862 0.991191
0.440705 0.086457 0.326129 -0.833676 -0.058504 0.549147
0.343315 0.081559 0.567166 -0.133703 -0.216696 -0.967040
0.278775 0.302880 0.597519 0.469797 -0.342450 -0.813646
0.793689 0.318522 0.405585 0.038944 -0.059496 -0.997469
0.593529 0.441515 0.516855 -0.414779 -0.589573 -0.693082
0.697112 0.326408 0.503035 -0.537140 -0.054817 -0.841710
0.640971 0.303235 0.538259 -0.516230 0.086147 -0.852107
0.512684 0.567137 0.405585 0.193607 -0.093911 0.976574
0.617044 0.249848 0.274346 -0.553319 0.374144 0.744214
0.909077 0.407904 0.405585 0.837680 -0.184003 -0.514233
0.394202 0.084195 0.553777 -0.439706 -0.014478 -0.898025
0.091099 0.138531 0.407083 0.668592 0.743611 0.005307
0.309131 0.149984 0.136061 0.013197 -0.815796 0.578189
0.136493 0.122786 0.463290 0.876239 0.433915 -0.209577
0.316200 0.639450 0.398461 -0.581342 -0.650670 -0.488539
0.088937 0.165429 0.448206 0.483551 0.710961 -0.510601
0.428627 0.284864 0.627822 -0.174632 -0.149630 -0.973198
0.170133 0.357078 0.420970 0.966020 -0.247615 -0.074104
0.262834 0.520068 0.379955 0.485935 -0.869373 0.089763
0.525669 0.291419 0.207242 -0.370590 -0.075782 0.925700
0.325226 0.071193 0.261203 -0.132491 -0.666822 0.733344
0.292103 0.066149 0.487934 0.140443 -0.930363 -0.338674
0.298407 0.193429 0.651820 0.214890 -0.007507 -0.976609
0.807198 0.413846 0.393404 -0.075010 -0.336854 0.938564
0.901079 0.248741 0.395740 0.312490 -0.458270 0.832068
0.382090 0.178791 0.160121 -0.163606 0.204512 0.965095
0.776347 0.262488 0.409051 -0.654479 0.743909 0.135117
0.303732 0.120499 0.188025 0.074493 0.578546 0.812241
0.900280 0.394369 0.395740 0.955157 -0.179360 -0.235596
0.668677 0.497806 0.405585 0.342413 0.286406 0.894832
0.620320 0.467816 0.346166 -0.361671 -0.745194 0.560250
0.206480 0.351590 0.287176 0.792163 -0.266368 0.549114
0.624949 0.487648 0.395923 0.796464 0.597946 0.090026
0.419963 0.519816 0.303280 -0.169835 -0.854784 0.490408
0.363559 0.207676 0.653782 -0.064035 0.003130 -0.997943
0.251690 0.141157 0.625613 0.369091 0.411112 -0.833522
0.342654 0.065603 0.439103 -0.167145 -0.969480 -0.179361
0.459609 0.183620 0.180701 -0.448047 0.403168 0.797941
0.094498 0.162135 0.361680 0.396745 0.711720 0.579696
0.313643 0.436244 0.576782 0.304337 -0.440601 -0.844541
0.553913 0.270117 0.224563 -0.460493 0.027504 0.887237
0.576884 0.580875 0.395923 0.187477 -0.113514 -0.975688
0.586877 0.562990 0.405585 0.043666 -0.023685 -0.998765
0.688787 0.412371 0.336644 -0.431910 -0.554983 0.710948
0.862257 0.312737 0.395740 0.720719 -0.676015 0.153520
0.525096 0.483245 0.305939 -0.315257 -0.780327 0.540096
0.272098 0.292823 0.209873 0.464089 -0.351420 0.813096
0.372931 0.068386 0.424438 -0.659780 -0.673660 -0.332977
0.201012 0.283275 0.549231 0.718904 -0.373196 -0.586432
0.375263 0.371502 0.196016 0.088559 -0.279601 0.956023
0.386454 0.273863 0.172430 -0.056873 -0.207265 0.976630
0.404364 0.529997 0.395923 0.105099 0.246766 -0.963359
0.466170 0.533810 0.428075 -0.205953 -0.946816 -0.247230
0.266278 0.317690 0.586373 0.528466 -0.319328 -0.786609
0.850892 0.235694 0.395740 -0.324790 -0.911405 -0.252689
0.293018 0.253490 0.639286 0.261020 -0.276662 -0.924839
0.449969 0.098889 0.315006 -0.720523 0.500433 0.480015
0.183956 0.278252 0.532742 0.770500 -0.377808 -0.513410
0.463184 0.137004 0.238402 -0.513835 0.676260 0.527869
0.135859 0.203268 0.289278 0.883457 -0.111908 0.454951
0.488057 0.177957 0.212653 -0.527497 0.542986 0.653386
0.571560 0.157984 0.475997 -0.523560 0.761552 -0.381999
0.210546 0.141458 0.208922 0.551161 0.379769 0.742965
0.177050 0.367710 0.481862 -0.915055 0.378280 0.139922
0.652901 0.268557 0.289326 -0.549217 0.277841 0.788140
0.621623 0.465457 0.344107 -0.367399 -0.736218 0.568331
0.674834 0.480764 0.393045 -0.352491 -0.923314 0.152453
0.610347 0.449394 0.494115 -0.395200 -0.643979 -0.655063
0.278464 0.063734 0.441530 0.163414 -0.976781 -0.138545
0.595397 0.555518 0.405585 0.061879 0.006269 -0.998064
0.915516 0.477892 0.405585 0.339774 -0.155716 -0.927527
0.326971 0.456202 0.240701 0.254136 -0.518042 0.816729
0.251179 0.425764 0.264229 0.615704 -0.364874 0.698409
0.521006 0.499087 0.476591 -0.303221 -0.828580 -0.470651
0.519242 0.478717 0.517286 -0.345762 -0.772697 -0.532341
0.328783 0.541799 0.419483 0.241640 -0.966902 -0.081925
0.209608 0.135311 0.598313 0.573023 0.456332 -0.680740
0.757634 0.354605 0.462064 -0.596174 -0.176151 -0.783293
0.439858 0.349123 0.615903 -0.150751 -0.214118 -0.965105
0.443612 0.105026 0.266137 -0.588684 0.687136 0.425788
0.449376 0.259870 0.182037 -0.267870 -0.094944 0.958765
0.271051 0.068100 0.727177 0.909160 0.410864 -0.067953
0.314694 0.158246 0.165155 0.083223 0.308912 0.947442
0.150968 0.291780 0.401799 0.123296 -0.992217 -0.017446
0.294992 0.044375 0.044375 0.126596 0.932356 -0.338653
0.489209 0.528149 0.383090 -0.230528 -0.919259 0.319093
0.797142 0.399739 0.405585 0.514213 -0.280045 -0.810654
0.323553 0.139442 0.125519 -0.107414 0.707469 -0.698534
0.310264 0.695874 0.404693 0.314985 -0.040783 0.948220
0.270106 0.066500 0.483935 0.239915 -0.915408 -0.323217
0.410101 0.075922 0.318919 -0.595050 -0.673427 0.438648
0.735030 0.364147 0.473127 -0.573460 -0.241442 -0.782847
0.607850 0.452514 0.318844 -0.393255 -0.682523 0.616046
0.454214 0.145913 0.602138 -0.503487 0.592944 -0.628425
0.372374 0.428091 0.594268 0.054243 -0.434199 -0.899182
0.168156 0.293703 0.505572 -0.919755 0.028168 0.391482
0.547129 0.189774 0.269844 -0.566026 0.577244 0.588562
0.178296 0.160727 0.236019 0.727238 0.223091 0.649119
0.380139 0.545635 0.431478 -0.005058 -0.990849 -0.134882
0.305872 0.246050 0.642773 0.204618 -0.234445 -0.950351
0.661659 0.428211 0.323474 -0.443298 -0.585219 0.678974
0.812282 0.369970 0.395740 0.232085 -0.118211 -0.965486
0.395375 0.618371 0.395923 -0.972577 -0.232453 -0.007777
0.295578 0.101188 0.604307 0.118515 0.663485 -0.738743
0.341146 0.414689 0.215561 0.211039 -0.382432 0.899560
0.447609 0.613349 0.405585 0.137949 -0.061222 0.988545
0.315618 0.084515 0.234551 -0.062242 -0.043104 0.997130
0.071322 0.205248 0.477012 0.598663 0.259497 -0.757802
0.494065 0.220734 0.193310 -0.453993 0.167417 0.875135
0.733876 0.381606 0.468623 -0.569179 -0.328822 -0.753599
0.203210 0.075735 0.308201 0.568929 -0.659441 0.491384
0.123687 0.253904 0.474183 -0.084549 -0.672895 -0.734890
0.350139 0.513234 0.527815 0.058638 -0.814095 -0.577764
0.531824 0.285816 0.208841 -0.394892 -0.049086 0.917415
0.829189 0.461261 0.405585 0.316376 -0.299731 -0.900038
0.779107 0.266720 0.414793 -0.334761 0.851951 0.402635
0.875348 0.434951 0.405585 0.497426 -0.204912 -0.842958
0.728877 0.429661 0.452154 -0.410989 -0.654735 -0.634359
0.786604 0.404254 0.373597 -0.111961 -0.454205 0.883834
0.555511 0.383683 0.573756 -0.385032 -0.308659 -0.869759
0.808076 0.337888 0.395740 0.088917 -0.050396 -0.994763
0.155391 0.229937 0.540736 0.793136 -0.324946 -0.515116
0.281897 0.120001 0.689199 0.565563 0.614904 0.549574
0.605900 0.580651 0.395923 0.142054 0.033542 -0.989290
0.819561 0.253652 0.398640 -0.395079 -0.533569 -0.747808
0.297207 0.150339 0.640989 0.176344 0.360000 -0.916135
0.240196 0.145710 0.189360 0.410452 0.359303 0.838111
0.845982 0.350898 0.405585 0.177093 -0.104554 -0.978625
0.197591 0.399043 0.487711 0.862865 -0.290345 -0.413719
0.525476 0.484281 0.307991 -0.314686 -0.784142 0.534877
0.573129 0.399999 0.556370 -0.413333 -0.374051 -0.830206
0.493975 0.687743 0.405585 -0.055454 -0.380904 0.922950
0.484800 0.261945 0.193069 -0.341746 -0.047397 0.938596
0.775640 0.400528 0.442668 -0.750059 -0.661311 -0.008857
0.311106 0.532694 0.358478 0.319998 -0.926981 0.195724
0.370101 0.442518 0.225655 0.072891 -0.490604 0.868329
0.762630 0.353890 0.458041 -0.643413 -0.173727 -0.745546
0.272392 0.114348 0.691533 0.718021 0.429762 0.547495
0.622169 0.368892 0.545539 -0.480870 -0.235209 -0.844654
0.212380 0.069105 0.335193 0.422477 -0.849226 0.316745
0.155576 0.087980 0.401264 0.995361 -0.068046 0.068019
0.841536 0.435860 0.405585 0.312148 -0.179999 -0.932826
0.093854 0.172745 0.342975 0.462158 0.657603 0.594953
0.334160 0.520967 0.405585 0.510149 0.735660 0.445592
0.104122 0.189576 0.408999 0.999919 0.009739 -0.008240
0.131184 0.229712 0.318461 0.884546 -0.319451 0.339897
0.242356 0.313596 0.241544 0.610624 -0.342473 0.714038
0.432667 0.321572 0.620059 -0.131808 -0.175254 -0.975660
0.559912 0.233931 0.236814 -0.562239 0.360595 0.744217
0.315403 0.060841 0.414347 -0.022419 -0.998564 -0.048654
0.258053 0.588912 0.395923 -0.053904 -0.545467 -0.836397
0.203463 0.466666 0.416171 0.838844 -0.539226 -0.074678
0.876042 0.296268 0.405585 0.285912 -0.137978 0.948270
0.251150 0.662033 0.395923 0.706217 -0.561464 0.431296
0.574816 0.660688 0.403691 0.103436 -0.060209 -0.992812
0.279583 0.526256 0.388690 0.429724 -0.901460 0.052033
0.367295 0.067626 0.388021 -0.697028 -0.676745 0.236998
0.167406 0.303698 0.294592 -0.885783 0.114252 -0.449818
0.348702 0.074030 0.259059 -0.281527 -0.571183 0.771033
0.115432 0.247583 0.363093 0.827312 -0.156594 0.539476
0.330437 0.087939 0.230095 -0.139178 0.184645 0.972901
0.254931 0.489178 0.312420 0.582957 -0.668764 0.461429
0.214450 0.133340 0.601832 0.549475 0.462723 -0.695675
0.917516 0.500934 0.395740 0.247746 -0.077147 -0.965748
0.519299 0.376193 0.591900 -0.323803 -0.278212 -0.904295
0.491324 0.678508 0.405585 -0.040240 -0.424494 0.904536
0.628850 0.492902 0.385483 -0.317606 -0.915851 0.245647
0.479225 0.102424 0.461863 -0.657488 0.652939 -0.376006
0.564487 0.143675 0.364333 -0.522753 0.768594 0.368771
0.576857 0.500752 0.372902 -0.292104 -0.866599 0.404576
0.554097 0.484449 0.327659 -0.325908 -0.797428 0.507832
0.292654 0.066333 0.490642 0.139158 -0.924321 -0.355338
0.519963 0.396813 0.228642 -0.300379 -0.402696 0.864643
0.504147 0.602870 0.405585 0.033143 -0.186246 -0.981944
0.260987 0.492775 0.310455 0.549069 -0.693534 0.466406
0.301392 0.071143 0.261079 0.003250 -0.678395 0.734690
0.641440 0.469321 0.451680 -0.304857 -0.799442 -0.517644
0.280933 0.664131 0.395923 0.091997 -0.822589 0.561146
0.137103 0.267930 0.353178 0.445297 -0.618900 0.647049
0.677520 0.463638 0.373448 -0.387507 -0.824338 0.412681
0.736105 0.462449 0.418222 0.137395 -0.084872 0.986873
0.287379 0.227618 0.643123 0.277255 -0.170443 -0.945557
0.413202 0.431918 0.590198 -0.097828 -0.466630 -0.879026
0.474648 0.151483 0.231599 -0.521746 0.655286 0.546243
0.578536 0.598622 0.395923 0.155902 -0.079615 -0.984559
0.842058 0.405646 0.405585 0.737357 -0.269384 -0.619465
0.160930 0.189161 0.566420 0.795085 -0.016421 -0.606276
0.290822 0.062619 0.379571 0.084645 -0.990005 0.112806
0.285559 0.629731 0.395923 0.935920 0.226228 0.269952
0.331324 0.150878 0.644398 -0.336926 0.244931 0.909115
0.148514 0.157986 0.278533 0.828991 0.256461 0.496992
0.304427 0.443483 0.242179 0.363448 -0.460310 0.809951
0.277109 0.065540 0.338894 0.147248 -0.947842 0.282691
0.478791 0.510575 0.327537 -0.291793 -0.853863 0.431016
0.323039 0.089937 0.719264 -0.059770 -0.678032 -0.732598
0.594397 0.155198 0.432591 -0.553166 0.815511 -0.170145
0.499160 0.126024 0.311906 -0.549753 0.748205 0.371431
0.419440 0.478508 0.559099 -0.158828 -0.647263 -0.745537
0.312303 0.283696 0.185038 0.276514 -0.327635 0.903435
0.530754 0.691210 0.399896 -0.066507 -0.603451 0.794622
0.546249 0.484448 0.322344 -0.322832 -0.794022 0.515082
0.350606 0.176282 0.156807 -0.044426 0.178987 0.982848
0.581471 0.493782 0.362452 -0.305101 -0.831318 0.464569
0.251131 0.466449 0.290608 0.610746 -0.532583 0.585956
0.605223 0.274495 0.551350 -0.535157 0.227278 -0.813604
0.599017 0.454436 0.315013 -0.384839 -0.686829 0.616575
0.193460 0.322276 0.512329 0.818786 -0.326604 -0.472144
0.224815 0.651166 0.405289 0.793366 0.282227 -0.539368
0.331411 0.526607 0.319203 0.219409 -0.889459 0.400902
0.579431 0.437450 0.277778 -0.389635 -0.580215 0.715217
0.541639 0.131572 0.359914 -0.531906 0.765882 0.361248
0.176024 0.173570 0.231122 0.730081 0.114426 0.673713
0.534889 0.226444 0.584589 -0.525805 0.310416 -0.791941
0.536046 0.428640 0.559407 -0.348657 -0.501419 -0.791844
0.503324 0.503481 0.327460 -0.294403 -0.838830 0.457920
0.224860 0.250598 0.207290 0.543311 -0.375801 0.750724
0.107673 0.246694 0.327265 0.078091 -0.524028 0.848114
0.246965 0.497361 0.474819 0.577882 -0.731055 -0.362782
0.063123 0.177009 0.412756 0.192108 -0.938289 -0.287591
0.174919 0.085391 0.332016 0.873116 -0.198099 0.445450
0.240152 0.083654 0.259041 0.506221 -0.252136 0.824723
0.487382 0.226701 0.619427 -0.447383 0.141694 -0.883046
0.454031 0.205292 0.178135 -0.358816 0.165935 0.918541
0.172028 0.342949 0.310250 -0.854588 0.396457 -0.335412
0.196669 0.131656 0.574599 0.651610 0.483743 -0.584292
0.247117 0.490106 0.486950 0.587935 -0.683402 -0.432775
0.601754 0.287672 0.557857 -0.516633 0.145399 -0.843771
0.485154 0.185799 0.613294 -0.540484 0.400055 -0.740158
0.273093 0.097816 0.596057 0.239383 0.598540 -0.764490
0.422727 0.516954 0.297087 -0.179026 -0.839867 0.512419
0.127514 0.253446 0.388875 0.917493 -0.390913 0.073445
0.595747 0.503086 0.405585 0.023753 -0.006373 -0.999698
0.710320 0.510438 0.395923 0.546069 0.721662 0.425456
0.557592 0.271324 0.583134 -0.485011 0.160503 -0.859653
0.697293 0.496255 0.395923 0.309853 0.269643 0.911748
0.521458 0.503732 0.338957 -0.297390 -0.845559 0.443384
0.245396 0.504760 0.450862 0.570963 -0.784096 -0.243299
0.433532 0.519945 0.405585 -0.057278 0.044798 0.997353
0.259650 0.319364 0.581318 0.555449 -0.318667 -0.768068
0.763871 0.343627 0.349875 -0.502822 -0.046960 0.863113
0.054314 0.282586 0.415868 0.489098 -0.863341 -0.124204
0.382067 0.072252 0.477733 -0.367922 -0.850074 -0.376839
0.688548 0.471841 0.388408 -0.414806 -0.894527 0.166609
0.173195 0.238957 0.560613 0.721525 -0.364673 -0.588571
0.940183 0.456761 0.403629 0.383010 -0.110666 -0.917091
0.136670 0.192960 0.279882 0.873146 -0.031492 0.486440
0.114913 0.209361 0.353354 0.965456 -0.155434 0.209128
0.304336 0.080193 0.243746 0.007267 -0.315141 0.949017
0.177592 0.382979 0.374276 0.954659 -0.257013 0.150233
0.441226 0.592146 0.405585 0.123214 -0.044588 0.991378
0.298289 0.109991 0.109991 0.384559 -0.367006 0.847007
0.190096 0.418004 0.458642 0.903740 -0.323075 -0.280851
0.351292 0.055947 0.042024 -0.977236 0.165518 -0.132719
0.311745 0.161358 0.164539 0.100787 0.277143 0.955528
0.432801 0.573707 0.405585 0.128799 -0.058361 0.989952
0.503766 0.514160 0.405585 0.024843 -0.015024 0.999578
0.253091 0.516611 0.378128 0.517238 -0.850319 0.097072
0.307509 0.328111 0.205663 0.356946 -0.311982 0.880487
0.374058 0.442072 0.586269 0.035355 -0.490387 -0.870788
0.611040 0.232705 0.287255 -0.550617 0.506790 0.663313
0.375807 0.422091 0.597301 0.044058 -0.415130 -0.908694
0.813942 0.305955 0.390978 -0.941334 0.178518 0.286394
0.044941 0.250252 0.357393 0.746053 -0.237121 0.622236
0.553479 0.670493 0.405585 0.033494 -0.415776 -0.908850
0.886506 0.226879 0.404686 0.527807 -0.782508 0.330305
0.487251 0.660781 0.405585 0.013992 -0.604159 0.796741
0.323809 0.606470 0.395923 -0.066823 -0.111789 -0.991483
0.793191 0.423026 0.425752 0.041702 -0.461906 0.885948
0.386056 0.188976 0.157789 -0.164538 0.125073 0.978409
0.078206 0.210589 0.328613 0.473709 0.149786 0.867850
0.472962 0.417571 0.585653 -0.240353 -0.433902 -0.868308
0.199787 0.415674 0.328942 0.864898 -0.325029 0.382501
0.655419 0.392461 0.508439 -0.477476 -0.382916 -0.790818
0.166611 0.195764 0.240039 0.763003 -0.054753 0.644072
0.380901 0.324125 0.188564 0.064096 -0.283598 0.956799
0.130004 0.185576 0.293368 0.900129 0.028308 0.434703
0.341752 0.067825 0.301270 -0.227284 -0.809658 0.541106
0.286026 0.064683 0.463016 0.151461 -0.959623 -0.237032
0.326742 0.540825 0.377684 0.265316 -0.958390 0.105341
0.502622 0.197201 0.206456 -0.527750 0.445413 0.723248
0.104174 0.169128 0.417795 0.683956 -0.727599 -0.052958
0.722173 0.307505 0.492380 -0.551773 0.064357 -0.831507
0.198336 0.172181 0.213236 0.651031 0.112953 0.750600
0.200025 0.318852 0.522353 0.790462 -0.333551 -0.513725
0.182021 0.075831 0.344594 0.664419 -0.671283 0.328522
0.567335 0.505999 0.395923 0.224089 -0.512261 -0.829079
0.822452 0.397808 0.395740 0.646542 -0.266120 -0.714957
0.671248 0.399159 0.316761 -0.465116 -0.460339 0.756145
0.745292 0.391384 0.351027 -0.083906 -0.532188 0.842458
0.754820 0.259836 0.437693 0.275379 -0.328989 0.903290
0.559937 0.550988 0.405585 0.008824 -0.020170 0.999758
0.555754 0.550320 0.395923 0.013971 -0.031937 0.999392
0.440742 0.387173 0.605704 -0.162398 -0.313960 -0.935444
0.646322 0.220796 0.319517 -0.599034 0.358847 0.715812
0.387476 0.198248 0.651861 -0.172019 0.078680 -0.981946
0.314530 0.105362 0.091439 -0.037474 0.745313 -0.665661
0.272508 0.581102 0.404431 -0.675596 -0.680534 -0.283627
0.467420 0.314222 0.196019 -0.215913 -0.201228 0.955452
0.271527 0.361066 0.583763 0.512838 -0.246015 -0.822480
0.534411 0.134723 0.477884 -0.509575 0.776965 -0.369675
0.530862 0.141847 0.499676 -0.520266 0.749718 -0.408958
0.195823 0.106897 0.258848 0.625396 0.530673 0.572071
0.587067 0.299568 0.569661 -0.470063 0.062084 -0.880447
0.629241 0.376090 0.536450 -0.481412 -0.281664 -0.830005
0.087746 0.172947 0.463670 0.488063 0.657463 -0.574054
0.807799 0.446203 0.405367 0.330027 -0.289719 -0.898413
0.237763 0.065695 0.404114 0.317640 -0.947651 0.032588
0.284953 0.525566 0.446887 0.395052 -0.895034 -0.206997
0.330433 0.253388 0.166709 0.115702 -0.222343 0.968079
0.582152 0.482473 0.344151 -0.332315 -0.801619 0.496965
0.862679 0.321360 0.395740 0.608939 -0.349200 -0.712217
0.425754 0.501605 0.279567 -0.179126 -0.774638 0.606507
0.414214 0.290000 0.628181 -0.110239 -0.179433 -0.977574
0.346260 0.086556 0.086556 -0.757626 0.425767 -0.494698
0.685652 0.402014 0.487427 -0.497260 -0.420193 -0.759059
0.493994 0.244640 0.194981 -0.395201 0.020367 0.918369
0.441496 0.621570 0.405585 0.133759 -0.046460 0.989924
0.779089 0.413015 0.437963 -0.382559 -0.745117 0.546306
0.310057 0.119475 0.119475 -0.104056 -0.753876 0.648724
0.421569 0.624349 0.396625 0.143190 -0.063582 0.987651
0.279389 0.109673 0.699528 0.689069 0.546219 0.476266
0.181777 0.297702 0.310500 0.829904 -0.375630 0.412505
0.671037 0.230925 0.470235 -0.446427 0.735421 -0.509764
0.288985 0.045693 0.045693 0.283347 0.913517 -0.291892
0.661292 0.188809 0.416674 -0.598699 0.740465 0.305404
0.128808 0.203031 0.505333 0.916397 -0.105812 -0.386032
0.422509 0.158315 0.180150 -0.343563 0.510112 0.788512
0.273052 0.445871 0.260728 0.511580 -0.456466 0.727959
0.345275 0.541618 0.362943 0.189170 -0.964295 0.185339
0.537533 0.188170 0.546494 -0.557303 0.581534 -0.592648
0.365175 0.069443 0.349498 -0.320738 -0.913668 0.249675
0.634115 0.470012 0.455160 -0.308534 -0.793622 -0.524377
0.546794 0.237260 0.584059 -0.524760 0.282211 -0.803109
0.120120 0.139888 0.407710 0.920216 0.391398 0.003043
0.470155 0.324397 0.197940 -0.218614 -0.216837 0.951414
0.605157 0.484472 0.395923 0.098164 0.029563 -0.994731
0.198390 0.299481 0.284207 0.768148 -0.370387 0.522267
0.638843 0.270761 0.273862 -0.549660 0.199913 0.811116
0.242790 0.066212 0.450342 0.323200 -0.933407 -0.155861
0.123187 0.169182 0.468720 0.636828 -0.656862 -0.403712
0.316941 0.215250 0.161163 0.141506 -0.072454 0.987282
0.865930 0.459205 0.405585 0.299147 -0.189648 -0.935171
0.330352 0.542030 0.418702 0.234798 -0.968919 -0.077885
0.118028 0.144239 0.344971 0.199824 0.858596 0.472104
0.799755 0.308703 0.432441 -0.862850 0.211060 -0.459286
0.194372 0.375058 0.315670 0.868367 -0.246435 0.430359
0.170990 0.602433 0.403577 0.376223 0.377551 0.846115
0.159760 0.086896 0.433528 0.986258 -0.129884 -0.102106
0.274818 0.079279 0.079279 0.942578 0.073325 0.325838
0.218577 0.067820 0.361302 0.397799 -0.892846 0.211145
0.172770 0.281848 0.303359 0.819710 -0.377758 0.430552
0.296029 0.359682 0.214169 0.413274 -0.261521 0.872245
0.391315 0.540869 0.465708 -0.077706 -0.947621 -0.309800
0.541974 0.172574 0.528796 -0.539545 0.658065 -0.525206
0.345761 0.068597 0.519982 -0.128166 -0.764643 -0.631581
0.386672 0.540145 0.395923 -0.430246 -0.190792 -0.882319
0.426703 0.645741 0.402562 0.168230 -0.054448 0.984243
0.499423 0.318983 0.204516 -0.280784 -0.184375 0.941895
0.298332 0.254889 0.640036 0.239138 -0.277862 -0.930379
0.531731 0.519986 0.424374 -0.256863 -0.943589 -0.208954
0.318691 0.494507 0.273233 0.270726 -0.702401 0.658286
0.508490 0.497142 0.319790 -0.301226 -0.820890 0.485183
0.111174 0.135722 0.395765 0.152329 0.986794 0.055074
0.726403 0.384019 0.471834 -0.558995 -0.340173 -0.756179
0.083516 0.178426 0.342997 0.478775 0.620425 0.621166
0.580124 0.252131 0.245813 -0.559076 0.278731 0.780860
0.308376 0.170240 0.156316 0.095554 -0.943947 0.315963
0.365270 0.471301 0.568015 0.044578 -0.597437 -0.800676
0.618198 0.245056 0.280257 -0.548404 0.432699 0.715559
0.516537 0.414866 0.575474 -0.317312 -0.442233 -0.838894
0.148178 0.268984 0.337595 0.879318 -0.384223 0.281374
0.585710 0.434423 0.532682 -0.422125 -0.532645 -0.733553
0.284343 0.524778 0.359779 0.413806 -0.891479 0.184471
0.163481 0.272417 0.323819 -0.955324 -0.233782 -0.180839
0.495092 0.442548 0.246411 -0.274682 -0.569831 0.774494
0.181021 0.607607 0.395923 0.471231 0.304776 0.827679
0.484874 0.117446 0.495329 -0.548380 0.751020 -0.367761
0.321903 0.583101 0.395923 0.062835 -0.181268 -0.981424
0.870514 0.381149 0.395740 0.953988 -0.299817 0.003955
0.162375 0.298280 0.326465 -0.981735 0.055513 -0.181976
0.809844 0.420877 0.401212 -0.094147 -0.351475 0.931451
0.116796 0.159784 0.340960 0.712762 -0.390483 0.582660
0.279058 0.067260 0.499476 0.208347 -0.900319 -0.382123
0.600325 0.179631 0.336305 -0.574472 0.655984 0.489558
0.317844 0.320048 0.200592 0.316015 -0.316389 0.894445
0.147018 0.193796 0.265979 0.839469 -0.034736 0.542296
0.257362 0.064323 0.396459 0.229699 -0.971660 0.055807
0.153607 0.271272 0.329158 0.866463 -0.383453 0.319695
0.425969 0.291096 0.183675 -0.135664 -0.195768 0.971221
0.607203 0.573172 0.395923 0.136321 0.037402 -0.989958
0.338438 0.066547 0.491752 -0.106893 -0.862569 -0.494519
0.443122 0.515614 0.511488 -0.254716 -0.862490 -0.437300
0.133134 0.175600 0.322655 0.323571 0.454239 0.830042
0.446200 0.700892 0.395923 0.110109 -0.169784 0.979311
0.118839 0.279530 0.431779 -0.260022 -0.907836 -0.328971
0.098478 0.162347 0.385806 0.769510 -0.633969 0.077059
0.111323 0.213749 0.318269 0.265857 -0.079060 0.960765
0.634064 0.494148 0.405585 0.579445 0.448448 0.680542
0.285749 0.634704 0.405585 0.714149 0.273193 0.644482
0.251080 0.069695 0.286567 0.255275 -0.831892 0.492737
0.519408 0.111295 0.374843 -0.583460 0.762423 0.279794
0.560029 0.157776 0.499547 -0.510659 0.743960 -0.430989
0.535963 0.125107 0.449361 -0.504162 0.805224 -0.312146
0.569576 0.364960 0.574913 -0.410002 -0.225294 -0.883822
0.173603 0.201088 0.232902 0.735490 -0.093362 0.671073
0.239106 0.079600 0.267268 0.458945 -0.498565 0.735392
0.292329 0.070885 0.056962 0.319885 0.935131 -0.152331
0.281287 0.455488 0.550469 0.442412 -0.506036 -0.740404
0.250860 0.289860 0.223686 0.540700 -0.360165 0.760214
0.582030 0.475067 0.330845 -0.344899 -0.776183 0.527812
0.567640 0.329022 0.229523 -0.422882 -0.148294 0.893968
0.501800 0.553202 0.405585 0.120376 -0.059980 0.990915
0.413123 0.541330 0.451773 -0.181434 -0.954211 -0.237831
0.108522 0.186131 0.363275 0.985402 0.033571 0.166899
0.431500 0.254579 0.176244 -0.238953 -0.105643 0.965267
0.194477 0.432523 0.456275 0.886370 -0.371805 -0.275879
0.850255 0.272690 0.405585 0.290282 -0.600469 -0.745100
0.827485 0.350779 0.409787 -0.913009 -0.163516 0.373733
0.223203 0.459483 0.491364 0.727836 -0.506991 -0.461751
0.393859 0.564592 0.398912 -0.366269 -0.177934 0.913338
0.598161 0.144452 0.407758 -0.542823 0.839129 0.034717
0.426197 0.542683 0.418716 -0.131784 -0.976579 -0.170076
0.376363 0.517509 0.288767 -0.021169 -0.830928 0.555977
0.168572 0.328534 0.311803 -0.922794 0.175524 -0.342990
0.506251 0.515862 0.350437 -0.279244 -0.874746 0.396034
0.412185 0.308245 0.624186 -0.063239 -0.202156 -0.977310
0.481697 0.186089 0.192193 -0.510285 0.456094 0.729100
0.624853 0.228057 0.299800 -0.546826 0.494932 0.675295
0.199782 0.371723 0.509949 0.832623 -0.235004 -0.501509
0.141171 0.107908 0.373670 0.874614 0.461112 0.149755
0.478635 0.563429 0.395923 0.199787 -0.431703 0.879612
0.474253 0.130756 0.542813 -0.576177 0.689088 -0.439521
0.118741 0.211169 0.336895 0.947008 -0.170794 0.272040
0.306145 0.529461 0.461108 0.309695 -0.910685 -0.273390
0.913810 0.461909 0.395740 0.273669 -0.096175 -0.957004
0.197796 0.085734 0.517165 0.802007 -0.154398 -0.577015
0.393982 0.548124 0.407049 -0.030228 -0.999512 -0.007879
0.189346 0.425845 0.445057 0.915699 -0.338626 -0.216395
0.228902 0.479825 0.477551 0.688665 -0.608085 -0.394933
0.337915 0.143064 0.129141 -0.802779 -0.296130 -0.517545
0.596293 0.143837 0.408697 -0.542253 0.839896 0.023177
0.389733 0.374805 0.615784 0.017425 -0.269906 -0.962729
0.902391 0.252164 0.395740 0.384318 -0.485262 0.785379
0.213260 0.457734 0.470797 0.787207 -0.502202 -0.357907
0.525609 0.516508 0.435364 -0.257000 -0.909102 -0.327850
0.553692 0.598124 0.405585 0.178000 -0.101123 0.978821
0.428361 0.264708 0.633488 -0.233857 -0.120867 -0.964729
0.547047 0.186163 0.537695 -0.554829 0.605361 -0.570704
0.418717 0.543068 0.382352 -0.140591 -0.973547 0.180115
0.201412 0.388555 0.308121 0.838930 -0.273025 0.470801
0.137324 0.270031 0.405195 0.922111 -0.386912 0.003356
0.419820 0.454600 0.574915 -0.139404 -0.557289 -0.818532
0.572629 0.408869 0.258142 -0.392371 -0.458535 0.797365
0.512642 0.516653 0.363398 -0.270892 -0.882203 0.385142
0.368284 0.173318 0.160485 -0.117749 0.235576 0.964696
0.484187 0.103672 0.344492 -0.696043 0.564589 0.443580
0.442099 0.084333 0.455590 -0.845575 0.289129 -0.448785
0.232147 0.083282 0.544993 0.628706 -0.261026 -0.732526
0.640685 0.510747 0.405585 0.497092 0.411973 0.763660
0.674186 0.218055 0.359716 -0.568256 -0.200615 0.798022
0.454902 0.626019 0.405585 0.216059 -0.154907 0.964014
0.904213 0.428398 0.405585 0.637792 -0.182445 -0.748288
0.573206 0.454554 0.513021 -0.396370 -0.665896 -0.632039
0.129062 0.134368 0.382693 0.097456 0.985301 0.140297
0.465562 0.155728 0.210801 -0.510104 0.626328 0.589497
0.875440 0.337326 0.395740 0.394272 -0.164563 -0.904140
0.519475 0.309340 0.602867 -0.343073 -0.064175 -0.937114
0.402314 0.137773 0.626765 -0.293193 0.570362 -0.767284
0.636053 0.547600 0.405585 0.734688 0.627276 0.258377
0.321920 0.126191 0.683010 -0.099236 -0.692816 -0.714254
0.339171 0.124999 0.111076 -0.468369 0.548849 -0.692384
0.332769 0.094985 0.094985 -0.235414 0.687432 -0.687035
0.149198 0.271272 0.339218 0.881400 -0.383878 0.275266
0.950065 0.494546 0.405585 0.440620 -0.176828 -0.880106
0.784017 0.372873 0.364894 -0.361300 -0.231050 0.903370
0.928337 0.379057 0.400008 0.949269 -0.168239 0.265675
0.492692 0.379584 0.214347 -0.251166 -0.333696 0.908605
0.117998 0.187320 0.488809 0.273607 0.336014 -0.901240
0.153329 0.123521 0.507147 0.807415 0.450046 -0.381497
0.559960 0.303352 0.587750 -0.419291 0.000969 -0.907851
0.561935 0.543311 0.405585 0.010923 -0.024970 0.999629
0.343808 0.526529 0.313652 0.160949 -0.886648 0.433532
0.144879 0.170130 0.535232 0.856886 0.170913 -0.486349
0.326313 0.139615 0.655661 -0.501264 0.368754 0.782787
0.591264 0.454091 0.500924 -0.392162 -0.668421 -0.631998
0.416021 0.118319 0.598903 -0.394515 0.661547 -0.637740
0.688304 0.282773 0.307253 -0.553075 0.225902 0.801920
0.617176 0.157412 0.399851 -0.557038 0.817084 0.148602
0.717827 0.295074 0.492189 -0.550579 0.146384 -0.821848
0.427775 0.609710 0.395923 0.124025 -0.059339 0.990503
0.522987 0.394161 0.228227 -0.305335 -0.392468 0.867606
0.464322 0.121460 0.540990 -0.584533 0.692738 -0.422415
0.471718 0.628125 0.395923 0.541215 -0.600522 -0.588609
0.351397 0.049422 0.756804 -0.987534 0.155776 0.022593
0.764813 0.436282 0.432503 0.250311 -0.155226 0.955641
0.135924 0.213039 0.515958 0.884223 -0.188268 -0.427440
0.539567 0.406542 0.568965 -0.356724 -0.404950 -0.841881
0.244538 0.452322 0.288167 0.647993 -0.473578 0.596514
0.606116 0.559499 0.405585 0.094684 0.047580 -0.994370
0.261594 0.068529 0.511316 0.293065 -0.855840 -0.426204
0.118594 0.240638 0.385412 0.916005 -0.392835 0.081331
0.624684 0.503825 0.405585 0.485643 0.366469 -0.793632
0.141653 0.101915 0.395846 0.881069 0.468821 0.062637
0.668423 0.541469 0.395923 0.748465 0.656134 0.096372
0.296644 0.146197 0.171623 0.144256 0.400716 0.904774
0.429052 0.535229 0.353176 -0.247025 -0.930583 0.270173
0.246255 0.073754 0.272579 0.313646 -0.738738 0.596567
0.365553 0.489107 0.552996 0.022520 -0.691596 -0.721933
0.593754 0.277919 0.561105 -0.523877 0.182459 -0.832022
0.478597 0.094887 0.371132 -0.740008 0.602626 0.298714
0.154491 0.265198 0.495797 0.850456 -0.388166 -0.355039
0.393399 0.480220 0.250593 -0.048711 -0.648416 0.759726
0.378761 0.441454 0.223953 0.036831 -0.489879 0.871012
0.097290 0.158686 0.413925 0.791609 -0.607964 -0.061112
0.704119 0.291240 0.312916 -0.554878 0.175288 0.813256
0.095755 0.267034 0.466326 -0.049561 -0.709236 -0.703227
0.321423 0.097967 0.084044 -0.039365 0.741244 -0.670080
0.187165 0.070287 0.461416 0.546934 -0.819879 -0.169296
0.336933 0.498427 0.540375 0.139637 -0.735302 -0.663199
0.701480 0.220784 0.435922 -0.661460 0.558596 0.500441
0.239040 0.070159 0.286784 0.305793 -0.821979 0.480459
0.534600 0.203059 0.562713 -0.557813 0.488040 -0.671314
0.618122 0.157320 0.401086 -0.557905 0.817878 0.140777
0.464922 0.505984 0.313114 -0.297517 -0.834249 0.464234
0.282611 0.146236 0.662965 -0.061860 -0.646506 -0.760397
0.177449 0.315832 0.291855 -0.840828 0.109135 -0.530187
0.587948 0.531428 0.405585 0.029609 -0.023656 -0.999282
0.866372 0.269328 0.395740 0.399210 -0.724055 -0.562473
0.453058 0.515992 0.486634 -0.290698 -0.866302 -0.406222
0.935046 0.486303 0.395740 0.411039 -0.165701 -0.896432
0.343400 0.114938 0.193794 -0.101373 0.643644 0.758581
0.134218 0.159199 0.308623 0.890440 0.245024 0.383510
0.648201 0.195506 0.369425 -0.496383 0.520533 0.694730
0.115408 0.167594 0.361524 0.967431 0.179570 0.178415
0.911551 0.284747 0.405585 0.925248 -0.362736 0.111078
0.152755 0.327384 0.478877 -0.918066 0.328501 0.221905
0.536516 0.328513 0.596312 -0.370975 -0.110668 -0.922025
0.374722 0.291745 0.631056 0.032231 -0.242547 -0.969604
0.655664 0.350849 0.525289 -0.505934 -0.173982 -0.844844
0.119746 0.177953 0.326902 0.946304 0.094442 0.309174
0.286900 0.398047 0.581794 0.437531 -0.314693 -0.842339
0.603252 0.432759 0.288773 -0.411107 -0.570747 0.710801
0.689239 0.418784 0.480667 -0.463175 -0.428674 -0.775698
0.090538 0.262715 0.341015 0.109395 -0.672575 0.731899
0.126776 0.235047 0.332201 0.888494 -0.359085 0.285722
0.912374 0.473132 0.395740 0.311783 -0.133873 -0.940675
0.493068 0.154708 0.256493 -0.543436 0.649130 0.532267
0.448771 0.631613 0.405585 0.180472 -0.100480 0.978434
0.172847 0.381392 0.405526 0.968142 -0.250328 -0.006021
0.541410 0.183994 0.539765 -0.552294 0.606924 -0.571502
0.456911 0.387604 0.602513 -0.205269 -0.318693 -0.925364
0.690120 0.527357 0.400059 0.414563 0.417799 0.808444
0.260521 0.086546 0.567536 0.483111 -0.028703 -0.875088
0.246032 0.066228 0.455163 0.314002 -0.932341 -0.179283
0.574557 0.617446 0.395923 0.223269 -0.108104 -0.968744
0.285609 0.550861 0.405585 0.618227 0.232885 0.750706
0.306987 0.180204 0.652181 0.168829 0.089917 -0.981535
0.313462 0.271328 0.635430 0.209270 -0.300645 -0.930494
0.231933 0.075744 0.531092 0.509440 -0.641624 -0.573402
0.736016 0.443638 0.438167 0.374200 0.193221 0.906995
0.519040 0.282135 0.605653 -0.386921 0.005374 -0.922097
0.922179 0.326317 0.395740 0.453414 -0.097325 0.885970
0.110668 0.166245 0.403250 0.981165 0.192444 0.016741
0.471585 0.503013 0.511436 -0.292202 -0.836898 -0.462839
0.552343 0.141443 0.354739 -0.526082 0.762138 0.377338
0.162137 0.276593 0.489159 -0.967086 -0.080176 0.241488
0.741937 0.447148 0.376853 0.166843 0.810889 -0.560912
0.130883 0.276366 0.367371 0.489559 -0.714318 0.500082
0.208987 0.389045 0.296536 0.803415 -0.277120 0.527000
0.539970 0.209768 0.242448 -0.568240 0.484557 0.665063
0.417439 0.293161 0.626896 -0.111573 -0.178891 -0.977522
0.484985 0.191499 0.190107 -0.507405 0.423342 0.750548
0.163913 0.164863 0.253145 0.776105 0.194044 0.600006
0.607302 0.172080 0.363339 -0.514112 0.690986 0.508161
0.283827 0.070187 0.266712 0.098351 -0.715911 0.691230
0.558090 0.508286 0.377747 -0.278475 -0.888107 0.365674
0.710119 0.333458 0.317997 -0.481296 -0.066944 0.873998
0.879162 0.334797 0.405585 0.742181 -0.352022 -0.570305
0.519458 0.417174 0.238042 -0.299662 -0.480732 0.824075
0.135886 0.267115 0.400293 0.921315 -0.388021 0.024873
0.349866 0.069284 0.282458 -0.272752 -0.739007 0.616015
0.374303 0.558718 0.395923 -0.611018 -0.517673 0.598893
0.195958 0.087197 0.293358 0.772735 -0.042267 0.633320
0.285803 0.341850 0.215908 0.448584 -0.287426 0.846262
0.534715 0.183781 0.266101 -0.564762 0.593279 0.573642
0.190115 0.075616 0.326398 0.621569 -0.669799 0.406227
0.177371 0.357812 0.312885 -0.880432 0.334346 -0.336231
0.307552 0.063387 0.049464 0.074618 0.838636 -0.539558
0.431300 0.098741 0.266713 -0.655213 0.523040 0.545092
0.430112 0.163310 0.628925 -0.405013 0.411319 -0.816567
0.109767 0.205866 0.424753 0.989563 -0.125394 -0.071007
0.452059 0.575653 0.395923 0.079704 -0.038791 0.996063
0.265316 0.068883 0.292806 0.195531 -0.835200 0.514013
0.283989 0.144242 0.637151 0.223372 0.399885 -0.888930
0.317741 0.040437 0.026549 -0.016934 0.773540 -0.633522
0.848185 0.353199 0.405585 0.222224 -0.124048 -0.967072
0.160206 0.083753 0.408726 0.948366 -0.315431 0.033252
0.330600 0.327230 0.196510 0.266171 -0.302721 0.915157
0.655450 0.480007 0.395923 0.256588 0.232083 0.938243
0.445190 0.162940 0.623294 -0.460727 0.454186 -0.762526
0.435832 0.177652 0.635267 -0.397515 0.314628 -0.861969
0.159900 0.180934 0.248618 0.788170 0.057594 0.612757
0.309397 0.089610 0.705667 -0.047020 -0.662370 -0.747700
0.040894 0.249317 0.450406 0.796453 -0.206476 -0.568358
0.475263 0.506170 0.318981 -0.298791 -0.840594 0.451804
0.481537 0.510935 0.479779 -0.291214 -0.856170 -0.426811
0.280240 0.154476 0.146958 0.514363 -0.763222 0.391054
0.543683 0.471530 0.510553 -0.365219 -0.750774 -0.550411
0.455220 0.099753 0.484701 -0.665552 0.634453 -0.393078
0.319308 0.105286 0.091363 -0.039207 0.741429 -0.669885
0.648196 0.251916 0.301511 -0.541746 0.455378 0.706500
0.430036 0.319469 0.620636 -0.123059 -0.178640 -0.976189
0.274287 0.579142 0.396674 -0.618537 -0.662152 -0.423045
0.838526 0.304415 0.395740 0.303505 -0.291745 -0.907067
0.301549 0.143157 0.171946 0.117984 0.432027 0.894110
0.478126 0.175058 0.607347 -0.546090 0.449037 -0.707214
0.721502 0.367247 0.331105 -0.435527 -0.220838 0.872666
0.127812 0.125502 0.403943 0.906737 0.421138 0.021698
0.180242 0.349862 0.473703 0.911124 -0.263013 -0.317296
0.300006 0.142149 0.142149 0.081019 -0.678054 0.730533
0.477272 0.561430 0.405585 0.221544 -0.367278 0.903341
0.793395 0.295493 0.395740 -0.012139 -0.079167 -0.996787
0.388902 0.540932 0.395923 -0.726563 -0.217677 -0.651708
0.209566 0.083462 0.527106 0.725663 -0.278509 -0.629163
0.376506 0.366848 0.194212 0.085805 -0.266245 0.960079
0.109942 0.253966 0.377059 0.876499 -0.268213 0.399764
0.668813 0.191539 0.409005 -0.589696 0.737689 0.328746
0.319107 0.536025 0.363237 0.292209 -0.940419 0.173857
0.174982 0.313314 0.295857 -0.867079 0.114212 -0.484902
0.616114 0.553364 0.405585 0.117718 0.083331 -0.989545
0.647027 0.490447 0.420671 -0.316109 -0.935369 -0.158620
0.268525 0.277445 0.201471 0.442525 -0.356953 0.822652
0.117224 0.174507 0.437968 0.560610 -0.815076 -0.146179
0.311811 0.695032 0.401345 0.363566 0.220587 0.905075
0.762168 0.264703 0.436872 0.675765 -0.492248 0.548665
0.839763 0.385044 0.395740 0.821434 -0.349802 -0.450427
0.505689 0.154628 0.270512 -0.548219 0.642965 0.534838
0.460450 0.084219 0.403905 -0.776186 0.604626 -0.178783
0.848477 0.210489 0.396996 -0.391807 -0.581215 -0.713215
0.938826 0.506260 0.405585 0.309818 -0.043890 -0.949782
0.300384 0.068734 0.285176 0.014848 -0.779399 0.626351
0.288516 0.228901 0.643326 0.272843 -0.174242 -0.946148
0.856809 0.272817 0.395740 0.420064 -0.538258 -0.730633
0.340196 0.090164 0.227217 -0.184174 0.322580 0.928452
0.574038 0.160599 0.332964 -0.528579 0.746429 0.404287
0.397506 0.093082 0.570746 -0.413264 0.484934 -0.770748
0.286070 0.413207 0.576278 0.436055 -0.350937 -0.828673
0.860541 0.323100 0.405585 0.431938 -0.309820 -0.847019
0.264822 0.308918 0.586615 0.529361 -0.337405 -0.778418
0.241843 0.458330 0.295979 0.661429 -0.497862 0.560933
0.509645 0.130108 0.317759 -0.545082 0.750241 0.374197
0.247212 0.067551 0.326741 0.281628 -0.895387 0.344917
0.448402 0.382619 0.606530 -0.184984 -0.299809 -0.935893
0.290197 0.074074 0.554022 0.193178 -0.664003 -0.722345
0.286922 0.119545 0.119545 0.521820 -0.526599 0.671117
0.287965 0.086497 0.722703 0.780682 0.509798 -0.361443
0.735152 0.253324 0.365591 0.198674 -0.970980 -0.133138
0.439880 0.160326 0.623671 -0.446123 0.460100 -0.767648
0.569861 0.543214 0.395923 0.040096 -0.091658 0.994983
0.493287 0.227726 0.617500 -0.453585 0.144630 -0.879399
0.158651 0.287598 0.313190 -0.949061 -0.000195 -0.315093
0.213443 0.319313 0.538795 0.740654 -0.329767 -0.585394
0.470486 0.531638 0.378775 -0.217823 -0.929456 0.297767
0.288043 0.119469 0.191141 0.141448 0.570812 0.808806
0.419022 0.495915 0.539615 -0.166102 -0.746124 -0.644755
0.537466 0.163895 0.285801 -0.548610 0.636963 0.541576
0.140520 0.242392 0.307745 0.839823 -0.389915 0.377709
0.263766 0.064083 0.384862 0.201870 -0.974210 0.100808
0.136800 0.117981 0.446339 0.884160 0.443142 -0.147939
0.762044 0.316493 0.468444 -0.577491 0.043148 -0.815256
0.503253 0.513227 0.395923 0.006853 -0.015937 0.999850
0.639832 0.291075 0.272892 -0.532128 0.090103 0.841856
0.124256 0.246329 0.437243 0.911147 -0.394152 -0.120229
0.594116 0.388103 0.258234 -0.448164 -0.343132 0.825476
0.078805 0.165411 0.378383 0.093811 0.187329 0.977807
0.328758 0.507210 0.281825 0.209483 -0.775967 0.594972
0.297959 0.523989 0.405585 0.349327 0.079227 0.933645
0.719056 0.505568 0.395923 0.585126 0.774472 0.240457
0.213010 0.459052 0.342424 0.805144 -0.499609 0.319585
0.210209 0.243804 0.215984 0.595046 -0.356097 0.720496
0.631094 0.420881 0.298733 -0.447041 -0.528491 0.721700
0.772071 0.344922 0.452806 -0.712839 -0.118804 -0.691191
0.556332 0.204064 0.548027 -0.565760 0.527080 -0.634115
0.164906 0.291460 0.496700 -0.952732 0.031912 0.302132
0.532280 0.671459 0.395923 0.085148 -0.996327 0.009134
0.745178 0.302281 0.475570 -0.569463 0.126442 -0.812234
0.195088 0.407998 0.476348 0.879788 -0.306925 -0.363002
0.193675 0.359273 0.501471 0.856845 -0.242428 -0.455022
0.526297 0.116219 0.442131 -0.498481 0.815833 -0.293145
0.334297 0.353612 0.612756 0.244258 -0.254657 -0.935675
0.205487 0.194951 0.607917 0.613786 -0.075565 -0.785848
0.134035 0.263939 0.397003 0.920458 -0.388849 0.039406
0.611955 0.429670 0.519000 -0.428553 -0.521227 -0.738014
0.259532 0.126137 0.619188 0.314162 0.514394 -0.797936
0.530565 0.151268 0.292960 -0.535238 0.721573 0.439150
0.632224 0.165400 0.408750 -0.571060 0.806792 0.151582
0.573395 0.575641 0.395923 0.474541 -0.336408 -0.813413
0.107982 0.207934 0.406774 0.989888 -0.141849 -0.000490
0.838903 0.398070 0.405585 0.791415 -0.320854 -0.520303
0.468151 0.518077 0.476333 -0.278043 -0.873118 -0.400446
0.829926 0.246572 0.405585 -0.558279 -0.644501 -0.522439
0.186801 0.146220 0.235116 0.693615 0.339333 0.635414
0.296797 0.068912 0.283124 0.034294 -0.772974 0.633510
0.285041 0.489140 0.525459 0.399955 -0.677133 -0.617679
0.509821 0.615956 0.405585 0.025190 -0.242905 -0.969723
0.489211 0.265697 0.614530 -0.361831 0.014661 -0.932128
0.577275 0.185715 0.515287 -0.552103 0.651321 -0.520541
0.169285 0.331379 0.500679 -0.917055 0.191330 0.349861
0.957962 0.526664 0.395740 0.262464 0.059379 -0.963113
0.257329 0.597826 0.400494 -0.411865 -0.536529 -0.736549
0.439428 0.442335 0.579428 -0.184939 -0.517811 -0.835266
0.146346 0.303254 0.481228 -0.959599 0.150774 0.237566
0.108893 0.195716 0.436037 0.992639 -0.040761 -0.114045
0.662285 0.412580 0.316264 -0.458513 -0.515441 0.723938
0.651896 0.439644 0.330683 -0.422257 -0.634448 0.647437
0.272866 0.085305 0.723895 0.926210 0.365697 0.091653
0.082569 0.258506 0.337257 0.195323 -0.572704 0.796153
0.441521 0.527991 0.467652 -0.240913 -0.906708 -0.346181
0.667399 0.473046 0.438615 -0.198441 -0.979918 0.019522
0.400065 0.071681 0.401958 -0.977750 0.091401 -0.188813
0.503201 0.705034 0.399988 -0.078470 -0.383781 0.920084
0.879651 0.294618 0.405585 0.279613 -0.081157 0.956677
0.443063 0.518107 0.310407 -0.249239 -0.855994 0.452940
0.852410 0.204460 0.397862 -0.246466 -0.586682 -0.771400
0.479416 0.183658 0.192250 -0.509616 0.466738 0.722805
0.507219 0.515695 0.351363 -0.279002 -0.874877 0.395914
0.215698 0.222272 0.606904 0.571274 -0.234080 -0.786672
0.464360 0.158390 0.604514 -0.523278 0.533241 -0.664706
0.183225 0.280252 0.283214 0.775621 -0.376295 0.506768
0.203478 0.447433 0.460054 0.841394 -0.449165 -0.300510
0.449293 0.112779 0.552355 -0.590498 0.683222 -0.429558
0.268974 0.523189 0.408620 0.461847 -0.886185 -0.037058
0.303870 0.064794 0.744406 0.166033 -0.426300 -0.889214
0.428497 0.496468 0.536525 -0.183707 -0.756919 -0.627157
0.354833 0.664180 0.405585 0.389688 0.289692 0.874198
0.781558 0.437723 0.422048 0.228583 -0.122502 0.965786
0.474939 0.485972 0.279903 -0.285331 -0.738840 0.610493
0.552892 0.374942 0.230959 -0.357812 -0.314150 0.879364
0.831029 0.375552 0.405585 0.485278 -0.251345 -0.837455
0.388410 0.311078 0.186086 0.031924 -0.275890 0.960659
0.483059 0.202332 0.622632 -0.505264 0.280145 -0.816227
0.532475 0.631308 0.395923 0.093857 -0.155180 -0.983418
0.428458 0.471893 0.561955 -0.172938 -0.624592 -0.761562
0.545620 0.160902 0.295175 -0.542765 0.688112 0.481569
0.197002 0.068949 0.434460 0.498222 -0.864231 -0.069853
0.116172 0.224821 0.320737 0.233769 -0.229686 0.944773
0.698290 0.466144 0.405585 0.284454 0.060300 0.956791
0.360141 0.087363 0.575171 -0.220542 0.153306 -0.963254
0.436969 0.361412 0.196362 -0.126736 -0.276454 0.952634
0.383217 0.072537 0.491886 -0.355898 -0.807543 -0.470331
0.504644 0.685707 0.405585 -0.102694 -0.482458 0.869878
0.427520 0.541867 0.379284 -0.166621 -0.962180 0.215517
0.411186 0.095271 0.247157 -0.568723 0.528159 0.630557
0.611869 0.386285 0.543297 -0.469536 -0.317533 -0.823838
0.307941 0.195081 0.652823 0.174331 -0.006173 -0.984668
0.760764 0.324696 0.344051 -0.547585 0.043963 0.835594
0.293513 0.557043 0.404966 -0.254679 -0.594287 0.762864
0.301320 0.132715 0.132715 0.125755 -0.664710 0.736442
0.790102 0.417933 0.396990 0.425156 -0.230348 -0.875318
0.768803 0.451852 0.412776 0.171937 -0.084333 0.981492
0.168832 0.339197 0.499495 -0.847024 0.405293 0.343929
0.778260 0.266120 0.414939 -0.296498 0.812344 0.502181
0.434181 0.449626 0.575781 -0.177739 -0.543820 -0.820164
0.429880 0.168158 0.177829 -0.360965 0.444665 0.819742
0.401825 0.359444 0.619414 -0.023279 -0.234061 -0.971943
0.610662 0.408057 0.278686 -0.452557 -0.448270 0.770874
0.838171 0.464790 0.395740 0.298935 -0.238560 -0.923974
0.522548 0.437440 0.558413 -0.329911 -0.538495 -0.775359
0.506476 0.468005 0.540419 -0.313244 -0.670073 -0.672964
0.399083 0.071647 0.414990 -0.936048 -0.066173 -0.345594
0.729217 0.286416 0.478382 -0.560544 0.234990 -0.794085
0.280890 0.423731 0.569221 0.457398 -0.374593 -0.806516
0.499331 0.340141 0.207077 -0.266155 -0.242713 0.932873
0.354345 0.065743 0.400221 -0.499799 -0.866116 -0.006578
0.705394 0.327546 0.314052 -0.491045 -0.044989 0.869972
0.445315 0.517389 0.315243 -0.265961 -0.859190 0.437101
0.521245 0.456601 0.273673 -0.311836 -0.669596 0.674091
0.916999 0.329016 0.395740 0.395420 -0.102638 0.912748
0.094039 0.286538 0.376817 -0.097603 -0.957446 0.271606
0.746196 0.425596 0.448834 -0.452713 -0.751849 -0.479348
0.226000 0.476787 0.332719 0.729015 -0.577816 0.366968
