0.117644 0.096017 0.629409 0.737041 -0.675800 -0.008094
0.090572 0.252130 0.230064 -0.896197 0.438162 -0.069601
0.082488 0.194105 0.251546 -0.971288 -0.219195 -0.092488
0.099696 0.176858 0.125150 0.995895 -0.079961 -0.042416
0.135781 0.179117 0.849793 0.969496 -0.064738 0.236402
0.047945 0.214084 0.673597 -0.992310 0.111579 -0.053589
0.045225 0.210894 0.792289 -0.983619 0.176192 0.038088
0.137374 0.137234 0.791722 0.741204 -0.493036 0.455557
0.047617 0.174475 0.666990 -0.995557 -0.081927 -0.046409
0.091971 0.085684 0.654236 -0.185213 -0.980924 0.059030
0.142669 0.189107 0.606703 0.998411 0.012338 -0.054988
0.060622 0.255621 0.614341 -0.945332 0.323504 -0.041142
0.107738 0.244958 0.257433 0.940105 0.327844 -0.093388
0.098569 0.359757 0.495935 0.996927 0.002664 -0.078294
0.122991 0.201274 0.363040 0.993718 0.000282 -0.111914
0.121540 0.192410 0.351990 0.992389 -0.037638 -0.117252
0.057403 0.205857 0.844295 -0.972626 0.086107 0.215834
0.084589 0.281839 0.429271 -0.724688 0.675649 -0.135373
0.081294 0.218406 0.250198 -0.995411 0.041464 -0.086239
0.110514 0.188158 0.959552 0.873937 0.109998 0.473429
0.075774 0.267738 0.430914 -0.907237 0.409826 -0.094679
0.055515 0.247768 0.665258 -0.953633 0.298018 -0.042063
0.061648 0.252339 0.565143 -0.955732 0.290491 -0.046809
0.120426 0.286489 0.663216 0.842311 0.538882 0.010896
0.068982 0.191860 0.901098 -0.936276 0.269975 0.224726
0.081279 0.229580 0.261080 -0.982456 0.159437 -0.096746
0.075953 0.277543 0.478423 -0.884366 0.459930 -0.079753
0.127987 0.126448 0.523568 0.925045 -0.372144 -0.076166
0.056901 0.227466 0.817401 -0.957219 0.264890 0.116472
0.077395 0.090360 0.510657 -0.975746 0.201661 0.085162
0.097290 0.145062 0.071055 0.999636 -0.004223 -0.026653
0.109898 0.133093 0.383129 0.861338 -0.460649 -0.214241
0.096795 0.106933 0.300272 0.999511 -0.000543 -0.031249
0.141100 0.207686 0.587998 0.995829 0.073658 -0.053841
0.080559 0.156140 0.353438 -0.913813 -0.363156 -0.181836
0.094715 0.247907 0.878681 -0.025959 0.928345 0.370813
0.080207 0.260390 0.362443 -0.897118 0.428649 -0.106954
0.137409 0.246728 0.650906 0.955631 0.290904 -0.046309
0.097083 0.284579 0.297140 0.999643 -0.020592 -0.017041
0.142244 0.203442 0.797146 0.992252 0.061530 0.107933
0.101786 0.244359 0.138553 0.993939 0.103822 -0.036150
0.055702 0.170238 0.813051 0.925089 0.080429 -0.371135
0.059982 0.156590 0.477895 -0.983263 -0.158262 -0.090258
0.131131 0.245713 0.520376 0.967671 0.245717 -0.056890
0.104599 0.185405 0.202106 0.957026 -0.284974 -0.053758
0.120587 0.246627 0.861984 0.721241 0.650417 0.238262
0.083170 0.099333 0.758611 -0.457940 -0.880138 0.125095
0.092452 0.319065 0.583788 -0.993112 -0.086495 -0.079035
0.119452 0.273688 0.479516 0.912378 0.403474 -0.069110
0.130800 0.218935 0.447360 0.990480 0.109475 -0.083451
0.116455 0.246521 0.344292 0.945083 0.311375 -0.099316
0.082548 0.168933 0.937469 0.146480 -0.949525 0.277393
0.127588 0.274077 0.707481 0.865265 0.500602 0.026715
0.145539 0.182282 0.813108 0.967028 -0.001114 0.254667
0.066988 0.251895 0.825049 -0.807077 0.546317 0.223974
0.126802 0.246055 0.837709 0.827719 0.522986 0.203387
0.138235 0.195087 0.528838 0.997378 0.036898 -0.062261
0.143869 0.174671 0.779105 0.990872 -0.099779 0.090651
0.066932 0.222411 0.402053 -0.990467 0.101367 -0.093273
0.139058 0.247708 0.724518 0.940347 0.338950 0.029333
0.069597 0.108351 0.723239 -0.804473 -0.590785 0.061612
0.135401 0.180034 0.851582 0.970341 -0.064040 0.233105
0.087048 0.218406 0.179942 -0.995605 0.060464 -0.071520
0.107958 0.126384 0.390265 0.806601 -0.542686 -0.234281
0.118579 0.148729 0.901289 0.941772 -0.202599 0.268364
0.133971 0.194825 0.467121 0.996088 0.031875 -0.082415
0.123889 0.075500 0.474289 0.963652 0.267118 0.004700
0.137144 0.172886 0.510934 0.996768 -0.042122 -0.068401
0.097091 0.301327 0.475121 0.997150 -0.067487 -0.033724
0.105013 0.292599 0.736739 0.332848 0.920358 0.205312
0.141493 0.205995 0.594470 0.996214 0.068004 -0.054150
0.084820 0.091263 0.689303 -0.430827 -0.898681 0.082221
0.136412 0.254731 0.693723 0.930351 0.366456 -0.012512
0.125695 0.163727 0.897085 0.963620 0.248149 0.099290
0.086215 0.178035 0.260282 -0.925070 -0.363526 -0.109978
0.096107 0.298794 0.063443 -0.999553 0.002901 -0.029742
0.095634 0.150556 0.318755 -0.993888 0.108750 -0.018994
0.096343 0.080174 0.331808 -0.998848 -0.039991 0.026519
0.083176 0.175581 0.292877 -0.932899 -0.336269 -0.128931
0.090481 0.176475 0.226577 -0.841672 -0.530672 -0.099882
0.052736 0.168687 0.805952 -0.988822 -0.110042 0.100611
0.097162 0.285794 0.115868 0.673968 0.661983 0.327941
0.047644 0.223053 0.714999 -0.984798 0.173673 0.003370
0.075743 0.283730 0.530420 -0.870891 0.488746 -0.051732
0.109408 0.302116 0.625104 0.670710 0.741669 -0.008666
0.096012 0.297365 0.296244 -0.998665 0.016048 -0.049105
0.075722 0.260485 0.403876 -0.919810 0.379865 -0.098249
0.035325 0.156126 0.720159 -0.894457 0.348129 0.280631
0.126891 0.269575 0.602087 0.922945 0.383357 -0.034785
0.096726 0.174405 0.206253 0.040420 -0.997628 -0.055713
0.141831 0.226020 0.640810 0.984279 0.167267 -0.056715
0.088535 0.270372 0.351685 -0.663818 0.735424 -0.136006
0.037084 0.120166 0.740788 0.931157 -0.215324 -0.294250
0.071639 0.231795 0.888191 -0.832034 0.480044 0.277987
0.128613 0.205267 0.902147 0.818619 0.561796 0.119362
0.142245 0.225974 0.647877 0.983759 0.169752 -0.058333
0.057682 0.137104 0.747719 -0.928408 -0.368242 0.049563
0.129755 0.222470 0.438835 0.989046 0.121094 -0.084409
0.140181 0.185707 0.557644 0.998411 0.005480 -0.056090
0.111221 0.171419 0.932610 -0.983511 -0.072782 -0.165559
0.135356 0.155929 0.814194 -0.872165 0.300641 -0.385931
0.055086 0.152924 0.802360 0.794644 0.203513 -0.571947
0.106364 0.220399 0.181872 0.994159 0.078193 -0.074392
0.095488 0.128726 0.320303 -0.999346 -0.035942 0.003857
0.095744 0.199339 0.078066 -0.995865 -0.016915 -0.089255
0.103152 0.229222 0.142065 0.996302 0.047737 -0.071433
0.070887 0.139718 0.880567 -0.275759 -0.728192 0.627450
0.116666 0.098368 0.565254 0.781600 -0.621191 -0.056774
0.056334 0.137052 0.634703 -0.954220 -0.298492 -0.019134
0.096564 0.247917 0.052011 -0.998051 -0.005006 -0.062207
0.131988 0.143151 0.803124 -0.931939 0.077769 -0.354177
0.107167 0.189045 0.223118 0.960424 -0.268725 -0.073296
0.050249 0.208431 0.784535 -0.988945 0.105642 0.104056
0.064181 0.229974 0.444564 -0.984080 0.158980 -0.079442
0.109922 0.179125 0.281662 0.937823 -0.326627 -0.117488
0.081881 0.273713 0.407681 -0.821025 0.558168 -0.119859
0.079638 0.218319 0.269891 -0.995942 0.020285 -0.087686
0.057768 0.257485 0.699244 -0.925902 0.377759 -0.001811
0.125840 0.229363 0.405719 0.985840 0.141437 -0.090081
0.111364 0.098040 0.508100 0.714602 -0.691107 -0.108235
0.084057 0.205956 0.214984 -0.996585 -0.026574 -0.078180
0.132015 0.230649 0.485725 0.983325 0.168560 -0.068264
0.115137 0.097889 0.712154 0.614421 -0.785278 0.076316
0.108286 0.191559 0.228405 0.966058 -0.246754 -0.076446
0.135997 0.183391 0.849931 0.971604 -0.047599 0.231776
0.129917 0.203341 0.425150 0.994220 0.043658 -0.098089
0.127208 0.199367 0.399568 0.993944 0.017641 -0.108459
0.093905 0.345506 0.530053 -0.997707 -0.050483 -0.045091
0.049983 0.165028 0.767383 -0.978994 -0.193351 0.064708
0.125662 0.112483 0.583689 0.891097 -0.451744 -0.043290
0.088693 0.104070 0.799797 -0.299797 -0.940851 0.157867
0.096804 0.147220 0.048657 0.999354 0.003146 -0.035809
0.105289 0.093294 0.722548 0.283034 -0.953153 0.106734
0.067910 0.197611 0.383507 -0.993232 -0.007981 -0.115870
0.069010 0.277727 0.725916 -0.820350 0.566543 0.077814
0.095316 0.140136 0.340202 -0.999909 -0.012322 0.005493
0.096438 0.094205 0.311294 -0.999901 0.009041 -0.010785
0.052670 0.150189 0.634711 -0.975667 -0.217413 -0.028379
0.082398 0.094061 0.533128 -0.658503 -0.748208 -0.080982
0.117994 0.104054 0.529141 0.839490 -0.537724 -0.078161
0.126705 0.215093 0.400029 0.992727 0.067514 -0.099670
0.121832 0.282473 0.619814 0.886863 0.461236 -0.027113
0.094844 0.266760 0.092465 -0.998069 0.019058 -0.059118
0.096461 0.110594 0.318911 -0.999854 -0.016769 0.003255
0.098145 0.177508 0.089538 0.997571 -0.032140 -0.061791
0.034405 0.127114 0.733840 -0.943641 0.080918 0.320926
0.125586 0.277975 0.683323 0.869876 0.493237 0.005797
0.100262 0.172407 0.150035 0.979951 -0.199208 0.003465
0.127860 0.261768 0.549424 0.941368 0.334257 -0.045808
0.139563 0.158374 0.571714 0.990057 -0.130990 -0.051279
0.090340 0.099069 0.458130 -0.487791 -0.851375 -0.192929
0.141022 0.221316 0.816008 0.950850 0.227983 0.209543
0.117933 0.156240 0.905287 0.269559 0.945407 -0.183151
0.079112 0.115059 0.451676 -0.848877 -0.506354 -0.151701
0.139030 0.174768 0.540451 0.997708 -0.034237 -0.058364
0.099065 0.330033 0.538235 0.998253 -0.044400 -0.038986
0.079946 0.295831 0.681882 -0.695527 0.715776 0.062508
0.096612 0.327303 0.031811 -0.983719 0.171830 0.052633
0.062943 0.267517 0.667958 -0.913439 0.406213 -0.024894
0.132363 0.212031 0.866773 0.981558 0.118821 0.149750
0.096706 0.309133 0.657580 0.019642 0.998085 0.058658
0.046506 0.162286 0.795845 -0.415868 -0.420087 -0.806586
0.128439 0.056052 0.476131 -0.961976 -0.269374 -0.045156
0.065667 0.228513 0.424548 -0.985810 0.143967 -0.086331
0.142701 0.208465 0.817561 0.968603 0.109813 0.223046
0.128109 0.152069 0.881236 0.968682 -0.140286 0.204877
0.128331 0.229065 0.433721 0.985107 0.150054 -0.083953
0.122872 0.103100 0.637671 0.837656 -0.546172 -0.005366
0.073100 0.273123 0.487976 -0.913926 0.400202 -0.067667
0.102753 0.282554 0.775222 0.218334 0.933135 0.285637
0.142842 0.210710 0.785185 0.989119 0.106375 0.101624
0.092906 0.177857 0.139205 -0.993538 -0.105718 -0.041313
0.071215 0.152553 0.406894 -0.931440 -0.321823 -0.169853
0.093000 0.189386 0.121315 -0.995645 -0.066794 -0.065043
0.145519 0.172508 0.812142 0.960165 -0.076682 0.268707
0.131179 0.224182 0.456876 0.987942 0.133940 -0.077657
0.103094 0.301657 0.529262 0.415623 0.906209 -0.077733
0.087174 0.117903 0.403730 -0.730223 -0.645667 -0.223359
0.077650 0.293278 0.604493 -0.829995 0.556804 -0.032838
0.095356 0.088702 0.697697 -0.065304 -0.992956 0.098865
0.142885 0.196371 0.615652 0.997818 0.035742 -0.055508
0.139707 0.166889 0.558612 0.996034 -0.069816 -0.055147
0.117732 0.170098 0.355303 0.942272 -0.291760 -0.164315
0.088643 0.239103 0.199110 -0.975174 0.215920 -0.049130
0.072126 0.069348 0.497273 -0.980151 0.190432 0.055135
0.096618 0.293001 0.462308 -0.985233 -0.135003 -0.105311
0.063999 0.205397 0.419920 -0.994309 0.041268 -0.098218
0.113273 0.206863 0.266047 0.996033 -0.029909 -0.083807
0.095534 0.128367 0.309825 -0.999717 -0.021314 -0.010556
0.117000 0.150590 0.383308 0.923669 -0.336095 -0.184056
0.120858 0.084079 0.472620 -0.964547 -0.251350 -0.080453
0.118822 0.144855 0.402780 0.921853 -0.345734 -0.175084
0.147673 0.208909 0.721927 0.996080 0.087477 0.013116
0.129936 0.155154 0.448372 0.970360 -0.208694 -0.121853
0.045375 0.182540 0.731912 -0.997682 -0.062319 0.027335
0.106278 0.201398 0.179577 0.994067 -0.073862 -0.079849
0.133757 0.159677 0.478516 0.986819 -0.134052 -0.090655
0.086294 0.265942 0.340997 -0.791257 0.599603 -0.119953
0.061802 0.251034 0.554099 -0.958751 0.279900 -0.049514
0.093475 0.084793 0.573866 -0.157055 -0.986421 -0.048043
0.088604 0.254000 0.262883 -0.890546 0.446285 -0.088082
0.061785 0.121501 0.627151 -0.925797 -0.377561 -0.018648
0.118003 0.275166 0.469613 0.900498 0.428019 -0.076828
0.068305 0.245545 0.844287 -0.815014 0.533280 0.226637
0.053752 0.234359 0.632956 -0.976356 0.209878 -0.051765
0.047866 0.199652 0.767701 -0.994445 0.056372 0.088893
0.113330 0.226032 0.268540 0.989256 0.112513 -0.093344
0.045156 0.185607 0.710589 -0.999142 -0.039213 -0.013358
0.113747 0.103046 0.510420 -0.950994 -0.309039 0.010269
0.098097 0.112957 0.857929 0.125287 -0.968789 0.213894
0.097946 0.182400 0.084266 0.997843 -0.019107 -0.062808
0.122799 0.242293 0.398277 0.969554 0.228068 -0.089164
0.106232 0.151534 0.331299 0.833754 -0.510341 -0.210729
0.107309 0.176375 0.269015 0.914265 -0.387557 -0.117977
0.066259 0.241674 0.445365 -0.972638 0.219010 -0.077529
0.132926 0.127708 0.610700 0.933012 -0.358335 -0.032944
0.112342 0.268828 0.392861 0.847373 0.517319 -0.119750
0.073167 0.286841 0.689944 -0.810663 0.584320 0.037357
0.096248 0.280128 0.125717 -0.287821 0.851703 0.437905
0.050575 0.209766 0.813930 -0.961324 0.136740 0.239079
0.066640 0.206890 0.890132 -0.955326 -0.016732 0.295081
0.116008 0.218673 0.296083 0.995873 0.011136 -0.090069
0.129097 0.265821 0.619357 0.927821 0.371361 -0.035213
0.096864 0.286284 0.047927 0.961790 -0.029159 -0.272231
0.122734 0.252444 0.426643 0.953091 0.290542 -0.084872
0.095882 0.258989 0.069567 -0.998035 -0.001210 -0.062643
0.108804 0.220026 0.213484 0.991416 0.100591 -0.083516
0.158434 0.147251 0.725492 -0.918501 -0.219991 -0.328573
0.069995 0.214016 0.366887 -0.993938 0.026233 -0.106770
0.112902 0.169312 0.923383 -0.981141 -0.137391 -0.135966
0.118669 0.175793 0.351409 0.951310 -0.264985 -0.157457
0.070800 0.218298 0.360821 -0.993571 0.044713 -0.104010
0.059461 0.221509 0.808410 0.911590 -0.176313 -0.371372
0.107025 0.233087 0.217795 0.974349 0.212092 -0.075234
0.068042 0.159244 0.411438 -0.950232 -0.267490 -0.159715
0.075617 0.095600 0.625647 -0.731050 -0.682301 -0.005620
0.050949 0.199206 0.819676 -0.964571 0.078833 0.251771
0.097726 0.117974 0.875041 0.059369 -0.951211 0.302776
0.107109 0.121078 0.399172 0.773272 -0.589962 -0.232369
0.057579 0.256442 0.721976 -0.921235 0.387578 0.033320
0.053318 0.144769 0.682219 -0.954749 -0.297408 -0.001826
0.102423 0.175753 0.229905 0.811467 -0.576757 -0.094193
0.122557 0.113715 0.771813 0.794426 -0.600036 0.094041
0.048967 0.186713 0.636709 -0.998388 -0.003711 -0.056638
0.069553 0.269443 0.526079 -0.925271 0.375718 -0.052054
0.119282 0.100933 0.695565 0.734665 -0.676422 0.052157
0.123660 0.230957 0.384067 0.984571 0.148116 -0.093177
0.108429 0.172237 0.289894 0.914417 -0.381471 -0.135356
0.138620 0.225729 0.802580 0.971374 0.210169 0.110730
0.072067 0.135466 0.863388 -0.817781 -0.535854 0.209985
0.086193 0.287276 0.447517 -0.649459 0.747560 -0.139130
0.071402 0.101622 0.607467 -0.833722 -0.551460 -0.028259
0.128699 0.117269 0.711925 0.880698 -0.472265 0.036566
0.130669 0.259821 0.597051 0.940080 0.338620 -0.039820
0.119618 0.208621 0.333184 0.994551 0.002671 -0.104215
0.071865 0.282618 0.612649 -0.883496 0.467179 -0.034339
0.097361 0.275762 0.070805 0.998659 0.005385 -0.051490
0.127502 0.261820 0.541863 0.941934 0.332474 -0.047129
0.094586 0.225755 0.090893 -0.997617 -0.002056 -0.068969
0.051218 0.151667 0.684418 -0.964988 -0.262165 -0.008192
0.120202 0.085095 0.477188 -0.962773 -0.260344 -0.072725
0.053563 0.236192 0.644991 -0.972830 0.225503 -0.052442
0.139532 0.148702 0.799932 -0.332362 -0.105448 -0.937238
0.123067 0.268584 0.507246 0.929456 0.364756 -0.055351
0.100581 0.340575 0.555592 0.885695 0.411734 0.214519
0.128489 0.188406 0.891392 0.967156 0.101632 0.232980
0.030355 0.148745 0.710229 0.920517 -0.226744 -0.318176
0.086095 0.253392 0.284902 -0.896814 0.431795 -0.096319
0.077719 0.100406 0.527999 -0.785592 -0.613190 -0.082718
0.060385 0.174414 0.856714 -0.971499 -0.081705 0.222517
0.114715 0.126440 0.841528 -0.886980 0.323839 -0.329234
0.078876 0.091481 0.497124 0.964611 -0.263575 -0.007388
0.097817 0.144664 0.093568 0.987340 -0.152333 0.044217
0.110605 0.089238 0.658753 0.527420 -0.848269 0.047624
0.100959 0.139307 0.872862 -0.061989 0.960814 -0.270174
0.050143 0.222478 0.656582 -0.986862 0.151559 -0.055971
0.131763 0.243942 0.820169 0.875588 0.448261 0.180020
0.092161 0.250827 0.139362 -0.995102 0.096061 -0.023337
0.122509 0.163216 0.909977 0.915567 -0.321521 0.241580
0.088845 0.242111 0.208994 -0.962794 0.263435 -0.060245
0.096624 0.237224 0.053020 -0.995889 -0.005715 -0.090397
0.148671 0.176296 0.789993 -0.211596 -0.190079 -0.958696
0.093364 0.318698 0.571708 -0.995733 -0.070460 -0.059584
0.144569 0.195632 0.642654 0.997482 0.034317 -0.062063
0.078974 0.252014 0.343740 -0.927365 0.360033 -0.101838
0.096977 0.150667 0.303604 0.083116 -0.945536 -0.314726
0.124616 0.194315 0.377190 0.993104 -0.014296 -0.116362
0.137633 0.151047 0.803187 0.954811 -0.288218 0.072577
0.063660 0.155327 0.446671 -0.968814 -0.216318 -0.120857
0.043226 0.183283 0.792751 -0.957244 -0.109073 -0.267931
0.062046 0.261580 0.751114 -0.884298 0.457588 0.092897
0.096247 0.298148 0.480022 -0.049875 0.988178 -0.144968
0.071126 0.283004 0.699703 -0.821111 0.569138 0.043102
0.096638 0.292221 0.461830 -0.985009 -0.134932 -0.107476
0.115916 0.098180 0.556165 0.774457 -0.629554 -0.062275
0.147408 0.172742 0.721714 0.992025 -0.124819 0.017483
0.096708 0.325341 0.042577 0.524253 0.769055 0.365668
0.117963 0.111751 0.795356 0.700054 -0.703942 0.119958
0.145260 0.184117 0.813945 0.967572 0.008401 0.252455
0.107247 0.268345 0.814777 0.301371 0.900455 0.313618
0.050013 0.190478 0.620551 -0.998406 0.015103 -0.054385
0.067805 0.252550 0.827133 -0.794287 0.562620 0.229274
0.099707 0.175428 0.209079 0.633964 -0.770175 -0.070140
0.061248 0.155499 0.847452 -0.957197 -0.222920 0.184610
0.136837 0.253859 0.696953 0.931753 0.362965 -0.009607
0.044284 0.130857 0.761932 -0.940522 -0.003850 0.339712
0.118936 0.121882 0.829616 0.671190 -0.739806 -0.046819
0.051585 0.224179 0.636145 -0.987391 0.147542 -0.057355
0.086447 0.088839 0.669665 -0.386568 -0.919488 0.071456
0.125714 0.149651 0.431023 0.944223 -0.293136 -0.150048
0.101330 0.304579 0.561913 0.296963 0.952961 -0.060650
0.089297 0.109318 0.830656 -0.299091 -0.938098 0.174690
0.103086 0.216390 0.138538 0.996285 0.006880 -0.085843
0.054489 0.150709 0.780426 -0.949726 -0.307536 0.058665
0.063883 0.135227 0.820008 -0.826771 -0.547366 0.129769
0.107207 0.236833 0.229744 0.965318 0.248056 -0.081420
0.123727 0.127278 0.822910 0.709850 -0.703526 -0.034124
0.098083 0.308914 0.629285 0.095853 0.995396 0.000085
0.116057 0.132186 0.413215 0.898388 -0.403114 -0.174350
0.141254 0.229980 0.768780 0.968202 0.233114 0.090790
0.131397 0.178215 0.872204 0.986322 -0.062300 0.152606
0.049049 0.203275 0.778240 -0.992214 0.075627 0.098955
0.074194 0.233296 0.339098 -0.982343 0.160786 -0.095652
0.061697 0.259341 0.618346 -0.938031 0.344283 -0.039579
0.113030 0.095778 0.712734 0.551518 -0.830036 0.082873
0.095374 0.135305 0.337119 -0.999298 -0.035141 0.013004
0.068268 0.163514 0.893211 -0.940293 -0.284358 0.187055
0.045123 0.153045 0.756581 -0.951970 0.044376 0.302958
0.125045 0.109772 0.702526 0.837474 -0.545047 0.039514
0.115544 0.217693 0.290742 0.996056 0.004171 -0.088626
0.124475 0.075426 0.463625 0.975207 0.201641 0.091173
0.056173 0.179839 0.508485 -0.997659 -0.013484 -0.067044
0.093013 0.251240 0.185954 -0.890452 0.453757 0.034646
0.138498 0.231997 0.791304 0.961148 0.254715 0.106368
0.080902 0.241260 0.290173 -0.954605 0.280759 -0.099521
0.065864 0.214312 0.887491 -0.963553 0.111644 0.243107
0.097268 0.141208 0.352095 0.992842 0.101511 -0.062930
0.077396 0.151274 0.376958 -0.922353 -0.340994 -0.181627
0.096812 0.085227 0.310364 0.999823 -0.011565 -0.014820
0.075504 0.080080 0.481171 0.971235 -0.234944 -0.038787
0.076792 0.132386 0.841458 0.901462 0.295245 -0.316540
0.119245 0.152672 0.391566 0.929567 -0.322668 -0.178302
0.094826 0.322098 0.524329 -0.999102 -0.032486 -0.027217
0.059193 0.138511 0.547841 -0.956846 -0.285091 -0.056285
0.073219 0.204540 0.338094 -0.993946 -0.013059 -0.109095
0.096862 0.109371 0.302171 0.999493 0.002325 -0.031741
0.109466 0.102047 0.780216 0.427519 -0.893368 0.138276
0.097275 0.295896 0.497287 0.997782 -0.054350 -0.038434
0.111733 0.185147 0.957674 0.897166 -0.003670 0.441678
0.074754 0.072046 0.508172 0.975397 -0.202698 -0.086690
0.133314 0.235193 0.519319 0.978892 0.195410 -0.059878
0.105270 0.113811 0.850253 0.457493 -0.883463 0.100958
0.110394 0.222952 0.234439 0.987758 0.125842 -0.092186
0.096955 0.240798 0.058534 0.997543 -0.003691 -0.069962
0.097098 0.289853 0.294772 0.998714 -0.004862 -0.050473
0.065410 0.116482 0.580916 -0.909977 -0.412175 -0.045316
0.106485 0.171431 0.939303 -0.256452 -0.944228 0.206556
0.103101 0.090927 0.704579 0.218625 -0.970975 0.097009
0.054317 0.160036 0.557663 -0.992248 -0.112653 -0.052479
0.076962 0.210191 0.301137 -0.995373 -0.008482 -0.095716
0.122588 0.222441 0.364147 0.992393 0.073781 -0.098553
0.115620 0.184792 0.948605 0.933286 -0.024799 0.358276
0.128332 0.144698 0.457427 0.947107 -0.296442 -0.122926
0.086306 0.301997 0.570082 -0.625679 0.778423 -0.050821
0.104106 0.101999 0.789391 0.242629 -0.957994 0.152900
0.048585 0.191017 0.776528 -0.995301 0.016538 0.095411
0.146670 0.133470 0.770447 0.934528 -0.018063 0.355431
0.089569 0.173764 0.248193 -0.855857 -0.502220 -0.123626
0.113393 0.091649 0.656444 0.611744 -0.790145 0.037964
0.060483 0.255672 0.618398 -0.944850 0.324928 -0.040993
0.103690 0.295902 0.722304 0.314479 0.930969 0.185470
0.107482 0.219798 0.196276 0.992845 0.088850 -0.079781
0.139790 0.143852 0.703051 0.942669 -0.333466 0.013231
0.045290 0.200881 0.709090 -0.998797 0.046840 -0.014520
0.095925 0.134570 0.391821 -0.998993 0.035556 -0.027375
0.129707 0.141969 0.854273 0.897253 -0.368617 0.243021
0.076402 0.152625 0.379887 -0.924757 -0.334456 -0.181559
0.095853 0.288389 0.111076 -0.777824 0.555811 0.293365
0.131498 0.131670 0.543252 0.939141 -0.338073 -0.060993
0.107566 0.099536 0.767593 0.366387 -0.920648 0.134788
0.096821 0.095145 0.756766 -0.016506 -0.990608 0.135729
0.082180 0.124517 0.848954 0.794987 0.506473 -0.333887
0.125276 0.201011 0.382509 0.993640 0.011468 -0.112020
0.074338 0.149462 0.396940 -0.923981 -0.340665 -0.173797
0.054967 0.161383 0.542866 -0.993177 -0.101857 -0.056783
0.090707 0.193005 0.148127 -0.991740 -0.105429 -0.073049
0.115956 0.169449 0.909714 -0.004301 0.958815 -0.283999
0.083670 0.164245 0.935130 -0.188905 0.953733 -0.233898
0.119554 0.153546 0.894730 -0.106911 0.953307 -0.282446
0.130828 0.236570 0.841179 0.899788 0.393817 0.187857
0.104076 0.197153 0.157938 0.993398 -0.083335 -0.078836
0.097451 0.194153 0.073863 0.998571 -0.008989 -0.052684
0.092156 0.251588 0.143142 -0.993932 0.108823 -0.016015
0.122511 0.127757 0.838262 0.752888 -0.646552 0.123001
0.100086 0.301840 0.592080 0.995732 -0.068500 -0.061857
0.136881 0.195629 0.507507 0.996948 0.038765 -0.067770
0.147174 0.149646 0.765153 0.949817 0.071528 0.304517
0.093468 0.265737 0.297652 -0.415304 0.900535 -0.128683
0.064371 0.118597 0.728103 -0.878649 -0.474602 0.052228
0.139114 0.148316 0.601884 0.972915 -0.227352 -0.041809
0.095294 0.284923 0.085114 -0.999322 0.019958 -0.030933
0.073527 0.116188 0.485209 -0.879495 -0.461800 -0.115023
0.047109 0.198475 0.788975 0.581057 -0.172599 -0.795351
0.104091 0.260779 0.841945 0.155385 0.941543 0.298917
0.112072 0.254365 0.330233 0.907229 0.406619 -0.107687
0.088056 0.185602 0.967002 -0.822882 0.057388 0.565306
0.093985 0.170694 0.154368 -0.877664 -0.476686 0.049764
0.095558 0.268336 0.351852 -0.995632 -0.073376 -0.057739
0.082015 0.234417 0.263709 -0.972035 0.213701 -0.097362
0.072254 0.232943 0.887836 -0.815100 0.504411 0.284922
0.118124 0.288863 0.699615 0.766078 0.639756 0.061939
0.123048 0.120546 0.805388 0.810360 -0.576126 0.106745
0.097025 0.252470 0.057808 0.998893 -0.001945 -0.047009
0.098360 0.327857 0.510342 0.999100 -0.030289 -0.029680
0.123475 0.110738 0.743952 0.805737 -0.587677 0.073647
0.134803 0.247023 0.597942 0.961588 0.270727 -0.045336
0.087644 0.247395 0.245376 -0.934047 0.347180 -0.083794
0.136685 0.222704 0.538088 0.988624 0.138384 -0.058933
0.096159 0.111565 0.347731 -0.999132 0.034820 -0.022887
0.059943 0.239172 0.801574 0.682558 0.168468 -0.711149
0.109676 0.087398 0.619319 0.515368 -0.856882 -0.012192
0.068445 0.203599 0.379435 -0.993643 0.006063 -0.112414
0.096690 0.166789 0.047982 -0.530233 0.085591 -0.843521
0.095424 0.131378 0.321625 -0.999751 -0.022318 0.000253
0.054050 0.146172 0.740777 -0.942253 -0.332501 0.040025
0.034134 0.156050 0.715030 0.931681 -0.195617 -0.306112
0.075983 0.100742 0.716834 -0.659251 -0.748171 0.075024
0.094405 0.263658 0.147469 -0.918734 0.369411 0.139511
0.068808 0.201880 0.375982 -0.993495 -0.001854 -0.113863
0.081636 0.175999 0.936810 -0.177813 0.967409 -0.180284
0.075721 0.200441 0.937146 -0.917330 0.183745 0.353190
0.127219 0.257959 0.795378 0.834258 0.530794 0.149238
0.095877 0.183047 0.077702 -0.998933 -0.014760 -0.043758
0.069261 0.177953 0.910882 -0.976394 -0.100730 0.191073
0.102587 0.159817 0.924654 -0.113277 0.936315 -0.332389
0.083298 0.301582 0.643227 -0.659728 0.751499 0.003052
0.096322 0.122393 0.335551 -0.998546 -0.050066 0.019971
0.127353 0.062448 0.462938 -0.958593 -0.273433 -0.079586
0.046527 0.171508 0.728832 -0.988540 -0.149309 0.022281
0.104757 0.228914 0.916476 0.183343 0.840414 0.509989
0.067569 0.158193 0.880681 -0.948069 -0.241248 0.207278
0.141862 0.215244 0.790010 0.985632 0.133244 0.103802
0.139907 0.229544 0.793170 -0.532535 0.324283 -0.781823
0.118180 0.229178 0.323926 0.990080 0.105304 -0.093016
0.091147 0.287141 0.429169 -0.413387 0.894232 -0.171639
0.123501 0.166656 0.390607 0.955051 -0.245732 -0.165814
0.091714 0.272122 0.346142 -0.481106 0.864131 -0.147697
0.052698 0.184659 0.812943 -0.992983 0.004869 0.118157
0.064891 0.139597 0.840537 -0.874526 -0.451976 0.175847
0.077899 0.294784 0.628964 -0.809501 0.586724 -0.021521
0.080309 0.164090 0.922883 0.168842 -0.937835 0.303245
0.095077 0.312798 0.526849 -0.999223 -0.030231 -0.025276
0.063172 0.123932 0.569285 -0.926875 -0.372071 -0.049664
0.080916 0.260684 0.820194 0.361852 -0.651276 -0.667010
0.130918 0.217594 0.447273 0.991013 0.104194 -0.083889
0.110161 0.135481 0.903629 0.602378 -0.733995 0.313675
0.047296 0.145048 0.767170 -0.923034 0.269758 0.274296
0.136769 0.135640 0.695968 0.933815 -0.357504 0.013412
0.119622 0.242752 0.365998 0.964178 0.247685 -0.094934
0.106067 0.094834 0.734498 0.310922 -0.943732 0.112684
0.086544 0.250200 0.266662 -0.917978 0.385980 -0.091303
0.125841 0.277443 0.691503 0.864722 0.502055 0.014034
0.065004 0.234196 0.443539 -0.980534 0.179753 -0.079004
0.062910 0.127511 0.548847 -0.932284 -0.356870 -0.059087
0.133069 0.164607 0.463350 0.990474 -0.098778 -0.095934
0.062562 0.260425 0.605569 -0.937283 0.346313 -0.039601
0.125422 0.221022 0.391146 0.991202 0.089702 -0.097330
0.100668 0.266149 0.824186 0.053842 0.979906 0.192056
0.149719 0.178260 0.796531 0.997775 -0.066447 -0.005515
0.135236 0.165434 0.847388 0.967629 -0.104688 0.229642
0.133594 0.222035 0.488709 0.988981 0.130735 -0.069460
0.152243 0.144627 0.744714 -0.931025 -0.190342 -0.311389
0.099079 0.155159 0.293770 0.400146 -0.873585 -0.277005
0.055292 0.229317 0.580689 -0.983863 0.171365 -0.051459
0.066798 0.262703 0.783030 -0.826659 0.544246 0.142936
0.119454 0.154577 0.900740 0.978070 0.078114 0.193075
0.083082 0.263390 0.353500 -0.852939 0.509357 -0.114235
0.087490 0.090052 0.685850 -0.346497 -0.934162 0.085328
0.147686 0.203584 0.736246 0.997374 0.060494 0.039830
0.098862 0.328909 0.534070 0.998579 -0.040036 -0.035175
0.167954 0.144500 0.700150 -0.932257 -0.173832 -0.317300
0.082440 0.173875 0.303209 -0.932282 -0.334849 -0.136845
0.107231 0.268068 0.353378 0.765703 0.629736 -0.130889
0.091959 0.300135 0.508130 -0.333967 0.936450 -0.107361
0.094637 0.270053 0.096246 -0.998753 0.023744 -0.043919
0.110643 0.300645 0.636122 0.698712 0.715334 0.009906
0.078005 0.097577 0.479302 -0.972741 0.226951 0.047620
0.096078 0.169594 0.920639 0.073122 -0.964798 0.252623
0.059464 0.246511 0.572806 -0.964146 0.261070 -0.047587
0.143734 0.160646 0.751922 0.969801 -0.237036 0.057441
0.142506 0.175295 0.607771 0.997785 -0.039793 -0.053298
0.065152 0.187760 0.898565 -0.571995 -0.761389 -0.305137
0.085787 0.125572 0.857938 0.704736 0.228311 -0.671731
0.075078 0.282394 0.530066 -0.878128 0.475643 -0.051531
0.145802 0.184194 0.793174 -0.743503 -0.127647 -0.656437
0.138677 0.140794 0.699232 0.939698 -0.341776 0.012544
0.101488 0.299859 0.504359 0.310274 0.944603 -0.107032
0.127277 0.263404 0.551146 0.938374 0.342673 -0.045044
0.138874 0.213271 0.559046 0.993336 0.100656 -0.056132
0.086751 0.302041 0.563010 -0.612859 0.788303 -0.054601
0.075089 0.130357 0.833147 0.898233 0.326099 -0.294680
0.096877 0.128808 0.323847 0.997046 0.066265 -0.038835
0.096398 0.076143 0.329358 -0.995503 -0.078600 0.052874
0.089597 0.178704 0.223616 -0.890226 -0.446909 -0.088152
0.125865 0.265083 0.534264 0.936094 0.348456 -0.048014
0.096813 0.280942 0.047179 0.992328 -0.010236 -0.123205
0.060994 0.124006 0.697452 -0.914752 -0.403395 0.022392
0.135319 0.210462 0.496466 0.993777 0.087410 -0.069043
0.136912 0.221232 0.539183 0.989452 0.132409 -0.058767
0.096175 0.164713 0.970026 -0.122210 -0.664945 0.736827
0.122184 0.264988 0.473023 0.934643 0.348974 -0.068255
0.045837 0.201598 0.740614 -0.997189 0.058355 0.046990
0.085312 0.090953 0.687774 -0.416710 -0.905289 0.082490
0.093679 0.089288 0.697897 -0.125402 -0.987244 0.098098
0.097949 0.091158 0.721855 0.024514 -0.993421 0.111861
0.130645 0.263085 0.748926 0.868864 0.486087 0.093784
0.122945 0.263438 0.475776 0.938559 0.338614 -0.066697
0.130983 0.135898 0.814880 0.757453 -0.652809 0.010272
0.057966 0.190911 0.484045 -0.997027 0.019592 -0.074526
0.057496 0.149878 0.528249 -0.978990 -0.193801 -0.063404
0.051670 0.186674 0.586227 -0.998591 0.005778 -0.052756
0.123182 0.226355 0.371812 0.989982 0.104364 -0.095095
0.116924 0.106694 0.501732 0.843888 -0.526618 -0.102596
0.092188 0.241967 0.122044 -0.997339 0.037740 -0.062370
0.065938 0.235840 0.856299 -0.887977 0.414137 0.199967
0.109717 0.104908 0.462909 0.746555 -0.645701 -0.160391
0.049040 0.208243 0.808753 -0.961292 0.126447 0.244804
0.121133 0.232577 0.359829 0.984261 0.149764 -0.093810
0.090198 0.304157 0.678133 -0.321419 0.941411 0.102154
0.096220 0.104018 0.361338 -0.997257 -0.062329 0.039930
0.047775 0.155959 0.757904 0.950877 -0.042182 -0.306682
0.110702 0.281419 0.769221 0.457782 0.855452 0.242150
0.057451 0.182626 0.489420 -0.997237 -0.005551 -0.074083
0.055814 0.249492 0.740378 -0.934170 0.351747 0.059999
0.133264 0.127624 0.712782 0.915594 -0.401089 0.028563
0.061735 0.218516 0.455729 -0.991060 0.107673 -0.078783
0.101198 0.251385 0.144277 0.991015 0.133062 -0.013533
0.127273 0.266103 0.574791 0.930980 0.362853 -0.040166
0.072455 0.260723 0.815679 -0.640964 0.731489 0.232570
0.143229 0.178525 0.620795 0.998076 -0.029785 -0.054376
0.135543 0.131918 0.670097 0.933663 -0.358153 -0.000760
0.096753 0.126122 0.041129 0.999825 -0.001932 -0.018585
0.135926 0.154530 0.838241 0.964318 -0.156813 0.213310
0.109491 0.301497 0.610678 0.681332 0.731637 -0.022207
0.044845 0.152778 0.749275 0.945049 -0.094518 -0.312967
0.097654 0.289958 0.319318 0.998312 -0.045884 -0.035602
0.077044 0.089934 0.507137 -0.975381 0.210065 0.067124
0.046358 0.171691 0.711944 -0.990404 -0.138129 -0.004479
0.125788 0.069524 0.462938 0.970129 0.231727 0.071772
0.104586 0.117924 0.865681 0.390601 -0.884487 0.255173
0.068551 0.182581 0.382090 -0.987677 -0.084881 -0.131486
0.064584 0.215315 0.420656 -0.992370 0.080922 -0.093026
0.123188 0.259236 0.816744 0.637885 0.769620 0.028073
0.098215 0.170028 0.238084 0.337850 -0.923755 -0.180371
0.121428 0.131982 0.445650 0.913921 -0.380161 -0.142220
0.098273 0.286158 0.101183 0.996458 0.082357 0.016980
0.047509 0.181320 0.664225 -0.997654 -0.045273 -0.051346
0.065931 0.230202 0.866867 -0.920880 0.345528 0.180527
0.148506 0.136690 0.758168 -0.941825 -0.080990 -0.326199
0.071935 0.100098 0.641540 -0.802433 -0.596662 0.009766
0.126699 0.116512 0.744059 0.853307 -0.517421 0.064354
0.076704 0.285801 0.735295 -0.669701 0.729403 0.139538
0.072424 0.236578 0.363314 -0.976872 0.192728 -0.092613
0.130326 0.157723 0.446677 0.975936 -0.182676 -0.119074
0.078626 0.092108 0.631884 -0.650517 -0.759444 0.008546
0.051715 0.149692 0.705190 -0.954697 -0.297420 0.009731
0.130392 0.142017 0.807110 -0.932126 0.053424 -0.358171
0.077478 0.262015 0.392607 -0.908268 0.405606 -0.102626
0.131227 0.231854 0.477500 0.982428 0.172900 -0.070285
0.123652 0.147360 0.423412 0.934813 -0.316542 -0.161017
0.065017 0.120784 0.753817 -0.874600 -0.479604 0.071101
0.104074 0.214913 0.938583 0.235469 0.805809 0.543347
0.109889 0.300580 0.603283 0.696641 0.716980 -0.025119
0.092403 0.184746 0.134300 -0.993912 -0.094042 -0.057397
0.095790 0.154710 0.080164 -0.999291 -0.002682 -0.037561
0.146570 0.182750 0.670996 0.998205 -0.029140 -0.052321
0.092379 0.104778 0.432630 -0.407071 -0.883138 -0.233151
0.079015 0.109908 0.803196 -0.606840 -0.782991 0.136637
0.096891 0.186647 0.057753 0.999021 -0.003186 -0.044116
0.105818 0.157879 0.313823 0.851418 -0.490122 -0.186729
0.086060 0.221054 0.195807 -0.993942 0.084568 -0.070191
0.118873 0.122734 0.834506 0.716677 -0.694142 0.067380
0.096441 0.142130 0.268302 -0.998547 -0.037866 -0.038341
0.077447 0.127438 0.862452 -0.732791 -0.643789 0.220347
0.045435 0.206196 0.711797 -0.997111 0.075521 -0.008152
0.033705 0.123360 0.732484 -0.946575 0.048182 0.318863
0.122957 0.078897 0.463364 -0.965730 -0.242487 -0.092544
0.087082 0.089973 0.532386 -0.494193 -0.864935 -0.087520
0.039139 0.146056 0.740730 -0.946877 -0.024740 0.320642
0.096800 0.292488 0.043570 0.931547 -0.041698 -0.361222
0.054966 0.139747 0.674484 -0.949826 -0.312774 -0.001508
0.068505 0.160640 0.889268 -0.947526 -0.266390 0.176724
0.116668 0.170945 0.348250 0.941209 -0.296198 -0.162460
0.097159 0.259546 0.061329 0.999136 0.002631 -0.041486
0.145973 0.165530 0.723864 0.980737 -0.193734 0.024947
0.096179 0.111220 0.346465 -0.999165 0.034167 -0.022408
0.140317 0.145187 0.677570 0.951316 -0.308129 -0.007377
0.097536 0.165974 0.083448 0.998726 -0.017669 -0.047269
0.086183 0.297797 0.518714 -0.635296 0.768084 -0.080287
0.070713 0.248944 0.846112 -0.766157 0.596306 0.239630
0.103542 0.224918 0.144860 0.996293 0.035481 -0.078365
0.108846 0.098413 0.756426 0.408507 -0.904254 0.124285
0.092882 0.297645 0.484577 -0.274624 0.951920 -0.135757
0.089599 0.299904 0.702755 -0.302544 0.940300 0.155891
0.095077 0.212992 0.083474 -0.994265 -0.017939 -0.105426
0.088203 0.217635 0.163657 -0.996737 0.022427 -0.077534
0.097987 0.318481 0.505273 0.999325 -0.028558 -0.023099
0.136620 0.166374 0.842085 0.965867 -0.110346 0.234362
0.140379 0.224647 0.611658 0.986981 0.152119 -0.052232
0.101469 0.211731 0.120794 0.996360 -0.009873 -0.084666
0.128577 0.126375 0.783839 0.879951 -0.468446 0.079021
0.094058 0.355638 0.527574 -0.713470 0.656320 0.245364
0.064671 0.271579 0.713267 -0.876079 0.480738 0.037094
0.088776 0.122045 0.877692 -0.408047 -0.862071 0.300551
0.133510 0.238918 0.533741 0.975018 0.214841 -0.056423
0.114293 0.204266 0.278759 0.995484 -0.033926 -0.088656
0.100336 0.086527 0.545548 0.193283 -0.977930 -0.079340
0.097346 0.178102 0.073157 0.998062 -0.012589 -0.060934
0.129538 0.256050 0.545065 0.951365 0.304210 -0.048594
0.052678 0.163038 0.584939 -0.994045 -0.098140 -0.047358
0.110816 0.138793 0.909420 0.627799 -0.707993 0.323442
0.115570 0.294865 0.641601 0.806396 0.591374 0.001645
0.131353 0.236379 0.491290 0.978444 0.195859 -0.065469
0.098073 0.339466 0.488832 0.999130 -0.012871 -0.039657
0.089999 0.194061 0.155499 -0.991249 -0.108505 -0.075184
0.096112 0.256058 0.062979 -0.998614 -0.003275 -0.052526
0.051515 0.155753 0.753538 -0.959696 -0.276828 0.048473
0.069090 0.264357 0.499545 -0.937167 0.343446 -0.061348
0.070680 0.111353 0.757533 -0.789940 -0.606487 0.090376
0.114564 0.295907 0.634277 0.792601 0.609737 -0.002342
0.095861 0.277237 0.331284 -0.998835 -0.040180 -0.026739
0.147523 0.177202 0.734729 0.994562 -0.096735 0.038586
0.072216 0.146429 0.873828 0.436565 0.816715 -0.377343
0.046217 0.175046 0.736049 -0.992184 -0.120300 0.033162
0.099912 0.353521 0.532358 0.856483 0.474318 0.203616
0.111661 0.180206 0.293536 0.943168 -0.308578 -0.123342
0.105329 0.189609 0.194397 0.972112 -0.226892 -0.059321
0.096600 0.152989 0.278206 0.942086 0.335368 0.001344
0.124990 0.111094 0.722975 0.831111 -0.553530 0.053465
0.145986 0.187528 0.792005 -0.715476 -0.135383 -0.685394
0.063838 0.245669 0.825641 -0.867447 0.453550 0.204517
0.109689 0.291441 0.733219 0.482982 0.857660 0.176487
0.054399 0.207009 0.548444 -0.995718 0.072162 -0.057776
0.097373 0.285228 0.317407 0.999076 -0.034921 -0.025043
0.088126 0.166958 0.282588 -0.869550 -0.470723 -0.149343
0.074191 0.078809 0.499988 -0.977469 0.203845 0.054795
0.136443 0.134462 0.684146 0.934808 -0.355092 0.006568
0.096436 0.309130 0.611969 -0.008434 0.999591 -0.027329
0.090304 0.251874 0.232166 -0.903167 0.423317 -0.071357
0.136392 0.141349 0.766278 0.934007 -0.352777 0.056381
0.052764 0.146244 0.676282 -0.957775 -0.287443 -0.006618
0.128891 0.217418 0.883126 0.960018 0.199314 0.196569
0.113977 0.255625 0.849881 0.463287 0.842362 0.275301
0.099915 0.237406 0.902014 0.052478 0.888098 0.456649
0.134660 0.227654 0.837198 0.939150 0.283807 0.193522
0.097207 0.295780 0.295014 0.997315 0.001272 -0.073216
0.122944 0.132412 0.855883 0.760210 -0.622606 0.185590
0.093066 0.215707 0.108311 -0.996549 -0.010034 -0.082399
0.131758 0.220499 0.459789 0.989687 0.120209 -0.077904
0.098114 0.297397 0.539054 0.999543 -0.018845 -0.023634
0.102089 0.234345 0.131363 0.996542 0.047938 -0.067874
0.084147 0.134865 0.901958 -0.625529 -0.718523 0.304037
0.126398 0.112489 0.602037 0.891746 -0.451065 -0.036468
0.146045 0.165950 0.724963 0.981335 -0.190500 0.026285
0.141158 0.154052 0.760593 0.958487 -0.279049 0.058594
0.121544 0.168395 0.919535 0.932171 -0.259029 0.252905
0.093936 0.349300 0.525123 -0.997764 -0.049301 -0.045117
0.070213 0.282068 0.688507 -0.844935 0.534409 0.022188
0.124513 0.235901 0.826146 -0.880615 -0.312938 -0.355791
0.075242 0.075019 0.507216 0.975708 -0.190468 -0.108237
0.128574 0.182887 0.412083 0.992820 -0.035507 -0.114229
0.081514 0.108130 0.508796 -0.958994 0.282061 -0.027782
0.066776 0.177849 0.398664 -0.987547 -0.091515 -0.127967
0.117053 0.163847 0.361486 0.935002 -0.310406 -0.171523
0.064815 0.148162 0.451182 -0.949049 -0.287996 -0.127923
0.107155 0.251466 0.277219 0.901494 0.420771 -0.101293
0.094362 0.155044 0.912672 0.034002 0.934577 -0.354133
0.117615 0.256535 0.839185 0.576806 0.773875 0.261557
0.124271 0.071391 0.470599 -0.963151 -0.261556 -0.062682
0.085082 0.236338 0.238518 -0.969243 0.230453 -0.086371
0.101559 0.306745 0.609539 0.751159 0.551404 0.362924
0.126440 0.150553 0.433499 0.947463 -0.284440 -0.146314
0.082314 0.097320 0.509432 -0.692010 -0.714007 -0.106381
0.116530 0.234237 0.312019 0.978713 0.182138 -0.094591
0.145117 0.141485 0.767691 -0.944090 -0.036526 -0.327657
0.135963 0.143175 0.784984 0.933381 -0.353138 0.063982
0.068502 0.276903 0.727094 -0.825844 0.558584 0.077241
0.126898 0.271864 0.740787 0.837612 0.538786 0.090090
0.101758 0.252136 0.221269 0.880974 0.468402 -0.066969
0.100929 0.287062 0.761816 0.167167 0.948572 0.268825
0.102921 0.263202 0.301611 0.707169 0.696787 -0.119997
0.067342 0.132803 0.476102 -0.923500 -0.366013 -0.114816
0.124261 0.131375 0.846068 0.766843 -0.622382 0.156819
0.051700 0.163388 0.818214 -0.939483 -0.194736 0.281870
0.085957 0.139543 0.361537 -0.828335 -0.509617 -0.232703
0.054480 0.163434 0.548228 -0.994577 -0.088123 -0.055240
0.077411 0.095561 0.584847 -0.729812 -0.682393 -0.041401
0.063405 0.194968 0.423264 -0.994717 0.011239 -0.102039
0.098560 0.106056 0.820920 0.027256 -0.983950 0.176350
0.062370 0.234231 0.479339 -0.980522 0.183923 -0.068919
0.096547 0.295995 0.042370 -0.219854 -0.109506 -0.969367
0.133717 0.260585 0.727906 0.900631 0.432056 0.046823
0.128074 0.174086 0.892353 0.984238 -0.072952 0.161100
0.095026 0.332414 0.506132 -0.999375 -0.023974 -0.025997
0.132915 0.255226 0.765834 0.892828 0.437672 0.106304
0.080062 0.183255 0.299577 -0.951729 -0.279990 -0.125771
0.098769 0.165342 0.141517 0.815824 -0.548895 0.182058
0.096001 0.195100 0.072329 -0.997730 -0.012152 -0.066243
0.071753 0.068830 0.491832 -0.980220 0.195214 0.032575
0.145556 0.202446 0.660544 0.996354 0.060660 -0.059995
0.054817 0.152659 0.794393 -0.957367 -0.280884 0.067467
0.078758 0.259317 0.837521 -0.462192 0.839664 0.285208
0.096996 0.167864 0.059732 -0.514715 0.055156 -0.855585
0.098138 0.156388 0.100785 0.999184 -0.031944 -0.024736
0.139918 0.196452 0.558845 0.997626 0.039733 -0.056240
0.094486 0.291373 0.444920 -0.164941 0.970198 -0.177510
0.047778 0.165243 0.722622 -0.979336 -0.201779 0.013657
0.061510 0.262908 0.654955 -0.926152 0.375499 -0.035253
0.087533 0.142786 0.879928 0.191227 0.916573 -0.351179
0.107454 0.119343 0.850002 -0.644128 0.664281 -0.379249
0.065739 0.111887 0.641779 -0.886631 -0.462478 -0.000221
0.101419 0.179746 0.155825 0.987721 -0.151598 -0.037760
0.066691 0.045350 0.471275 -0.976863 0.213345 0.014937
0.096296 0.278331 0.298746 -0.999685 -0.021362 -0.013170
0.089712 0.254898 0.256072 -0.869262 0.486730 -0.086473
0.137899 0.204326 0.840709 0.975286 0.074457 0.208020
0.048455 0.196952 0.649250 -0.997612 0.033531 -0.060384
0.123072 0.079336 0.492229 0.965880 0.258310 0.018740
0.073362 0.196510 0.917493 -0.999487 -0.015397 0.028100
0.076931 0.095410 0.596160 -0.728624 -0.684180 -0.031702
0.065426 0.205310 0.406681 -0.994241 0.031083 -0.102564
0.027139 0.139211 0.705944 -0.950873 0.060925 0.303527
0.062309 0.170259 0.863885 -0.984236 -0.096566 0.148171
0.160058 0.155759 0.714550 -0.929502 -0.202188 -0.308458
0.132155 0.244899 0.532954 0.968313 0.243623 -0.054935
0.103027 0.253226 0.243130 0.879388 0.469163 -0.081005
0.144855 0.159613 0.713044 0.970350 -0.241393 0.012279
0.075819 0.283723 0.742025 -0.683907 0.714920 0.145466
0.112839 0.165487 0.334359 0.927114 -0.337877 -0.162171
0.097872 0.145678 0.095951 0.984695 -0.166829 0.050435
0.065052 0.242424 0.811148 0.876572 -0.193653 -0.440590
0.067723 0.119716 0.525158 -0.909288 -0.408982 -0.076994
0.096390 0.077469 0.309075 -0.999959 -0.003614 -0.008352
0.134586 0.250792 0.620998 0.953979 0.296838 -0.042565
0.094310 0.267497 0.819422 -0.087864 0.991342 0.097575
0.130451 0.216133 0.440664 0.991577 0.095830 -0.087128
0.124781 0.111298 0.730947 0.824703 -0.562363 0.060100
0.126247 0.186135 0.900282 0.466261 -0.876508 -0.119729
0.114679 0.233578 0.292981 0.976067 0.194149 -0.097977
0.079438 0.097566 0.533591 -0.736498 -0.671804 -0.079064
0.116175 0.241842 0.328042 0.958246 0.268577 -0.098142
0.112819 0.107554 0.469162 0.815294 -0.561628 -0.140960
0.121514 0.108816 0.752893 0.774047 -0.627221 0.086281
0.055054 0.170566 0.530038 -0.997013 -0.047751 -0.060700
0.049337 0.136203 0.770383 0.937525 -0.179834 -0.297836
0.146444 0.180909 0.670414 0.997901 -0.039281 -0.051481
0.112265 0.199960 0.256476 0.993402 -0.077626 -0.084422
0.118854 0.185376 0.336622 0.972966 -0.186874 -0.135700
0.096798 0.102129 0.433128 -0.002015 -0.968056 -0.250726
0.095598 0.300492 0.083708 -0.995813 0.089009 0.020849
0.155181 0.135767 0.740275 -0.932348 -0.107566 -0.345190
0.062562 0.120160 0.614154 -0.923501 -0.382662 -0.026753
0.097270 0.175367 0.178787 0.167598 -0.980788 0.099827
0.145309 0.166812 0.745028 0.980855 -0.186628 0.055624
0.099454 0.245362 0.884787 0.025889 0.918417 0.394766
0.096244 0.175819 0.065899 -0.999214 -0.010147 -0.038332
0.106781 0.191064 0.211526 0.965372 -0.251825 -0.068130
0.079060 0.150507 0.370355 -0.914188 -0.360463 -0.185276
0.109521 0.100594 0.481687 0.706450 -0.693140 -0.143127
0.121886 0.084637 0.471838 0.976173 0.189928 0.104951
0.053459 0.158213 0.802526 0.851301 0.192469 -0.488100
0.078796 0.183017 0.310723 -0.952335 -0.274822 -0.132408
0.046665 0.169958 0.708372 -0.988519 -0.150868 -0.008276
0.068394 0.156234 0.883704 -0.961184 -0.211211 0.177528
0.105207 0.086098 0.634977 0.398897 -0.916452 0.031566
0.121784 0.248363 0.404186 0.958109 0.271935 -0.089883
0.069346 0.266849 0.511317 -0.930921 0.360600 -0.057919
0.101617 0.322257 0.582535 0.997853 -0.037954 -0.053373
0.133651 0.141466 0.526720 0.958475 -0.276749 -0.068815
0.097014 0.131993 0.056817 0.999782 -0.006387 -0.019867
0.087378 0.249251 0.254193 -0.924444 0.371452 -0.086179
0.132271 0.126435 0.730609 0.908278 -0.416343 0.041098
0.053150 0.147380 0.730204 -0.946186 -0.322047 0.031902
0.137958 0.139957 0.640316 0.952320 -0.304142 -0.024182
0.139041 0.236708 0.775051 0.954169 0.283125 0.096959
0.098865 0.101413 0.440183 0.157541 -0.957332 -0.242272
0.057799 0.161852 0.815152 0.898401 0.235677 -0.370584
0.131368 0.121509 0.687690 0.909319 -0.415732 0.017517
0.096851 0.259162 0.052376 0.999266 -0.000603 -0.038295
0.126270 0.268045 0.570079 0.927880 0.370683 -0.040416
0.141220 0.184454 0.578018 0.998593 -0.001512 -0.053006
0.130942 0.239593 0.493846 0.975382 0.211018 -0.064036
0.135059 0.135676 0.590030 0.948170 -0.315188 -0.040383
0.102127 0.188933 0.143893 0.991850 -0.111060 -0.062445
0.033930 0.147044 0.724429 -0.907030 0.318272 0.275681
0.052271 0.147966 0.705033 -0.951894 -0.306221 0.011198
0.091353 0.250327 0.209229 -0.912725 0.405100 -0.053181
0.062280 0.217740 0.863077 -0.976736 0.151111 0.152156
0.067692 0.123576 0.507270 -0.914283 -0.395094 -0.089367
0.098446 0.229350 0.087260 0.995538 0.003104 -0.094312
0.108257 0.248005 0.273246 0.924021 0.368873 -0.100584
0.055022 0.191110 0.528225 -0.997862 0.023815 -0.060866
0.058846 0.163379 0.843336 -0.958640 -0.180705 0.219899
0.076133 0.206377 0.934073 -0.834870 0.369596 0.407911
0.070260 0.155607 0.406675 -0.937811 -0.303953 -0.167701
0.107588 0.284366 0.766361 0.368470 0.894265 0.254008
0.141344 0.189756 0.807250 0.993675 -0.002160 0.112277
0.104204 0.209246 0.151782 0.996177 -0.014026 -0.086220
0.141802 0.150357 0.718347 0.950359 -0.310251 0.023723
0.097701 0.295177 0.521304 0.999387 -0.023676 -0.025786
0.135540 0.255720 0.674951 0.933245 0.357885 -0.031190
0.097299 0.239625 0.067484 0.997269 -0.001766 -0.073830
0.131688 0.249534 0.550324 0.960918 0.272246 -0.050184
0.137597 0.196289 0.519297 0.997049 0.040890 -0.064977
0.118783 0.274364 0.474195 0.907701 0.413224 -0.072980
0.092713 0.151317 0.310425 -0.578440 -0.769464 -0.270800
0.095369 0.271499 0.083259 -0.997808 0.011145 -0.065236
0.045941 0.178345 0.804733 -0.966656 -0.037941 0.253253
0.068172 0.211913 0.382910 -0.993742 0.033420 -0.106582
0.141484 0.206991 0.594937 0.995991 0.071161 -0.054196
0.096629 0.128239 0.039570 -0.998072 -0.061784 0.005875
0.088788 0.287320 0.435422 -0.551204 0.819685 -0.155857
0.148112 0.199493 0.704899 0.998934 0.042621 -0.017706
0.087321 0.218716 0.176347 -0.995798 0.057794 -0.071040
0.124542 0.146708 0.430132 0.937149 -0.313275 -0.153657
0.080375 0.102004 0.762485 -0.543505 -0.830393 0.122679
0.054073 0.246438 0.688150 -0.952944 0.302153 -0.024501
0.101055 0.211002 0.116272 0.996353 -0.013017 -0.084331
0.085208 0.088632 0.563588 -0.536930 -0.841738 -0.056419
0.087231 0.238340 0.217278 -0.970596 0.230492 -0.069395
0.077570 0.137065 0.887965 -0.770764 -0.584630 0.253238
0.096408 0.077892 0.307388 -0.999956 -0.002952 -0.008957
0.119397 0.141497 0.891614 0.839218 -0.466943 0.278706
0.146800 0.194979 0.753205 0.997251 0.020263 0.071276
0.094527 0.168748 0.112367 -0.998388 -0.042672 -0.037432
0.141425 0.225209 0.777667 0.974906 0.200501 0.096734
0.079384 0.124317 0.859494 -0.686262 -0.691454 0.225691
0.119028 0.248229 0.374409 0.950007 0.296974 -0.096403
0.065494 0.214859 0.885087 -0.964306 0.123751 0.234095
0.094959 0.142001 0.331203 -0.239468 -0.898852 -0.367042
0.089291 0.127063 0.891921 -0.396673 -0.858114 0.326023
0.133735 0.164808 0.471231 0.991374 -0.094209 -0.091114
0.114270 0.101771 0.507251 0.791603 -0.602336 -0.102744
0.134001 0.209229 0.858488 0.979147 0.089707 0.182275
0.078879 0.113755 0.824052 -0.635947 -0.757761 0.146181
0.053893 0.147622 0.613171 -0.973991 -0.224034 -0.033929
0.101826 0.281498 0.779243 0.184496 0.937707 0.294393
