0.082961 0.146199 0.495422 -0.914439 -0.196829 -0.353638
0.113797 0.284065 0.515959 0.983635 -0.017533 0.179316
0.095901 0.269651 0.776315 0.394494 0.903503 0.167503
0.055663 0.119561 0.782017 -0.873702 -0.481879 0.066618
0.128881 0.185621 0.781264 0.992260 0.001638 0.124164
0.059865 0.107145 0.643027 -0.864273 -0.493155 -0.099142
0.098366 0.108153 0.518966 0.876226 -0.341012 0.340496
0.149540 0.132211 0.460136 0.924207 -0.379768 0.040218
0.093818 0.243401 0.062132 -0.925687 0.080665 0.369589
0.140096 0.088814 0.375556 0.996053 0.024398 0.085339
0.092476 0.234505 0.060013 -0.929205 0.050064 0.366158
0.098283 0.185642 0.076879 -0.944133 -0.034046 0.327802
0.131463 0.244365 0.183540 0.948497 0.300561 -0.100082
0.099636 0.331184 0.540308 -0.961368 -0.141371 -0.236190
0.042055 0.126019 0.764147 -0.918147 -0.307397 0.250028
0.103487 0.163486 0.930348 0.203883 0.972938 -0.108733
0.146571 0.234458 0.505792 0.955792 0.237039 0.173996
0.094156 0.233140 0.894606 0.435066 0.812822 0.387347
0.087950 0.135791 0.933894 -0.177522 0.980555 -0.083657
0.114302 0.181274 0.911312 0.978889 0.021137 0.203297
0.064605 0.122840 0.578919 -0.918178 -0.336279 -0.209442
0.108762 0.091860 0.564739 0.579111 -0.812888 0.061997
0.064902 0.267169 0.638856 -0.805677 0.575158 -0.141695
0.136734 0.099541 0.503647 0.907093 0.251392 0.337615
0.138045 0.124522 0.381291 0.995548 0.015340 0.093002
0.093803 0.104575 0.533527 0.950714 -0.277281 0.138777
0.124289 0.241271 0.375181 -0.917191 0.355973 -0.179006
0.088468 0.205291 0.477865 -0.946943 0.090124 -0.308506
0.157223 0.188964 0.303536 0.993129 -0.026457 -0.113991
0.059478 0.104203 0.670365 -0.834522 -0.550255 -0.028140
0.131939 0.193617 0.741640 0.998415 0.049641 0.026530
0.050304 0.196408 0.897817 -0.984599 0.074983 0.157929
0.114370 0.110161 0.654974 0.881537 -0.465937 0.076128
0.104520 0.336661 0.537226 0.982776 0.084970 0.164111
0.074488 0.109533 0.559590 -0.882335 -0.417022 -0.218125
0.135379 0.212452 0.597473 0.982849 0.119249 0.140670
0.057230 0.229345 0.599479 -0.946873 0.234659 -0.219922
0.078297 0.197970 0.506549 -0.949258 0.078176 -0.304628
0.094766 0.281939 0.624490 0.195777 0.980008 0.035436
0.091228 0.088487 0.528358 -0.941440 0.288574 -0.174403
0.123238 0.227572 0.816892 0.909078 0.388973 0.149256
0.055685 0.210824 0.893015 -0.879250 0.384434 0.281302
0.053602 0.193022 0.876886 -0.606035 0.233555 -0.760377
0.099065 0.088562 0.598443 0.341797 -0.939171 0.033669
0.142966 0.194128 0.215057 0.983028 0.002451 -0.183438
0.100349 0.313302 0.578810 0.996958 -0.058468 0.051539
0.067412 0.096313 0.713107 -0.639851 -0.767217 0.044373
0.136828 0.205849 0.592386 0.985779 0.086306 0.144190
0.141756 0.127025 0.356809 -0.992501 -0.122145 -0.004719
0.147290 0.232587 0.504417 0.958681 0.226202 0.172522
0.089507 0.220067 0.924957 0.291994 0.841201 0.455104
0.093423 0.298544 0.038780 -0.884346 0.192440 0.425322
0.158408 0.218836 0.445907 0.983297 0.139261 0.117192
0.121275 0.183936 0.358927 -0.982043 -0.087096 -0.167348
0.134830 0.131594 0.558499 0.921616 -0.365939 0.129278
0.099477 0.304117 0.598511 0.991894 0.046604 0.118213
0.134738 0.166150 0.610240 0.990685 -0.060695 0.121902
0.097979 0.281973 0.608934 0.212638 0.976365 0.038687
0.131082 0.138300 0.602961 0.950409 -0.286657 0.120629
0.107243 0.320470 0.516429 -0.951501 -0.074906 -0.298388
0.132531 0.176131 0.633011 0.994891 -0.026186 0.097500
0.076527 0.250361 0.548362 -0.912194 0.331510 -0.240838
0.085746 0.087500 0.642738 -0.074440 -0.997221 -0.003127
0.156256 0.209982 0.471689 0.985685 0.105507 0.131506
0.104275 0.198746 0.936796 0.849135 0.382996 0.363709
0.063050 0.138558 0.884440 0.633997 -0.541982 0.551637
0.121262 0.137826 0.809565 0.917733 -0.394316 0.047767
0.115984 0.110699 0.640862 0.879719 -0.467825 0.085053
0.048956 0.240533 0.772059 -0.914137 0.397012 0.082072
0.159698 0.233118 0.391795 0.961429 0.275045 0.001931
0.045205 0.125679 0.769235 0.947811 0.196381 -0.251174
0.097719 0.129783 0.055306 -0.890951 -0.255581 0.375347
0.143073 0.264798 0.426525 0.695554 0.718378 -0.011684
0.107127 0.091370 0.573986 0.563092 -0.824199 0.060192
0.065967 0.105392 0.783114 -0.669048 -0.734561 0.113115
0.141846 0.136508 0.698626 0.945803 -0.261508 0.192538
0.060330 0.109350 0.764520 -0.808367 -0.583052 0.081204
0.108884 0.345889 0.511406 0.967628 0.148430 0.204120
0.070768 0.277313 0.696737 -0.514450 0.857029 0.029041
0.107032 0.100582 0.673572 0.789448 -0.612250 0.043832
0.147828 0.075819 0.494990 -0.927897 -0.324894 -0.182895
0.071905 0.091362 0.671710 -0.497905 -0.867232 -0.000390
0.127667 0.216436 0.814820 0.947113 0.279194 0.158204
0.109968 0.251639 0.442406 -0.881447 0.374539 -0.287701
0.130521 0.259215 0.393679 -0.677750 0.699303 -0.227224
0.098280 0.093511 0.717794 0.531147 -0.845722 0.051347
0.113129 0.112117 0.712629 0.890636 -0.454506 0.013811
0.034180 0.174704 0.796063 -0.980333 -0.003098 0.197329
0.108752 0.123081 0.453742 -0.841192 -0.413861 -0.348016
0.140510 0.259530 0.360287 -0.996520 -0.033659 -0.076257
0.123401 0.220396 0.169120 -0.959592 0.203668 0.194171
0.156775 0.154016 0.461606 0.976497 -0.201930 0.075348
0.130691 0.221136 0.237382 -0.983178 0.175988 0.048888
0.140512 0.230981 0.544171 0.962009 0.223212 0.157211
0.128106 0.116153 0.730476 -0.919290 0.318081 -0.231799
0.133962 0.205740 0.793063 0.971650 0.131662 0.196371
0.101993 0.197135 0.433899 -0.952121 0.035835 -0.303615
0.098166 0.152146 0.068731 -0.927079 -0.133020 0.350472
0.126427 0.162683 0.797315 0.993147 -0.019572 0.115222
0.057930 0.256580 0.773185 -0.807422 0.579648 0.109901
0.079916 0.108284 0.541059 -0.871855 -0.417516 -0.256027
0.037214 0.204443 0.703763 -0.992753 0.114573 -0.036245
0.106984 0.244736 0.097616 -0.932150 0.148213 0.330346
0.037118 0.166144 0.718176 -0.988955 -0.148196 0.002533
0.088949 0.200664 0.475374 -0.947741 0.070790 -0.311088
0.057715 0.198410 0.912852 -0.935404 0.222451 0.274835
0.115812 0.137830 0.818218 0.818007 -0.512933 0.260316
0.124107 0.146040 0.807261 0.972941 -0.223853 0.057232
0.159652 0.166530 0.386966 0.957751 -0.278807 -0.070572
0.096411 0.338304 0.546346 -0.965377 -0.126681 -0.228035
0.041094 0.208544 0.663311 -0.982933 0.127282 -0.132826
0.052921 0.220102 0.865129 -0.918007 0.367855 0.148143
0.131498 0.106494 0.439283 0.145630 -0.941123 -0.305089
0.134721 0.141739 0.364643 -0.780396 -0.570990 -0.254858
0.121487 0.124507 0.535706 0.927723 0.371783 0.033279
0.109886 0.288694 0.080234 0.966536 -0.047165 -0.252159
0.090632 0.131384 0.040125 -0.856291 -0.248034 0.453039
0.056934 0.122601 0.816823 -0.844134 -0.526766 0.099773
0.126575 0.126380 0.411288 -0.778979 -0.502966 -0.374456
0.114204 0.188866 0.393357 -0.970196 -0.014063 -0.241912
0.033783 0.198032 0.787914 -0.822445 0.075653 -0.563792
0.122387 0.227194 0.132904 0.962557 0.085973 -0.257084
0.117257 0.139143 0.849535 0.894911 -0.427957 0.126443
0.083162 0.238535 0.887587 -0.109426 0.916868 0.383900
0.109672 0.150424 0.901336 0.444878 -0.823072 0.353037
0.056554 0.189865 0.913168 -0.967095 0.080851 0.241228
0.153714 0.046298 0.517310 0.917891 0.354364 0.178612
0.139340 0.172964 0.579501 0.987691 -0.039653 0.151308
0.128099 0.241719 0.605658 0.944891 0.297032 0.137670
0.126941 0.155619 0.368652 -0.912994 -0.347364 -0.213961
0.125519 0.277918 0.487586 0.339985 0.940273 -0.017256
0.133168 0.120446 0.424016 0.960647 -0.043476 0.274350
0.129439 0.205285 0.262627 -0.999963 -0.006330 -0.005747
0.112397 0.150791 0.897371 0.779094 -0.532243 0.331255
0.123511 0.229035 0.785270 0.953321 0.290720 0.081617
0.129112 0.209185 0.674934 0.991729 0.128262 -0.004807
0.147892 0.160580 0.297262 0.857957 -0.490420 -0.152964
0.088581 0.095945 0.770636 0.142132 -0.978970 0.146340
0.146906 0.247042 0.483242 0.938289 0.314924 0.142960
0.038112 0.195576 0.790188 0.581999 -0.094863 -0.807637
0.093008 0.209532 0.062639 -0.935346 0.000664 0.353733
0.098492 0.274627 0.516386 -0.691124 0.686320 -0.226521
0.134195 0.237545 0.195076 0.976365 0.162620 -0.142360
0.090213 0.198727 0.958673 0.397688 0.710785 0.580197
0.108858 0.330960 0.521138 0.953114 0.177433 0.245135
0.093792 0.295771 0.041184 -0.895018 0.188652 0.404171
0.130577 0.166406 0.697437 0.993802 -0.107801 -0.027131
0.044003 0.219349 0.655386 -0.971391 0.186693 -0.146782
0.140744 0.154687 0.302697 -0.532153 -0.822980 -0.198791
0.130658 0.205439 0.643583 0.992539 0.092334 0.079630
0.059179 0.159351 0.912212 -0.906990 -0.321973 0.271481
0.038551 0.125508 0.748752 -0.979011 -0.041305 0.199577
0.089168 0.158012 0.917424 -0.251962 -0.937353 0.240592
0.135353 0.112463 0.696534 -0.941941 0.245931 -0.228614
0.051271 0.153484 0.604868 -0.973223 -0.109180 -0.202279
0.125164 0.184202 0.849828 0.982688 -0.000738 0.185265
0.038445 0.159131 0.710407 -0.977798 -0.209525 -0.003358
0.150003 0.062766 0.504850 -0.924616 -0.330287 -0.189729
0.145678 0.165396 0.269805 0.847291 -0.508898 -0.152052
0.123590 0.138421 0.722302 0.939278 -0.343132 0.004233
0.108734 0.269314 0.475084 -0.755165 0.594689 -0.275810
0.095203 0.219940 0.068853 -0.940523 0.013692 0.339454
0.109764 0.270979 0.476175 -0.715818 0.643785 -0.270455
0.069645 0.099798 0.764949 -0.556169 -0.822834 0.116709
0.128947 0.098418 0.479312 0.589131 -0.808036 -0.001525
0.048814 0.179856 0.868984 -0.986537 -0.026363 0.161397
0.097267 0.118130 0.045101 -0.857659 -0.179687 0.481802
0.142656 0.240976 0.256552 0.898698 0.411239 -0.152396
0.140069 0.179494 0.199943 0.982067 -0.083209 -0.169178
0.090552 0.070648 0.508238 -0.923330 0.301133 -0.238288
0.095248 0.242271 0.872092 0.373875 0.863079 0.339577
0.141672 0.099487 0.349421 0.995427 0.052955 0.079504
0.101576 0.093896 0.662797 0.633933 -0.771437 0.054887
0.082743 0.262519 0.543746 -0.872558 0.431371 -0.229266
0.083261 0.087983 0.634236 -0.245966 -0.968886 -0.027581
0.133771 0.263012 0.518782 0.870494 0.463112 0.166636
0.121028 0.242678 0.393372 -0.913144 0.346873 -0.214119
0.059975 0.236606 0.596262 -0.935041 0.279239 -0.218457
0.129996 0.208679 0.647613 0.990987 0.113735 0.070781
0.078860 0.089478 0.700304 -0.232724 -0.971436 0.046382
0.156999 0.172033 0.334022 0.953542 -0.287019 -0.091526
0.123637 0.135854 0.772215 -0.932554 0.284559 -0.222193
0.036442 0.197109 0.736256 -0.996561 0.072910 0.039365
0.138682 0.267485 0.382207 -0.410799 0.773817 0.482133
0.083181 0.149023 0.493478 -0.921587 -0.164940 -0.351387
0.125383 0.222733 0.331861 -0.976501 0.179619 -0.119095
0.117114 0.093655 0.514816 0.554159 -0.829591 0.068459
0.035027 0.101156 0.718813 -0.967316 -0.119110 0.223858
0.123946 0.172710 0.356685 -0.951071 -0.254358 -0.175405
0.154166 0.143448 0.418681 0.934988 -0.352800 -0.036467
0.054003 0.188780 0.902195 -0.976248 0.020600 0.215673
0.035857 0.101073 0.719006 0.967934 0.058152 -0.244381
0.129151 0.209031 0.668490 0.992049 0.125342 0.011307
0.123375 0.227175 0.793130 0.958005 0.274094 0.084260
0.084831 0.074247 0.537024 -0.778832 0.372064 -0.504965
0.134076 0.149777 0.347924 -0.852548 -0.481099 -0.204219
0.096117 0.287843 0.042588 0.904955 -0.228979 -0.358643
0.127775 0.142716 0.803099 0.837584 -0.533116 0.119333
0.112010 0.116022 0.068111 0.813787 -0.581163 0.000502
0.135547 0.267289 0.414605 0.000917 0.980745 -0.195293
0.108695 0.268700 0.094342 -0.951724 0.089120 0.293734
0.140419 0.266470 0.358930 -0.996402 -0.031474 -0.078694
0.134527 0.104041 0.424830 -0.970846 0.029871 -0.237836
0.113770 0.335508 0.495685 -0.878695 -0.060161 -0.473577
0.161191 0.182220 0.354624 0.986185 -0.150923 -0.068268
0.103450 0.304762 0.567569 0.924334 0.258564 0.280628
0.124994 0.102894 0.520612 0.791591 -0.594971 0.139258
0.116171 0.124060 0.785128 -0.900091 0.363714 -0.239893
0.070529 0.139017 0.536685 -0.934360 -0.227461 -0.274287
0.120094 0.206747 0.122388 0.948827 0.021173 -0.315085
0.129577 0.239522 0.168009 0.979569 0.047950 -0.195307
0.138898 0.129216 0.391725 -0.992707 -0.120416 -0.005698
0.131378 0.201233 0.719324 0.995854 0.088342 -0.021675
0.134274 0.216604 0.179378 0.968027 0.160782 -0.192541
0.145680 0.165678 0.268916 0.850840 -0.503085 -0.151582
0.039258 0.124225 0.751256 -0.954419 -0.195576 0.225464
0.101115 0.119398 0.055557 -0.878514 -0.280064 0.387011
0.081760 0.155805 0.909049 0.240727 -0.926379 0.289608
0.079601 0.280715 0.650504 -0.315716 0.947956 -0.041256
0.108895 0.174197 0.108450 -0.957767 -0.075775 0.277381
0.122201 0.261222 0.593025 0.878546 0.458446 0.134108
0.075374 0.091023 0.633130 -0.546508 -0.834310 -0.072493
0.121603 0.171527 0.159441 -0.962985 -0.181489 0.199304
0.132723 0.166383 0.809730 0.978402 -0.060846 0.197552
0.138994 0.086817 0.395828 -0.992213 0.033950 -0.119836
0.099300 0.216875 0.447751 -0.946886 0.131512 -0.293449
0.125120 0.170768 0.849296 0.981556 -0.021605 0.189949
0.085466 0.107567 0.524823 -0.851526 -0.428639 -0.301946
0.105311 0.332992 0.535218 0.972702 0.125725 0.195047
0.141577 0.101691 0.367494 -0.998911 -0.017999 -0.043051
0.129885 0.125476 0.405746 -0.722844 -0.582797 -0.371275
0.146012 0.231687 0.512465 0.959371 0.221863 0.174313
0.073307 0.098392 0.597189 -0.767933 -0.624782 -0.141157
0.141881 0.265671 0.332871 -0.999197 -0.010787 -0.038575
0.118356 0.093357 0.494458 0.191491 -0.978122 -0.081291
0.119143 0.214755 0.120118 0.949603 0.028238 -0.312180
0.081486 0.217807 0.504141 -0.942008 0.151977 -0.299205
0.132269 0.122505 0.726328 0.956118 -0.221561 0.191700
0.141214 0.206354 0.209380 0.976520 0.111760 -0.184170
0.088548 0.180482 0.474384 -0.946851 0.008213 -0.321567
0.076412 0.111642 0.548431 -0.887479 -0.392188 -0.242009
0.145864 0.055513 0.537969 0.929635 0.323318 0.176761
0.096708 0.119133 0.486997 -0.840806 -0.385631 -0.379913
0.061259 0.185734 0.932335 -0.952302 0.100845 0.288011
0.084637 0.281071 0.620402 -0.293040 0.955202 -0.041427
0.035639 0.189844 0.799905 -0.978352 0.060427 0.197929
0.100071 0.329843 0.539259 -0.965803 -0.120879 -0.229374
0.127879 0.196470 0.832833 0.983376 0.062909 0.170334
0.122058 0.323283 0.483838 0.976515 0.211230 -0.042429
0.139096 0.093192 0.386091 0.995456 0.012927 0.094346
0.067256 0.251335 0.587537 -0.904152 0.371800 -0.210414
0.145369 0.149040 0.526827 0.961604 -0.210110 0.176553
0.121143 0.213951 0.357720 -0.987778 0.037300 -0.151336
0.040100 0.158970 0.816521 -0.955828 -0.230103 0.182881
0.160611 0.183036 0.344792 0.985433 -0.152838 -0.074579
0.133991 0.130685 0.388332 -0.663433 -0.664728 -0.343503
0.107874 0.287123 0.525453 -0.979951 -0.023223 -0.197880
0.123091 0.221885 0.134040 0.960410 0.065233 -0.270845
0.124468 0.257736 0.589390 0.897078 0.419794 0.137929
0.138529 0.123620 0.407373 -0.994778 -0.003504 -0.102007
0.142727 0.131047 0.383632 0.561181 -0.785682 -0.260346
0.053581 0.140009 0.812626 0.979195 -0.055174 -0.195276
0.126979 0.248856 0.596924 0.927172 0.346424 0.142627
0.124009 0.293281 0.469875 -0.971158 -0.016494 -0.237864
0.132074 0.193017 0.738200 0.998823 0.046096 0.015125
0.099186 0.314484 0.549126 -0.962641 -0.119618 -0.242928
0.124042 0.215215 0.800333 -0.820171 0.132266 -0.556620
0.086562 0.090863 0.566645 -0.548568 -0.827287 -0.121113
0.108313 0.158610 0.919847 0.848406 -0.436430 0.299560
0.051590 0.202602 0.889344 -0.874726 0.471707 -0.111116
0.043985 0.184691 0.843469 -0.981080 0.021041 0.192456
0.113753 0.277180 0.570664 0.629221 0.770275 0.103720
0.038992 0.214963 0.800041 -0.950652 0.230806 0.207341
0.042903 0.164605 0.802040 0.799855 -0.022822 -0.599759
0.125517 0.222231 0.782691 0.971660 0.221866 0.081558
0.049304 0.155658 0.613600 -0.976334 -0.093192 -0.195160
0.148342 0.188747 0.243849 0.983256 -0.020092 -0.181120
0.133361 0.103921 0.422592 0.985122 0.027387 0.169659
0.102828 0.121976 0.521726 0.879509 -0.344368 0.328441
0.157105 0.160206 0.378784 0.944906 -0.317308 -0.080430
0.137562 0.119505 0.507846 0.880654 -0.438509 0.179328
0.134275 0.241235 0.214295 -0.093850 0.994191 0.052688
0.129757 0.099303 0.486378 0.691695 -0.718787 0.070018
0.099642 0.198873 0.081641 -0.948974 -0.010708 0.315174
0.076190 0.252554 0.552806 -0.907648 0.348813 -0.233461
0.095915 0.110027 0.530497 0.941737 -0.284964 0.178680
0.111706 0.266173 0.647715 0.837768 0.538433 0.090742
0.161298 0.166413 0.418830 0.981523 -0.191195 0.007509
0.141024 0.135793 0.528006 0.921061 -0.354578 0.161003
0.108769 0.281209 0.540130 0.981795 -0.184462 -0.045304
0.053538 0.117211 0.658166 -0.917238 -0.391924 -0.071201
0.063194 0.124127 0.869053 -0.803209 -0.574469 0.157609
0.126293 0.185660 0.800204 0.990675 -0.018379 0.135004
0.097267 0.284546 0.605263 0.988623 0.032696 0.146820
0.147151 0.257317 0.444422 0.881222 0.466243 0.077880
0.106429 0.273329 0.490966 -0.680807 0.686057 -0.256571
0.150952 0.172079 0.284624 0.932307 -0.335864 -0.134159
0.034629 0.168794 0.797368 -0.975836 -0.075706 0.204972
0.123239 0.221686 0.831648 0.926960 0.341983 0.154248
0.124780 0.132261 0.640386 0.940722 -0.325258 0.096170
0.101580 0.334389 0.558250 0.674310 0.620028 0.401088
0.065701 0.211019 0.918932 -0.748442 0.562136 0.351906
0.107082 0.282166 0.084584 -0.940300 0.145146 0.307846
0.094777 0.120631 0.041446 -0.869915 -0.255672 0.421757
0.047146 0.172025 0.859545 -0.980096 -0.005250 0.198455
0.127178 0.191883 0.308293 -0.995652 -0.010200 -0.092587
0.125764 0.180311 0.800397 -0.822143 -0.146169 -0.550195
0.084557 0.134495 0.930018 0.016258 0.999274 -0.034453
0.102042 0.253050 0.070666 0.929271 -0.069847 -0.362734
0.059463 0.181101 0.926763 -0.966152 0.043762 0.254235
0.081115 0.249579 0.823524 0.075567 -0.522306 -0.849403
0.134661 0.233986 0.576925 0.959012 0.240156 0.150400
0.062058 0.145751 0.562959 -0.956044 -0.160915 -0.245125
0.078190 0.248136 0.539230 -0.916001 0.311304 -0.253045
0.150043 0.206371 0.254113 0.977414 0.100781 -0.185755
0.146891 0.146537 0.515925 0.952284 -0.243842 0.183568
0.140114 0.221593 0.558915 0.973445 0.168197 0.155292
0.155598 0.151802 0.470879 0.974010 -0.207021 0.091904
0.160797 0.195411 0.339866 0.997226 -0.005411 -0.074240
0.150183 0.175740 0.270755 0.937535 -0.319510 -0.137629
0.051015 0.130194 0.795258 0.919895 0.297657 -0.255330
0.049777 0.149996 0.859504 -0.935339 -0.327985 0.132538
0.149807 0.199388 0.516454 0.982340 0.063626 0.175956
0.058390 0.114328 0.778793 -0.839726 -0.537378 0.078007
0.151859 0.141695 0.481346 0.942230 -0.316257 0.110381
0.126891 0.208288 0.791921 0.990674 0.094171 0.098470
0.162518 0.174301 0.407528 0.993727 -0.111706 0.005285
0.112757 0.150827 0.417739 -0.874858 -0.316821 -0.366398
0.052131 0.169249 0.887318 -0.985271 -0.039160 0.166457
0.114055 0.269752 0.613124 0.804972 0.581442 0.118091
0.117246 0.183128 0.380706 -0.975757 -0.053328 -0.212260
0.109271 0.236867 0.092052 0.940263 -0.015599 -0.340091
0.136126 0.163320 0.598172 0.988273 -0.074657 0.133204
0.118560 0.233391 0.809889 -0.704898 0.002150 -0.709306
0.099659 0.276415 0.702591 0.559840 0.828114 0.028388
0.050093 0.231692 0.826467 -0.886811 0.425762 0.179704
0.093053 0.218555 0.062782 -0.935174 0.010246 0.354039
0.138421 0.204266 0.582481 0.985321 0.078067 0.151816
0.153879 0.232831 0.313922 0.933467 0.334513 -0.129386
0.121781 0.165598 0.153679 -0.939061 -0.257042 0.228240
0.115525 0.169269 0.903900 0.978369 -0.076548 0.192185
0.156194 0.217295 0.465164 0.981939 0.138960 0.128401
0.054597 0.117064 0.647724 -0.916492 -0.387999 -0.097466
0.131947 0.235631 0.309802 -0.930637 0.351070 -0.103267
0.131223 0.116117 0.434502 0.995909 0.079169 0.043553
0.113601 0.239160 0.416524 -0.918563 0.292682 -0.265667
0.124910 0.297169 0.466412 -0.968715 0.017587 -0.247550
0.138741 0.152545 0.318865 -0.761553 -0.624042 -0.174951
0.129091 0.247575 0.586486 0.930387 0.337074 0.144086
0.143070 0.211011 0.549633 0.980565 0.113876 0.159764
0.127452 0.241597 0.179269 -0.974117 0.136259 0.180360
0.061740 0.233227 0.584734 -0.939018 0.253079 -0.232801
0.121310 0.118457 0.623158 0.908283 -0.407324 0.095438
0.037199 0.137476 0.742334 0.952215 0.207112 -0.224479
0.058967 0.262256 0.747948 -0.788755 0.608375 0.088010
0.044934 0.169070 0.631917 -0.982455 -0.026435 -0.184617
0.048506 0.239473 0.771724 -0.918819 0.386308 0.080856
0.129564 0.211286 0.811377 0.963229 0.212097 0.164938
0.128051 0.174620 0.786133 0.991371 -0.013789 0.130358
0.144695 0.214581 0.235189 0.964367 0.181089 -0.192879
0.074908 0.100893 0.790661 -0.364502 -0.919172 0.149203
0.117489 0.197684 0.893660 0.966837 0.111738 0.229654
0.074023 0.157096 0.924116 0.272660 -0.940476 0.202882
0.155372 0.215966 0.472995 0.981765 0.134282 0.134560
0.049770 0.185288 0.899750 -0.984544 0.074994 0.158270
0.141160 0.252456 0.354242 -0.997619 -0.021187 -0.065637
0.037639 0.183461 0.757161 -0.994959 -0.009317 0.099851
0.105158 0.095257 0.642392 0.679685 -0.730497 0.066351
0.150882 0.182709 0.513278 0.983531 0.000620 0.180738
0.118492 0.175566 0.892771 0.800087 -0.592589 -0.093271
0.104948 0.251670 0.088882 -0.924237 0.158402 0.347412
0.100810 0.134908 0.460423 -0.868158 -0.355209 -0.346595
0.137164 0.180091 0.183380 0.980514 -0.001978 -0.196438
0.096368 0.328787 0.555288 -0.945555 -0.202387 -0.254882
0.130348 0.155443 0.352719 -0.903556 -0.384237 -0.189599
0.132439 0.105566 0.431486 0.700276 0.399398 -0.591688
0.131492 0.249123 0.567312 0.925767 0.349251 0.144841
0.090067 0.281778 0.654622 0.128945 0.991418 0.021540
0.122029 0.204964 0.351297 -0.989224 -0.008230 -0.146176
0.132139 0.226210 0.605206 0.970813 0.197451 0.136142
0.134128 0.245606 0.329519 -0.853585 0.506656 -0.121212
0.161711 0.191751 0.432275 0.996526 0.012190 0.082385
0.132704 0.173575 0.256017 -0.927017 -0.374462 0.020434
0.119325 0.186257 0.369261 -0.982593 -0.035530 -0.182344
0.138580 0.109199 0.384823 0.996440 0.056772 0.062328
0.091958 0.075784 0.509262 -0.923083 0.300240 -0.240362
0.101674 0.123027 0.525315 0.859097 -0.349317 0.374073
0.113915 0.145862 0.419193 -0.870384 -0.329611 -0.365772
0.129820 0.193140 0.772278 0.993874 0.035702 0.104594
0.106563 0.113631 0.471986 -0.810391 -0.458244 -0.365073
0.130281 0.196918 0.665900 0.997941 0.062223 0.015566
0.078870 0.280936 0.662161 -0.275485 0.960974 -0.025245
0.121439 0.110639 0.587480 0.866817 -0.488914 0.097938
0.065376 0.152460 0.897524 0.974613 -0.194117 -0.111570
0.040500 0.220148 0.745391 -0.972522 0.224724 0.060827
0.093539 0.124961 0.042059 -0.868011 -0.265333 0.419708
0.132057 0.129058 0.571466 0.921428 -0.368836 0.122192
0.112148 0.165165 0.407868 -0.913979 -0.231312 -0.333373
0.099617 0.108579 0.522547 -0.905401 0.326141 -0.271810
0.063892 0.122463 0.866707 -0.779264 -0.605661 0.161004
0.135340 0.163960 0.604599 0.989361 -0.070865 0.127052
0.115716 0.261143 0.638417 0.886354 0.450946 0.104996
0.140369 0.101596 0.364623 0.995711 0.056212 0.073484
0.066195 0.229167 0.563964 -0.942613 0.218449 -0.252507
0.045452 0.225803 0.814933 -0.920418 0.352246 0.169567
0.091235 0.236375 0.056674 -0.920129 0.058528 0.387217
0.112082 0.122425 0.446440 -0.831677 -0.424728 -0.357659
0.126093 0.119689 0.526625 -0.912724 -0.406017 0.045657
0.160646 0.187215 0.443928 0.995370 0.007475 0.095826
0.076657 0.250389 0.547908 -0.912092 0.331426 -0.241341
0.108961 0.202419 0.091819 0.928343 0.032950 -0.370261
0.158229 0.182949 0.318164 0.976367 -0.191227 -0.100701
0.139040 0.111540 0.476470 0.861380 -0.502264 0.075870
0.094732 0.212330 0.067578 -0.939928 -0.000020 0.341374
0.161568 0.169702 0.424750 0.992758 -0.112474 0.042204
0.135160 0.163983 0.191130 0.910850 -0.410887 -0.039049
0.042226 0.223234 0.803082 -0.924746 0.328965 0.191381
0.099649 0.105788 0.518957 -0.915516 0.321816 -0.241380
0.099762 0.176420 0.958745 0.885636 0.040895 0.462576
0.052492 0.216348 0.872140 -0.919832 0.353630 0.169866
0.124679 0.104733 0.531167 0.812648 -0.568863 0.126486
0.115695 0.255685 0.671445 0.900716 0.433459 0.028704
0.114584 0.100389 0.589239 0.780440 -0.619813 0.082136
0.057866 0.264067 0.711195 -0.812599 0.582271 0.025382
0.046351 0.209202 0.846245 -0.966395 0.177175 0.186252
0.152131 0.247996 0.437143 0.927248 0.362935 0.092144
0.077855 0.110332 0.847435 -0.212146 -0.952761 0.217350
0.050491 0.187784 0.883588 -0.988949 -0.045623 0.141059
0.115399 0.247821 0.122414 -0.962589 0.073046 0.260933
0.051645 0.120474 0.666952 -0.926214 -0.373708 -0.049698
0.100358 0.215992 0.084158 -0.951009 0.009545 0.309015
0.047980 0.240019 0.665679 -0.941240 0.319421 -0.109717
0.091221 0.263410 0.814265 0.201663 0.953314 0.224775
0.120215 0.202707 0.877384 0.980476 0.124086 0.152541
0.138554 0.110166 0.468456 0.846047 -0.532076 0.033155
0.043645 0.231513 0.745228 -0.950096 0.306475 0.058224
0.126416 0.208413 0.796685 0.991173 0.088294 0.098894
0.131062 0.119370 0.722301 -0.940810 0.258179 -0.219590
0.108692 0.240410 0.090276 0.941279 -0.019159 -0.337086
0.119425 0.180584 0.882158 0.986622 -0.048337 0.155692
0.145197 0.071106 0.518823 -0.947392 -0.300089 -0.111335
0.087061 0.142266 0.890113 -0.112738 0.550517 0.827177
0.037115 0.199893 0.694343 -0.994647 0.084934 -0.058849
0.134302 0.255784 0.534403 0.907605 0.386880 0.163022
0.118512 0.232356 0.120498 0.959451 0.062487 -0.274862
0.126525 0.187467 0.211075 -0.994343 -0.045952 0.095765
0.153282 0.236362 0.319534 0.921567 0.368886 -0.120987
0.153031 0.167379 0.312186 0.932125 -0.341844 -0.119524
0.123794 0.131027 0.411507 -0.822618 -0.436471 -0.364407
0.096007 0.236826 0.059665 0.912395 -0.066330 -0.403900
0.142904 0.146953 0.327834 0.028307 -0.965405 -0.259215
0.134033 0.212789 0.606999 0.983490 0.122934 0.132794
0.050562 0.202709 0.881660 -0.977040 0.140617 0.160062
0.057201 0.262372 0.724516 -0.820012 0.570765 0.042529
0.120936 0.132011 0.109633 0.862027 -0.505041 0.042925
0.104222 0.169324 0.072773 0.903500 0.134079 -0.407075
0.162720 0.217324 0.388559 0.995807 0.091433 0.002774
0.075148 0.220866 0.917931 -0.514912 0.756260 0.403654
0.117120 0.220400 0.114394 0.948267 0.024099 -0.316557
0.106258 0.278684 0.083447 -0.944421 0.119324 0.306319
0.145453 0.188549 0.229274 0.982431 -0.019538 -0.185601
0.050084 0.193326 0.608195 -0.974719 0.055248 -0.216497
0.045026 0.235419 0.745687 -0.939952 0.336215 0.058733
0.117037 0.165127 0.134820 -0.952773 -0.172466 0.249958
0.078208 0.116994 0.853823 0.422899 0.650029 -0.631363
0.097816 0.293692 0.604649 0.987079 -0.157384 -0.030085
0.125860 0.232754 0.150299 0.971620 0.065852 -0.227197
0.125031 0.215219 0.803748 0.985620 0.142132 0.091388
0.141466 0.263012 0.472345 0.864580 0.493465 0.094835
0.161735 0.220885 0.409848 0.988670 0.138862 0.056996
0.094727 0.219988 0.464023 -0.942970 0.152652 -0.295813
0.106819 0.246681 0.096283 -0.929138 0.155590 0.335403
0.102396 0.261289 0.078124 -0.923721 0.146072 0.354122
0.137828 0.185841 0.591308 0.989598 0.004273 0.143799
0.076498 0.137987 0.900776 0.100501 0.972384 0.210641
0.130335 0.114533 0.719342 -0.930145 0.287089 -0.228932
0.124259 0.164874 0.126954 0.960599 0.065187 -0.270187
0.145261 0.230572 0.517658 0.960768 0.216360 0.173529
0.082534 0.192603 0.492772 -0.946764 0.054950 -0.317206
0.097472 0.278968 0.537027 -0.516865 0.842716 -0.150599
0.079793 0.219717 0.510326 -0.941711 0.160917 -0.295441
0.160487 0.205587 0.439850 0.992394 0.066112 0.103847
0.041215 0.204610 0.659688 -0.984135 0.106413 -0.141965
0.125842 0.144693 0.715390 0.948155 -0.317807 -0.000175
0.143756 0.239400 0.259752 0.927020 0.344272 -0.148696
0.093904 0.268274 0.515233 -0.816694 0.516059 -0.258250
0.123996 0.131274 0.644739 0.940501 -0.327143 0.091841
0.151048 0.050646 0.522727 0.926203 0.334183 0.174555
0.077693 0.240562 0.879237 -0.311001 0.885550 0.345079
0.140501 0.164283 0.569190 0.984862 -0.078225 0.154686
0.127983 0.168076 0.834353 0.980733 -0.043309 0.190491
0.103511 0.197973 0.078032 0.915458 0.057336 -0.398309
0.055894 0.116895 0.637447 -0.916173 -0.381434 -0.123029
0.064468 0.138758 0.559208 -0.942108 -0.229849 -0.244134
0.145176 0.184248 0.545495 0.986193 -0.001882 0.165587
0.090597 0.234621 0.055307 -0.917301 0.053836 0.394539
0.155441 0.196935 0.485726 0.987368 0.054006 0.148958
0.141901 0.107762 0.351229 -0.998222 -0.026454 -0.053408
0.121569 0.187852 0.870368 0.989279 -0.011968 0.145547
0.145728 0.062387 0.529276 0.931776 0.318694 0.173859
0.108942 0.330273 0.508289 -0.927527 -0.121836 -0.353342
0.080825 0.124941 0.934977 -0.344534 -0.908549 0.236295
0.158733 0.195003 0.460056 0.992450 0.040226 0.115866
0.107864 0.151997 0.074458 0.904707 0.174454 -0.388678
0.053060 0.185689 0.594006 -0.972749 0.033348 -0.229451
0.122490 0.135637 0.732579 0.936680 -0.350064 0.009233
0.140421 0.077305 0.378735 -0.996177 0.024807 -0.083762
0.121046 0.173211 0.157947 -0.967594 -0.157456 0.197409
0.090069 0.277515 0.739541 0.184811 0.975325 0.120776
0.149879 0.155597 0.325828 0.879594 -0.458920 -0.125325
0.131828 0.250342 0.360008 -0.805856 0.566968 -0.170713
0.133559 0.155018 0.611655 0.984372 -0.130297 0.118466
0.061232 0.185769 0.932238 -0.952394 0.101030 0.287642
0.136686 0.080277 0.411991 -0.982619 0.046330 -0.179760
0.050907 0.157757 0.604667 -0.975653 -0.074467 -0.206292
0.131725 0.105228 0.703119 -0.934149 0.259809 -0.244674
0.130581 0.159251 0.343483 -0.912418 -0.371589 -0.171510
0.125544 0.230285 0.702275 0.962424 0.270210 -0.026960
0.151133 0.186730 0.512023 0.983658 0.014321 0.179474
0.090617 0.309196 0.588994 -0.909122 -0.254761 -0.329537
0.096557 0.128907 0.051703 -0.886542 -0.260864 0.382091
0.158263 0.215406 0.451055 0.985097 0.123081 0.120144
0.127283 0.260968 0.408697 -0.703579 0.661538 -0.259506
0.146336 0.239989 0.499148 0.948710 0.269027 0.166055
0.049551 0.212476 0.619317 -0.967712 0.146835 -0.204874
0.038555 0.206211 0.684223 -0.989373 0.120167 -0.081855
0.088432 0.254566 0.046442 -0.882838 0.124114 0.452982
0.115254 0.151460 0.118381 -0.936188 -0.198813 0.289870
0.073417 0.257840 0.816543 0.247126 -0.497489 -0.831525
0.136804 0.114539 0.406368 0.994175 0.013412 0.106943
0.040470 0.190294 0.824419 -0.980358 0.051025 0.190511
0.121241 0.103445 0.744132 -0.979760 0.048955 -0.194097
0.056390 0.145600 0.586274 -0.960887 -0.172241 -0.216861
0.112506 0.094425 0.557587 0.661559 -0.746213 0.074207
0.098512 0.218591 0.078374 -0.947288 0.015835 0.319993
0.054856 0.138169 0.860428 -0.921379 -0.366265 0.130043
0.099132 0.118610 0.536296 -0.939697 0.293148 -0.176164
0.069923 0.234757 0.555279 -0.936372 0.243153 -0.253148
0.039150 0.214944 0.693978 -0.982861 0.176022 -0.054778
0.039702 0.211974 0.756414 -0.983390 0.163367 0.079092
0.126973 0.163505 0.136821 0.973330 -0.009509 -0.229211
0.080194 0.052688 0.528671 0.980243 -0.189527 0.056589
0.042866 0.165791 0.796280 -0.992524 -0.019657 0.120454
0.101127 0.088391 0.539621 -0.019692 -0.997595 -0.066462
0.124790 0.175961 0.346686 -0.957442 -0.243249 -0.155350
0.097099 0.156108 0.919802 -0.246294 -0.940983 0.232142
0.120710 0.198843 0.167519 -0.986297 -0.011258 0.164596
0.092134 0.170748 0.463686 -0.946919 -0.029998 -0.320069
0.128217 0.193484 0.831788 0.983855 0.046939 0.172703
0.056192 0.203353 0.912011 -0.635044 0.621973 0.458114
0.101143 0.223322 0.086055 -0.949502 0.036429 0.311639
0.128998 0.098179 0.706420 -0.939519 0.238155 -0.246141
0.102821 0.266069 0.772653 0.615786 0.774967 0.142245
0.093726 0.087596 0.572880 -0.110544 -0.993241 -0.035378
0.103325 0.154364 0.917481 -0.014978 -0.963300 0.268008
0.106646 0.332367 0.514035 -0.935478 -0.129967 -0.328618
0.124071 0.231635 0.767783 0.949367 0.305999 0.071180
0.152069 0.155342 0.346261 0.910537 -0.401685 -0.097835
0.127512 0.120761 0.514130 -0.532008 -0.584001 0.613116
0.137609 0.120060 0.696365 0.951458 -0.243557 0.188168
0.087392 0.095793 0.541616 -0.733327 -0.644048 -0.217792
0.114299 0.134071 0.854109 0.881112 -0.456215 0.124536
0.132672 0.139523 0.593832 0.951819 -0.279218 0.126800
0.042940 0.133129 0.768866 -0.846151 -0.468588 0.253878
0.046039 0.239155 0.740016 -0.930475 0.362830 0.050701
0.109063 0.135503 0.068870 0.907773 0.200376 -0.368507
0.102171 0.282246 0.555887 -0.045244 0.998611 -0.027017
0.095481 0.196513 0.955832 0.702372 0.513667 0.492768
0.101007 0.122207 0.533361 -0.910849 0.313077 -0.268957
0.122143 0.181333 0.169088 -0.981483 -0.099609 0.163615
0.094021 0.133184 0.048784 -0.881721 -0.241903 0.405033
0.142103 0.182021 0.563969 0.986933 -0.010781 0.160771
0.060071 0.127639 0.863936 -0.867186 -0.475750 0.147139
0.136534 0.076208 0.406198 0.994396 0.038000 0.098651
0.062522 0.184487 0.556946 -0.963817 0.040767 -0.263430
0.141126 0.087351 0.503144 0.920075 0.329098 0.212501
0.101481 0.256983 0.077658 -0.919856 0.155386 0.360167
0.037087 0.170124 0.696803 -0.994749 -0.092863 -0.043027
0.143879 0.199175 0.220805 0.981389 0.051911 -0.184880
0.129548 0.201689 0.259417 -0.999551 -0.028496 0.009218
0.037919 0.174728 0.757080 -0.993176 -0.066462 0.095832
0.071324 0.194039 0.952057 -0.784116 0.426269 0.451062
0.101971 0.173541 0.086066 -0.946558 -0.067776 0.315331
0.122115 0.217143 0.165009 -0.965585 0.166444 0.199856
0.132929 0.120567 0.536670 0.889993 -0.435022 0.136631
0.113275 0.199459 0.129453 -0.972988 -0.034396 0.228278
0.048230 0.229011 0.812067 -0.945860 0.310883 0.093278
0.150859 0.058339 0.508451 -0.932326 -0.320612 -0.167261
0.108028 0.187261 0.087009 0.921421 0.086856 -0.378734
0.146879 0.126015 0.426996 0.886776 -0.459797 -0.047056
0.058581 0.149360 0.903887 -0.828171 -0.396850 0.395782
0.093289 0.235102 0.478693 -0.926359 0.235283 -0.294110
0.160927 0.190041 0.440935 0.995477 0.013140 0.094084
0.161583 0.221333 0.411524 0.987723 0.143587 0.061528
0.115009 0.134323 0.106337 -0.899400 -0.296602 0.321104
0.107818 0.091875 0.505788 -0.225245 -0.949503 -0.218423
0.064180 0.151578 0.910631 0.234364 -0.897204 0.374297
0.079426 0.257203 0.833650 -0.196291 0.931064 0.307556
0.124824 0.152713 0.153970 -0.913879 -0.305105 0.267836
0.039528 0.122694 0.744887 0.969819 0.095647 -0.224283
0.050980 0.244933 0.771597 -0.894511 0.438507 0.086962
0.128886 0.229789 0.623385 0.967462 0.222214 0.120989
0.112109 0.252607 0.788800 0.820682 0.559310 0.116847
0.096844 0.091416 0.684897 0.496354 -0.867561 0.031155
0.148517 0.227563 0.268835 0.957308 0.241590 -0.158730
0.062975 0.109918 0.791407 -0.746746 -0.657039 0.103300
0.119640 0.248474 0.138719 -0.972694 0.049513 0.226748
0.123231 0.112561 0.751851 0.983837 -0.081661 0.159365
0.111368 0.125429 0.840117 0.831232 -0.540789 0.128846
0.110538 0.216767 0.410700 -0.958371 0.111183 -0.262988
0.101890 0.274190 0.714006 0.612826 0.789148 0.041095
0.140659 0.096437 0.382156 -0.996785 0.020291 -0.077505
0.107528 0.126542 0.452678 -0.850394 -0.393516 -0.349249
0.129242 0.215673 0.711677 0.983966 0.176066 -0.028490
0.160158 0.218635 0.335323 0.989054 0.118783 -0.087534
0.051393 0.237733 0.807901 -0.900953 0.421157 0.104448
0.095248 0.298071 0.043581 -0.898002 0.198482 0.392680
0.147477 0.184849 0.240044 0.981806 -0.050233 -0.183121
0.113474 0.212623 0.893880 0.864957 0.412810 0.285373
0.042728 0.208968 0.793755 -0.990429 0.096912 0.098274
0.112762 0.161992 0.117113 -0.950817 -0.142133 0.275218
0.116737 0.142577 0.887034 0.910441 -0.250055 0.329498
0.062721 0.267035 0.651425 -0.810317 0.573650 -0.119634
0.082961 0.111572 0.863362 -0.035934 -0.984589 0.171152
0.102981 0.292166 0.577894 0.995546 -0.090710 0.025675
0.118733 0.310666 0.489468 -0.941700 -0.002910 -0.336440
0.113020 0.187389 0.916357 0.969911 0.064807 0.234676
0.142724 0.177612 0.559797 0.986428 -0.026369 0.162065
0.036506 0.172402 0.732193 -0.994834 -0.097438 0.028477
0.139167 0.111421 0.472535 0.859942 -0.507117 0.057715
0.112941 0.155951 0.898296 0.169866 0.966866 -0.190568
0.118365 0.132556 0.095077 0.961339 0.106598 -0.253898
0.126659 0.148072 0.754082 0.952908 -0.302456 0.022068
0.137978 0.263096 0.393910 -0.049477 0.977841 -0.203416
0.123301 0.225082 0.351311 -0.969297 0.201812 -0.140481
0.044544 0.164290 0.804423 0.827546 0.014171 -0.561219
0.113252 0.169777 0.401625 -0.934473 -0.186012 -0.303576
0.128897 0.169523 0.799093 -0.752660 -0.153424 -0.640285
0.100190 0.095824 0.493831 0.878134 -0.354970 0.320745
0.105531 0.250523 0.829643 0.643370 0.731970 0.224266
0.104052 0.134255 0.452995 -0.863926 -0.362619 -0.349484
0.119456 0.117211 0.636701 0.906222 -0.413185 0.089666
0.113994 0.217668 0.397454 -0.967342 0.108852 -0.228910
0.106918 0.257952 0.794382 0.723041 0.676273 0.140951
0.131694 0.273497 0.452227 0.324761 0.941684 -0.088093
0.115068 0.145419 0.882153 0.962214 -0.157578 0.222067
0.089253 0.228793 0.486534 -0.932952 0.201388 -0.298401
0.053695 0.122519 0.775201 -0.895487 -0.441535 0.056118
0.102387 0.097805 0.732334 0.656942 -0.751140 0.064921
0.055719 0.169874 0.907950 -0.973940 -0.121742 0.191364
0.090114 0.198417 0.055232 -0.907505 -0.010739 0.419903
0.130819 0.165542 0.196505 -0.889329 -0.426368 0.165242
0.120863 0.184255 0.891713 0.998385 -0.048808 0.029080
0.138058 0.268973 0.462739 0.744517 0.666588 0.036806
0.113346 0.210319 0.897278 0.882172 0.373662 0.286618
0.137614 0.087879 0.519350 0.926005 0.354323 0.130265
0.122400 0.241184 0.729864 0.933360 0.358866 0.007365
0.093507 0.199606 0.057011 0.908374 0.046137 -0.415606
0.131170 0.228207 0.223825 -0.981582 0.173528 0.079910
0.135103 0.231993 0.577166 0.961990 0.227487 0.151078
0.140566 0.116309 0.371434 -0.996690 -0.075234 -0.030796
0.084515 0.281662 0.685860 -0.007558 0.999654 0.025204
0.129414 0.160877 0.763335 0.986456 -0.152749 0.059760
0.037316 0.168826 0.694110 -0.993794 -0.100650 -0.047356
0.099277 0.302109 0.598428 0.977056 -0.198962 -0.075993
0.044400 0.223383 0.785734 -0.968858 0.233800 0.081562
0.087253 0.272022 0.038356 -0.833209 0.205844 0.513217
0.032528 0.097873 0.705110 0.967251 0.063304 -0.245803
0.048179 0.246538 0.710917 -0.915163 0.403055 0.004895
0.073526 0.229428 0.537630 -0.940334 0.208060 -0.269226
0.134805 0.105152 0.459036 0.728651 -0.683035 -0.050312
0.056705 0.164589 0.908491 -0.953685 -0.200652 0.224105
0.113541 0.225545 0.404136 -0.952945 0.184179 -0.240777
0.108643 0.274839 0.092357 -0.950231 0.103731 0.293770
0.125407 0.227675 0.767001 0.960034 0.271210 0.069130
0.121645 0.312730 0.486168 0.962872 0.089544 0.254676
0.142431 0.262324 0.320239 0.998848 -0.001685 -0.047963
0.125682 0.256989 0.155131 0.613677 0.772112 0.165058
0.048163 0.129281 0.672785 -0.941582 -0.334350 -0.040420
0.139889 0.112308 0.452991 0.835804 -0.548690 -0.019258
0.162024 0.190394 0.359613 0.998359 -0.018890 -0.054054
0.100103 0.328565 0.569223 0.485185 0.722747 0.492171
0.096133 0.138001 0.952234 0.885176 -0.314066 0.343257
0.138212 0.168839 0.209251 0.924461 -0.370858 -0.088527
0.093773 0.281444 0.645303 0.236988 0.970788 0.037505
0.150410 0.237978 0.303084 0.920106 0.369865 -0.128857
0.037981 0.161256 0.717569 -0.980417 -0.196848 0.005784
0.116330 0.249435 0.114756 0.959267 -0.034554 -0.280379
0.103135 0.320239 0.531535 -0.953791 -0.132888 -0.269488
0.130846 0.165373 0.156112 0.976564 -0.132709 -0.169445
0.104636 0.302765 0.556122 0.994438 -0.024652 0.102398
0.102789 0.326940 0.529099 -0.956566 -0.114120 -0.268250
0.158359 0.155469 0.428111 0.955986 -0.293310 -0.007723
0.129594 0.248601 0.178336 0.252683 0.939101 0.232896
0.063932 0.200150 0.555589 -0.959683 0.090453 -0.266132
0.038655 0.167625 0.676312 -0.992304 -0.087211 -0.087908
0.077880 0.272901 0.594154 -0.749660 0.644650 -0.149785
0.052439 0.157704 0.597711 -0.974303 -0.070705 -0.213857
0.096476 0.088410 0.549861 -0.190815 -0.977994 -0.084366
0.050767 0.177514 0.880522 -0.986965 -0.051858 0.152350
0.056533 0.249779 0.796187 -0.834530 0.538204 0.117882
0.107002 0.097709 0.646430 0.744029 -0.664140 0.073061
0.127706 0.138468 0.631735 0.950137 -0.293894 0.104237
0.064075 0.192655 0.552908 -0.961300 0.065588 -0.267581
0.051337 0.123924 0.741089 -0.922249 -0.384777 0.037458
0.143298 0.142066 0.527815 0.941270 -0.292665 0.168398
0.154486 0.162340 0.342187 0.933199 -0.347335 -0.092188
0.134379 0.159593 0.320148 -0.891758 -0.431608 -0.135948
0.087719 0.244395 0.046856 -0.888128 0.091410 0.450415
0.111654 0.290329 0.521721 0.957448 0.086109 0.275459
0.104250 0.272386 0.712203 0.684016 0.728870 0.029489
0.074236 0.251888 0.559658 -0.908214 0.350005 -0.229444
0.120058 0.161464 0.111481 0.948162 0.102755 -0.300717
0.134620 0.129635 0.554049 0.915793 -0.380291 0.129237
0.116618 0.139801 0.807970 -0.972378 0.124446 -0.197470
0.085667 0.275121 0.758613 0.033833 0.986258 0.161709
0.143699 0.155419 0.298467 0.371597 -0.898298 -0.234472
0.073318 0.110241 0.563231 -0.885226 -0.413614 -0.212832
0.133628 0.125012 0.721721 0.971156 -0.142749 0.190991
0.099586 0.225284 0.069356 0.915064 -0.036407 -0.401662
0.114003 0.216171 0.131733 -0.966652 0.073576 0.245295
0.137160 0.086906 0.527184 0.927933 0.360214 0.095841
0.126717 0.181978 0.798402 -0.810247 -0.147293 -0.567278
0.079531 0.158264 0.500519 -0.941170 -0.062115 -0.332175
0.039207 0.208722 0.756242 -0.986538 0.141567 0.081866
0.100328 0.107720 0.512642 0.939809 -0.291562 0.178187
0.134764 0.169301 0.611294 0.991475 -0.047202 0.121448
0.071249 0.179473 0.525736 -0.956633 0.031584 -0.289580
0.094815 0.251137 0.848750 0.314404 0.899356 0.303823
0.156861 0.173617 0.327642 0.954428 -0.282365 -0.096632
0.078317 0.152187 0.901737 0.283683 -0.888769 0.360018
0.043074 0.156797 0.794723 -0.992154 -0.096588 0.079384
0.078748 0.198757 0.957561 -0.488348 0.675539 0.552416
0.105164 0.100777 0.735787 0.733597 -0.676652 0.063069
0.037290 0.165403 0.708739 -0.989040 -0.146966 -0.014185
0.056752 0.121902 0.825257 -0.863808 -0.495680 0.090205
0.133505 0.212130 0.611575 0.984388 0.120136 0.128639
0.098422 0.273847 0.743297 0.481337 0.868869 0.115676
0.082350 0.266939 0.801068 -0.085002 0.975340 0.203683
0.109364 0.169964 0.085259 0.917487 0.128694 -0.376371
0.051440 0.140558 0.801853 0.976487 0.027080 -0.213869
0.123953 0.210192 0.799398 -0.860568 0.067364 -0.504862
0.118632 0.130926 0.811264 0.830253 -0.556352 0.033940
0.074077 0.277973 0.717763 -0.388881 0.918931 0.065865
0.130655 0.112555 0.718477 0.964094 -0.183231 0.192221
0.047913 0.123415 0.776802 0.928264 0.262000 -0.263974
0.149710 0.237975 0.297974 0.922382 0.363574 -0.130481
0.076448 0.097696 0.774645 -0.313015 -0.939173 0.141336
0.132675 0.130312 0.570288 0.923739 -0.362340 0.124159
0.107796 0.131314 0.886433 0.831468 -0.536306 0.145042
0.069931 0.130175 0.547736 -0.923331 -0.287818 -0.254205
0.107353 0.210519 0.419290 -0.956049 0.080006 -0.282079
0.091424 0.274428 0.757760 0.237084 0.958930 0.155707
0.139947 0.258058 0.367488 -0.083741 0.980683 -0.176772
0.117447 0.126703 0.089379 0.977570 -0.014724 -0.210098
0.073779 0.147930 0.520309 -0.942042 -0.141151 -0.304357
0.122352 0.108323 0.568156 0.849216 -0.518607 0.099397
0.069131 0.103561 0.600115 -0.832850 -0.530114 -0.159189
0.127560 0.149811 0.723153 0.956457 -0.291866 -0.002147
0.113014 0.221066 0.403101 -0.960323 0.141228 -0.240486
0.091926 0.137862 0.939052 -0.325127 0.937907 -0.120925
0.137492 0.096186 0.399835 0.988620 -0.024915 0.148359
0.115519 0.245493 0.417466 -0.899212 0.345169 -0.268841
0.114844 0.276632 0.567581 0.647879 0.754133 0.107405
0.038365 0.195093 0.761543 -0.993536 0.051770 0.101025
0.079178 0.259972 0.816539 0.121565 -0.535706 -0.835608
0.067816 0.184936 0.538211 -0.959683 0.044673 -0.277511
0.087494 0.080469 0.529486 0.952726 -0.261989 0.153868
0.054348 0.139532 0.823369 -0.880075 -0.383685 0.279740
0.045634 0.143904 0.798917 -0.958457 -0.282832 0.036965
0.088083 0.249985 0.855791 0.090015 0.937962 0.334849
0.094347 0.161387 0.943500 -0.231307 -0.959506 0.160765
0.088447 0.249093 0.047760 -0.887927 0.106841 0.447405
0.125938 0.110070 0.730265 -0.913554 0.318273 -0.253222
0.139489 0.074107 0.539049 0.916622 0.299625 0.264630
0.051416 0.122802 0.731707 -0.921415 -0.386985 0.035173
0.105097 0.129393 0.455509 -0.857444 -0.380687 -0.346218
0.141301 0.090669 0.371180 -0.997827 0.019507 -0.062938
0.067337 0.157700 0.928834 0.084760 -0.972076 0.218824
0.090385 0.181795 0.055400 -0.920366 -0.044579 0.388510
0.141824 0.233171 0.533359 0.957985 0.234267 0.165479
0.120269 0.128187 0.683150 0.936760 -0.348663 0.030232
0.108138 0.240615 0.435575 -0.914871 0.286306 -0.284676
0.156613 0.178583 0.480033 0.990333 -0.005341 0.138604
0.071433 0.277846 0.690385 -0.496519 0.867839 0.018001
0.103507 0.154614 0.906027 -0.968239 -0.222504 -0.114037
0.110730 0.307647 0.521671 0.966673 0.083145 0.242136
0.121960 0.130593 0.666442 0.940611 -0.334241 0.059448
0.118573 0.265116 0.130193 -0.933350 0.203515 0.295702
0.137321 0.210471 0.585962 0.982870 0.107980 0.149355
0.126551 0.117229 0.573580 0.890014 -0.442815 0.108577
0.130216 0.161258 0.711636 0.985071 -0.171032 -0.019580
0.033213 0.133176 0.721377 0.956370 0.184481 -0.226545
0.065699 0.122585 0.838375 0.897100 0.156709 -0.413102
0.143590 0.223901 0.238263 0.964102 0.190275 -0.185210
0.108975 0.253096 0.447404 -0.877826 0.383474 -0.286999
0.093132 0.268231 0.517623 -0.819165 0.513756 -0.254997
0.111768 0.196532 0.122652 -0.969745 -0.030808 0.242170
0.143329 0.219474 0.540659 0.974077 0.158636 0.161273
0.099672 0.253141 0.074456 -0.925114 0.131422 0.356220
0.161361 0.168493 0.402176 0.966586 -0.251897 -0.047542
0.102669 0.239133 0.087363 -0.940085 0.096904 0.326879
0.101980 0.091000 0.618116 0.505203 -0.861842 0.044702
0.036517 0.193014 0.698647 -0.997745 0.045722 -0.049133
0.042768 0.143826 0.699645 -0.949523 -0.313695 0.000928
0.097934 0.280491 0.545844 -0.392200 0.913168 -0.110918
0.142371 0.264660 0.448641 0.800849 0.596914 0.048326
0.100937 0.221105 0.072635 0.915965 -0.027515 -0.400314
0.108636 0.181647 0.109228 -0.960439 -0.053601 0.273283
0.063146 0.263309 0.770521 -0.704288 0.698394 0.127373
0.060431 0.151874 0.566013 -0.964027 -0.101026 -0.245856
0.154584 0.172187 0.311508 0.945201 -0.305528 -0.115102
0.086105 0.185339 0.972091 0.071862 0.413725 0.907561
0.119900 0.217294 0.155724 -0.966628 0.138992 0.215202
0.154045 0.230378 0.463803 0.968608 0.212937 0.128284
0.156506 0.238965 0.424736 0.951832 0.295808 0.080702
0.112168 0.262180 0.694102 0.854985 0.518633 -0.004547
0.129901 0.255263 0.383739 -0.761825 0.613699 -0.207356
0.138704 0.216316 0.203734 0.967219 0.181710 -0.177394
0.123695 0.254170 0.604345 0.911525 0.387842 0.136750
0.124253 0.203473 0.334671 -0.992539 -0.014933 -0.121010
0.077051 0.262513 0.566982 -0.871276 0.446029 -0.204785
0.138824 0.152839 0.317436 -0.759464 -0.627181 -0.172797
0.058349 0.253594 0.633909 -0.893801 0.416042 -0.167416
0.127288 0.204347 0.793710 -0.790148 0.026456 -0.612344
0.034697 0.100089 0.716848 -0.969821 -0.105785 0.219674
0.050075 0.124111 0.669988 -0.934892 -0.352188 -0.044064
0.114767 0.187981 0.104705 0.936154 0.081359 -0.342048
0.132271 0.190724 0.635484 0.995189 0.018719 0.096166
0.156823 0.150814 0.426204 0.948495 -0.316380 -0.016131
0.098019 0.102755 0.792612 0.505228 -0.851497 0.140346
0.129362 0.171324 0.203600 -0.931588 -0.341379 0.124913
0.078380 0.124327 0.926849 -0.455942 -0.863739 0.214643
0.127987 0.132521 0.758373 0.819436 -0.527373 0.224505
0.141382 0.125014 0.364511 -0.992045 0.066999 -0.106576
0.127567 0.194059 0.225848 -0.995613 -0.024497 0.090307
0.061891 0.117200 0.837666 -0.768564 -0.623914 0.141567
0.058945 0.113264 0.777174 -0.830512 -0.551243 0.079883
0.128334 0.186871 0.785374 0.991910 0.000871 0.126937
0.040516 0.190142 0.781446 -0.992621 0.009730 0.120866
0.059505 0.247698 0.615544 -0.910535 0.366732 -0.190876
0.126513 0.179575 0.797519 0.989977 -0.014667 0.140465
0.150687 0.226849 0.492467 0.967979 0.193871 0.159468
0.129500 0.206875 0.682483 0.992886 0.117266 -0.020637
0.125826 0.180995 0.195110 -0.984424 -0.134182 0.113598
0.143480 0.228806 0.529346 0.963308 0.208599 0.168889
0.068621 0.165080 0.939578 -0.482284 0.876002 0.004716
0.108331 0.156389 0.918591 0.872725 -0.349764 0.340611
0.103802 0.122505 0.048911 0.877020 0.292140 -0.381431
0.135673 0.241733 0.297825 -0.902213 0.425139 -0.072582
