0.277937 0.165595 0.159877 -0.010615 0.289256 0.957193
0.763471 0.148457 0.164491 0.090749 -0.970271 -0.224365
0.630760 0.110792 0.193910 0.050390 -0.911318 0.408609
0.416929 0.132555 0.169733 -0.874430 -0.480194 0.069185
0.483431 0.088646 0.125976 -0.309486 -0.721891 -0.618944
0.557845 0.133479 0.146701 0.927881 -0.244990 -0.281100
0.643501 0.163887 0.160638 0.013176 0.119257 0.992776
0.136671 0.174710 0.140248 -0.200581 0.348739 0.915504
0.531914 0.202583 0.136077 0.221363 0.815804 0.534287
0.483076 0.182846 0.083188 -0.518703 0.012555 -0.854862
0.684425 0.186182 0.146929 -0.004611 0.693900 0.720057
0.628045 0.179002 0.150107 0.017856 0.454651 0.890491
0.228205 0.154819 0.169728 -0.140161 0.037090 0.989434
0.452083 0.191075 0.142139 -0.227622 0.731613 0.642597
0.765206 0.187943 0.143681 0.034065 0.604652 0.795761
0.130538 0.120511 0.180358 -0.238681 -0.925547 0.293928
0.707967 0.158975 0.153534 0.010851 -0.872632 -0.488258
0.582756 0.189422 0.133799 0.331921 0.941229 -0.062574
0.310707 0.171315 0.156935 0.013011 0.340876 0.940018
0.573720 0.182814 0.123873 0.545641 0.287887 -0.787018
0.547397 0.168379 0.117029 0.688626 -0.243971 -0.682841
0.345509 0.114683 0.191615 -0.023733 -0.922831 0.384474
0.548151 0.093101 0.154004 0.884149 -0.444646 -0.143423
0.073835 0.149860 0.149880 -0.360360 -0.930513 0.065465
0.527101 0.106058 0.209665 0.426757 0.469961 0.772668
0.729098 0.183437 0.135937 -0.004350 -0.328850 -0.944372
0.557453 0.126695 0.145955 0.925166 -0.275874 -0.260693
0.499051 0.081140 0.191917 -0.008672 -0.930649 0.365810
0.157815 0.185656 0.133527 -0.110225 0.855013 0.506758
0.246660 0.118874 0.193252 -0.126444 -0.923300 0.362669
0.509040 0.154750 0.184366 0.174403 0.624356 0.761422
0.705025 0.189084 0.144329 0.014793 0.819523 0.572856
0.142844 0.130812 0.173062 -0.167790 -0.969854 0.176717
0.825456 0.184302 0.136547 0.134435 0.737607 0.661712
0.783888 0.146225 0.177430 0.204423 -0.210844 0.955906
0.818801 0.148744 0.169360 0.279068 -0.140049 0.950004
0.425560 0.117836 0.188347 -0.902218 -0.079714 0.423850
0.450815 0.145168 0.123663 -0.842566 -0.209456 -0.496196
0.218511 0.121908 0.192842 -0.190976 -0.933435 0.303691
0.447434 0.072603 0.225327 -0.915273 -0.013111 0.402620
0.858373 0.152281 0.152919 0.099360 -0.966619 -0.236170
0.246755 0.168146 0.157801 -0.043264 0.354980 0.933872
0.742103 0.123235 0.192040 0.106221 -0.615026 0.781319
0.327029 0.118165 0.189444 0.000194 -0.935261 0.353959
0.496357 0.049309 0.287211 -0.067035 -0.932904 -0.353830
0.452915 0.202643 0.110603 -0.707558 0.414586 -0.572259
0.713509 0.181719 0.136958 0.003671 -0.404508 -0.914527
0.049250 0.182987 0.119715 -0.387123 0.706073 -0.592955
0.546706 0.046981 0.252960 -0.057589 -0.896100 -0.440101
0.788313 0.127931 0.187433 0.201178 -0.959816 0.195653
0.360409 0.141098 0.168462 -0.060017 -0.982306 -0.177407
0.784869 0.136573 0.178431 0.178500 -0.983592 0.026166
0.556834 0.198929 0.116356 0.646579 0.487888 -0.586430
0.793406 0.130426 0.190561 0.246594 -0.578494 0.777520
0.509424 0.055523 0.282137 0.140292 0.735498 0.662843
0.191762 0.172198 0.150581 -0.170696 0.390257 0.904744
0.358491 0.150440 0.160452 -0.065482 -0.926084 -0.371591
0.804032 0.181313 0.131254 -0.021734 -0.543362 -0.839217
0.470419 0.146379 0.092202 -0.524652 -0.280617 -0.803738
0.528012 0.102163 0.118440 0.426595 -0.618935 -0.659497
0.436468 0.163321 0.129557 -0.589599 -0.455366 -0.667095
0.651103 0.169742 0.143764 0.077499 -0.721582 -0.687978
0.491260 0.096158 0.204675 0.058721 -0.986572 -0.152409
0.444197 0.109098 0.191332 -0.840576 -0.293705 0.455158
0.443250 0.117502 0.197580 -0.704093 0.066845 0.706955
0.519456 0.118804 0.099300 0.339278 -0.516065 -0.786491
0.530997 0.055739 0.252491 -0.337731 -0.897806 -0.282634
0.876149 0.123095 0.176926 0.253046 -0.936008 0.244656
0.550452 0.155619 0.168679 0.447263 0.548974 0.706104
0.659408 0.132356 0.182388 0.001326 -0.493253 0.869885
0.320180 0.182604 0.136271 -0.036216 -0.227111 -0.973195
0.515898 0.053627 0.283472 0.220826 0.722179 0.655510
0.772364 0.137491 0.176338 0.143776 -0.989578 0.007970
0.877963 0.174316 0.139019 0.205697 0.314711 0.926631
0.095743 0.150182 0.152452 -0.312275 -0.946613 -0.080050
0.547732 0.085676 0.165965 0.896604 -0.434712 0.084422
0.455955 0.081775 0.215329 -0.427355 -0.838483 -0.338104
0.551078 0.125376 0.197473 0.455893 0.419355 0.785050
0.304101 0.173403 0.141640 -0.017014 -0.710507 -0.703484
0.839846 0.115517 0.190588 0.189249 -0.897673 0.397955
0.787269 0.131629 0.183621 0.193493 -0.973058 0.125376
0.604228 0.123525 0.181556 0.108074 -0.980857 0.161989
0.535704 0.073444 0.224872 0.128521 -0.925188 -0.357086
0.561413 0.109448 0.192108 0.826536 -0.480564 0.293080
0.501811 0.124373 0.087348 0.035341 -0.542231 -0.839486
0.456778 0.063618 0.241462 -0.506938 0.585861 0.632283
0.799345 0.179605 0.132246 -0.017545 -0.693753 -0.720000
0.526970 0.136744 0.195952 0.298506 0.543754 0.784363
0.515421 0.109251 0.106744 0.222323 -0.626944 -0.746669
0.513936 0.177414 0.161863 0.148408 0.660366 0.736133
0.486603 0.084526 0.223562 0.273193 -0.959770 -0.064868
0.085742 0.150275 0.150731 -0.334165 -0.942341 -0.018070
0.156652 0.130199 0.177529 -0.231146 -0.707244 0.668115
0.455601 0.097820 0.183924 -0.745960 -0.638573 -0.189123
0.469549 0.159153 0.172764 -0.284281 0.608438 0.740937
0.945627 0.175493 0.131671 0.315642 0.486064 0.814931
0.459343 0.057793 0.241576 0.014264 -0.914758 -0.403751
0.837594 0.138269 0.172204 0.254481 -0.530077 0.808862
0.172887 0.115679 0.194330 -0.204055 -0.896860 0.392434
0.257182 0.190617 0.133782 -0.017105 0.564121 -0.825515
0.200986 0.139360 0.181795 -0.258065 -0.382340 0.887254
0.434101 0.129167 0.183208 -0.865310 0.150078 0.478243
0.770449 0.128047 0.185643 0.156634 -0.967602 0.198023
0.610758 0.187103 0.131985 0.342857 0.656074 -0.672321
0.489597 0.208293 0.067523 -0.186620 0.034068 -0.981841
0.484168 0.211335 0.072229 -0.558528 -0.540361 0.629330
0.278688 0.154500 0.156844 -0.007292 -0.924671 -0.380698
0.546949 0.098396 0.209827 0.690176 0.139542 0.710060
0.709723 0.117082 0.190966 0.019899 -0.914465 0.404176
0.502966 0.129996 0.205162 0.081074 0.594674 0.799869
0.473341 0.054077 0.262275 0.541849 -0.824659 -0.162286
0.242894 0.154712 0.157612 -0.054932 -0.935010 -0.350340
0.962435 0.163084 0.136150 0.879916 -0.363597 -0.305852
0.533240 0.051830 0.271893 0.444627 0.628592 0.638106
0.345927 0.190077 0.142700 -0.037244 0.957700 0.285346
0.217873 0.169960 0.157442 -0.119276 0.359511 0.925486
0.247945 0.113131 0.200750 -0.136470 -0.756063 0.640114
0.207185 0.128321 0.192161 -0.243824 -0.612574 0.751867
0.417101 0.182745 0.127180 -0.467727 0.387119 -0.794589
0.352883 0.109448 0.195759 -0.029627 -0.890749 0.453529
0.531897 0.177952 0.156781 0.167876 0.631952 0.756607
0.802341 0.142924 0.171511 0.147621 -0.980700 -0.128198
0.605375 0.119739 0.185104 0.091302 -0.969430 0.227749
0.472932 0.119896 0.204789 -0.407187 0.412005 0.815139
0.842002 0.145695 0.165424 0.258845 -0.348079 0.901022
0.453706 0.050040 0.259461 -0.530084 0.585425 0.613424
0.552981 0.195747 0.112287 0.674226 0.260977 -0.690877
0.925811 0.155285 0.146438 0.327862 -0.944699 -0.007106
0.736653 0.134538 0.182755 0.074445 -0.389836 0.917871
0.385616 0.144446 0.171384 -0.081836 -0.456134 0.886140
0.920026 0.177325 0.124194 0.073478 -0.739484 -0.669152
0.505899 0.192359 0.149184 0.092640 0.695219 0.712803
0.129000 0.168790 0.136115 -0.057901 -0.872186 -0.485736
0.534232 0.042565 0.275317 -0.576771 -0.793585 -0.193796
0.513744 0.134830 0.089432 0.271518 -0.332406 -0.903208
0.857837 0.122176 0.180759 0.197369 -0.933897 0.298131
0.527309 0.047845 0.279175 -0.781114 -0.553348 0.289253
0.611286 0.173849 0.152440 0.043897 0.393318 0.918354
0.093872 0.173038 0.130950 -0.134080 -0.878561 -0.458425
0.232476 0.153628 0.159678 -0.086573 -0.940943 -0.327310
0.941123 0.176621 0.123095 0.082998 -0.680063 -0.728440
0.496137 0.092552 0.232683 -0.116496 0.703686 0.700895
0.433864 0.133336 0.161920 -0.970882 -0.228950 -0.070494
0.271325 0.154618 0.167070 -0.017656 0.094460 0.995372
0.520344 0.211752 0.122873 0.255632 0.884036 0.391321
0.948014 0.162508 0.144371 0.497767 -0.386399 0.776482
0.498255 0.053823 0.279350 -0.001777 -0.941428 -0.337209
0.498869 0.112405 0.098792 -0.016063 -0.637450 -0.770324
0.565590 0.157988 0.162470 0.453092 0.371340 0.810440
0.342022 0.157973 0.154871 -0.038721 -0.859588 -0.509519
0.151925 0.116789 0.187631 -0.192358 -0.866316 0.460972
0.358267 0.189276 0.140689 -0.099194 0.980679 0.168608
0.843763 0.128175 0.177038 0.154457 -0.968448 0.195582
0.055581 0.157388 0.147202 -0.349166 -0.934051 0.075047
0.289727 0.178138 0.137011 -0.017162 -0.676294 -0.736432
0.472716 0.144747 0.187607 -0.293248 0.570126 0.767438
0.820978 0.114795 0.197740 0.232434 -0.820217 0.522704
0.478450 0.077915 0.244086 -0.357133 0.642939 0.677558
0.895400 0.136305 0.167216 0.406380 -0.741809 0.533455
0.949470 0.155403 0.151301 0.446830 -0.719579 0.531553
0.797681 0.162528 0.161229 0.186481 0.205714 0.960680
0.358419 0.118560 0.187755 -0.043429 -0.953832 0.297185
0.519264 0.147284 0.087822 0.376794 -0.259578 -0.889183
0.534611 0.056865 0.262281 0.452245 0.620394 0.640770
0.478172 0.203949 0.135376 -0.168638 0.816223 0.552577
0.914877 0.168429 0.135975 0.202448 -0.931593 -0.301908
0.460388 0.120841 0.201687 -0.452573 0.387298 0.803230
0.050133 0.158818 0.144871 -0.344500 -0.938662 -0.015264
0.098946 0.163725 0.138637 -0.205651 -0.927242 -0.312936
0.956242 0.157652 0.148260 0.492624 -0.626923 0.603563
0.483576 0.070461 0.246263 -0.227644 -0.921371 -0.315046
0.480356 0.167594 0.169217 -0.181359 0.640248 0.746453
0.570855 0.126612 0.170369 0.964649 -0.241420 0.105685
0.520740 0.069448 0.255838 -0.012938 0.461449 0.887072
0.350335 0.188889 0.137445 -0.159334 0.899657 -0.406484
0.202739 0.112499 0.203770 -0.229678 -0.869889 0.436510
0.743829 0.181212 0.148789 0.022738 0.520809 0.853370
0.768016 0.135675 0.184402 0.169750 -0.430269 0.886597
0.720340 0.188832 0.144139 0.020057 0.769905 0.637843
0.790032 0.149528 0.174330 0.214600 -0.126835 0.968432
0.543227 0.176444 0.154756 0.208566 0.613038 0.762027
0.803740 0.177708 0.134041 -0.016616 -0.708874 -0.705140
0.255266 0.163437 0.148255 -0.009295 -0.859905 -0.510369
0.634379 0.146237 0.171432 0.044606 -0.395900 0.917210
0.523390 0.079666 0.145880 0.239104 -0.697505 -0.675512
0.294588 0.176252 0.138821 -0.017047 -0.690535 -0.723098
0.554402 0.135794 0.189117 0.424023 0.484929 0.764885
0.055819 0.169151 0.132289 -0.200903 -0.850448 -0.486186
0.512126 0.165094 0.173584 0.169512 0.648857 0.741789
0.835390 0.184507 0.135251 0.134337 0.755725 0.640963
0.514297 0.239345 0.057196 0.936764 0.107421 -0.333069
0.550011 0.156513 0.126038 0.760898 -0.294632 -0.578123
0.558684 0.118513 0.159172 0.905454 -0.414136 -0.092975
0.227352 0.166530 0.160634 -0.104648 0.301573 0.947683
0.552100 0.108948 0.186496 0.846322 -0.185770 0.499227
0.626262 0.184810 0.131601 0.244967 0.196113 -0.949490
0.512872 0.254177 0.058580 0.899966 0.433470 -0.046537
0.183297 0.187800 0.133426 -0.060680 0.997721 0.029491
0.795483 0.181828 0.144299 0.108318 0.531038 0.840396
0.479579 0.150212 0.184664 -0.247070 0.597156 0.763126
0.289404 0.181375 0.149592 -0.001140 0.488375 0.872633
0.083997 0.146944 0.153974 -0.357143 -0.933000 0.044261
0.474020 0.051871 0.274048 0.786817 -0.573017 0.229281
0.485381 0.123396 0.205949 -0.288253 0.541117 0.790002
0.068184 0.173110 0.128432 -0.135902 -0.801393 -0.582495
0.128490 0.160316 0.143975 -0.091219 -0.935265 -0.341991
0.718463 0.106083 0.202831 0.061344 -0.835272 0.546404
0.472558 0.170836 0.164197 -0.187341 0.631574 0.752342
0.668353 0.181178 0.150884 -0.024769 0.443906 0.895731
0.801667 0.129857 0.185596 0.201308 -0.968213 0.148454
0.591870 0.140900 0.164395 0.433374 -0.880642 -0.191458
0.501764 0.212912 0.066848 0.031096 0.023083 -0.999250
0.812266 0.129623 0.187877 0.284615 -0.578092 0.764725
0.828314 0.124681 0.184988 0.181053 -0.951741 0.247806
0.686052 0.129068 0.180043 -0.003664 -0.989038 0.147614
0.500192 0.076559 0.237275 -0.001864 -0.993780 -0.111350
0.473485 0.216334 0.103797 -0.557509 0.830159 0.004445
0.449601 0.120870 0.123532 -0.762112 -0.318389 -0.563750
0.492403 0.091991 0.208638 0.072357 -0.971125 -0.227335
0.295598 0.111459 0.198205 -0.023549 -0.715678 0.698033
0.194129 0.175334 0.136474 0.010726 -0.730581 -0.682742
0.477537 0.102263 0.213448 -0.378597 0.551405 0.743381
0.452253 0.145533 0.120277 -0.822537 -0.217376 -0.525529
0.662209 0.184137 0.148584 -0.014488 0.604609 0.796391
0.501848 0.194239 0.073053 0.101221 -0.070833 -0.992339
0.139739 0.129030 0.174164 -0.184408 -0.963033 0.196371
0.554819 0.110187 0.150543 0.859437 -0.501633 -0.098650
0.354716 0.182645 0.133819 -0.129840 -0.137215 -0.981995
0.786395 0.126350 0.188841 0.198364 -0.953928 0.225105
0.916883 0.181019 0.122651 0.020183 -0.225231 -0.974096
0.159740 0.138229 0.171508 -0.250741 -0.543072 0.801375
0.154071 0.119214 0.185172 -0.175485 -0.921346 0.346882
0.511308 0.222160 0.109260 0.258660 0.910308 0.323162
0.886539 0.136899 0.163576 0.254906 -0.966200 0.038467
0.169636 0.144695 0.164406 -0.098720 -0.981032 -0.166823
0.531168 0.186352 0.092224 0.593882 0.218902 -0.774201
0.553740 0.060990 0.240655 0.592080 0.490650 0.639299
0.239665 0.109204 0.204492 -0.154756 -0.799029 0.581036
0.934560 0.184355 0.118962 0.242379 0.437693 -0.865839
0.734588 0.184941 0.135095 -0.005288 -0.231965 -0.972710
0.519933 0.061066 0.150038 0.049357 -0.782813 -0.620297
0.549709 0.201267 0.111446 0.694134 0.381268 -0.610584
0.162291 0.132368 0.177222 -0.244221 -0.650833 0.718869
0.330223 0.175200 0.154860 0.025125 0.373356 0.927348
0.477134 0.095670 0.201494 -0.213399 -0.939937 -0.266418
0.556898 0.130852 0.193047 0.461548 0.454736 0.761701
0.418115 0.189832 0.133469 -0.342184 0.935691 -0.085974
0.734971 0.140857 0.169454 0.030970 -0.997521 -0.063190
0.209818 0.130260 0.190431 -0.237541 -0.576369 0.781904
0.443104 0.116665 0.153739 -0.897881 -0.426249 -0.110095
0.837022 0.153313 0.159927 0.253704 -0.113049 0.960653
0.942192 0.149211 0.152815 0.387988 -0.900786 0.195066
0.495881 0.208732 0.130925 -0.046852 0.812587 0.580954
0.898265 0.184040 0.123579 0.020429 0.340752 -0.939931
0.544715 0.101994 0.186721 0.682398 -0.698353 -0.215953
0.760879 0.171787 0.155569 0.054969 0.409245 0.910767
0.647077 0.112427 0.194526 0.026836 -0.818315 0.574144
0.242133 0.110763 0.203073 -0.149677 -0.783827 0.602671
0.514218 0.131557 0.203646 0.258581 0.537351 0.802739
0.911052 0.137449 0.164828 0.396095 -0.905187 0.154093
0.511151 0.224784 0.103230 0.342064 0.920211 0.190273
0.673178 0.168505 0.159264 -0.024160 0.282934 0.958835
0.730030 0.132471 0.177413 0.038753 -0.992280 0.117810
0.353209 0.179412 0.150916 0.003428 0.437251 0.899333
0.494698 0.057272 0.272393 -0.057927 -0.940361 -0.335210
0.965191 0.151914 0.151154 0.686995 -0.511502 0.516143
0.514667 0.147095 0.086337 0.287309 -0.263344 -0.920925
0.369075 0.186668 0.144932 -0.031120 0.802082 0.596403
0.539052 0.071254 0.159733 0.729596 -0.644631 -0.228342
0.487788 0.244928 0.080525 -0.726009 0.346776 0.593849
0.568455 0.178273 0.123451 0.593667 0.146523 -0.791259
0.300758 0.147424 0.172710 0.006267 -0.079855 0.996787
0.487198 0.092307 0.121010 -0.212315 -0.706541 -0.675072
0.482989 0.085254 0.133995 -0.319131 -0.793487 -0.518202
0.453211 0.185400 0.107579 -0.716213 0.090713 -0.691961
0.741202 0.160405 0.150995 0.008224 -0.886618 -0.462429
0.491738 0.074432 0.256802 -0.171589 0.708816 0.684205
0.523587 0.086606 0.211297 0.085797 -0.951959 -0.293960
0.647689 0.121307 0.185677 0.037430 -0.966226 0.254965
0.554738 0.194904 0.138197 0.228342 0.808365 0.542591
0.804559 0.142995 0.177500 0.266602 -0.285334 0.920602
0.265732 0.169183 0.157132 -0.019209 0.358934 0.933165
0.942403 0.145540 0.155825 0.433925 -0.822867 0.366877
0.171992 0.162069 0.154938 -0.235307 0.162392 0.958258
0.046210 0.159546 0.146654 -0.502333 -0.542390 0.673406
0.712992 0.139486 0.170045 -0.000474 -0.998692 -0.051131
0.601582 0.173583 0.152055 0.056359 0.402120 0.913851
0.671364 0.107256 0.199721 -0.006554 -0.765531 0.643366
0.922347 0.172491 0.130112 0.144554 -0.845010 -0.514842
0.053228 0.167263 0.134442 -0.232290 -0.879447 -0.415469
0.888571 0.169414 0.142035 0.293885 0.170041 0.940594
0.393872 0.155996 0.152192 -0.199423 -0.842841 -0.499849
0.595730 0.149063 0.157556 0.221336 -0.901703 -0.371406
0.491367 0.253682 0.046063 -0.846204 0.399449 -0.352675
0.829472 0.159714 0.149707 0.025012 -0.880965 -0.472519
0.251543 0.117584 0.196975 -0.126658 -0.702682 0.700140
0.178298 0.164610 0.147118 -0.009956 -0.825694 -0.564030
0.547036 0.096645 0.210022 0.746936 0.067856 0.661424
0.682344 0.189744 0.137950 0.040288 0.866903 -0.496846
0.140270 0.122994 0.180937 -0.235600 -0.825105 0.513511
0.613317 0.137110 0.176005 0.085133 -0.655848 0.750077
0.583917 0.183397 0.144063 0.100668 0.711243 0.695700
0.262792 0.119422 0.194627 -0.096595 -0.663258 0.742131
0.291753 0.141675 0.168357 -0.001384 -0.993538 -0.113493
0.466353 0.064212 0.175875 -0.553467 -0.763717 0.332281
0.366773 0.121668 0.184747 -0.056541 -0.972126 0.227537
0.717049 0.112952 0.195800 0.046658 -0.885667 0.461972
0.492012 0.257111 0.048296 -0.684046 0.703608 -0.192399
0.224010 0.146257 0.176766 -0.177826 -0.192631 0.965024
0.734883 0.105434 0.205022 0.098691 -0.830836 0.547697
0.610294 0.154626 0.164652 0.077955 -0.109071 0.990973
0.534628 0.123831 0.106539 0.598699 -0.360300 -0.715363
0.425301 0.139664 0.158299 -0.869363 -0.470474 -0.151202
0.517932 0.144087 0.191287 0.245653 0.582807 0.774590
0.546994 0.175738 0.112026 0.711149 -0.091321 -0.697085
0.535884 0.087972 0.209083 0.360178 -0.880051 -0.309488
0.484517 0.159121 0.178012 -0.201347 0.628904 0.750959
0.042177 0.170890 0.127282 -0.463587 -0.368721 -0.805687
0.696823 0.148070 0.163325 0.006438 -0.958152 -0.286188
0.411637 0.186979 0.130365 -0.404257 0.657965 -0.635341
0.751074 0.142589 0.169223 0.072432 -0.992271 -0.100753
0.308296 0.180721 0.137467 -0.019862 -0.410422 -0.911679
0.674153 0.164251 0.162095 -0.024168 0.216674 0.975945
0.452732 0.160597 0.119708 -0.681576 -0.330933 -0.652638
0.749918 0.161687 0.162586 0.050424 0.233845 0.970966
0.327294 0.128723 0.180434 -0.005428 -0.990945 0.134158
0.460487 0.114790 0.118165 -0.601812 -0.459926 -0.652909
0.362696 0.113458 0.193124 -0.040667 -0.845880 0.531820
0.740632 0.150812 0.170344 0.050197 -0.001516 0.998738
0.523991 0.192912 0.145133 0.161366 0.688819 0.706746
0.832633 0.156869 0.157884 0.247627 0.005233 0.968841
0.304019 0.140169 0.170132 -0.001865 -0.994909 -0.100758
0.508382 0.212050 0.068763 0.148986 0.140835 -0.978759
0.864705 0.136098 0.167045 0.174229 -0.981746 0.076277
0.465760 0.131794 0.198987 -0.336247 0.512810 0.789914
0.754367 0.110810 0.202753 0.141820 -0.780185 0.609261
0.295970 0.164967 0.148552 -0.013690 -0.807044 -0.590333
0.490866 0.090262 0.199205 0.044985 -0.997849 -0.047686
0.233057 0.163118 0.150092 -0.056695 -0.867301 -0.494545
0.466786 0.063754 0.175583 -0.553053 -0.767006 0.325321
0.676395 0.184170 0.148579 -0.015208 0.573989 0.818722
0.604229 0.131337 0.179171 0.097649 -0.767626 0.633415
0.527819 0.058198 0.156960 0.308916 -0.877223 -0.367492
0.552781 0.041942 0.257150 0.160929 -0.919291 -0.359173
0.916412 0.142373 0.158746 0.381683 -0.917160 0.114609
0.762555 0.187270 0.144206 0.032689 0.596522 0.801930
0.909370 0.167829 0.136012 0.196858 -0.930306 -0.309480
0.414180 0.154619 0.163039 -0.439832 0.289311 0.850204
0.145913 0.172035 0.143334 -0.206298 0.317313 0.925610
0.275825 0.155835 0.166376 -0.013678 0.114436 0.993336
0.153527 0.176803 0.140367 -0.189353 0.413689 0.890509
0.885924 0.171352 0.132364 0.094610 -0.863085 -0.496119
0.831443 0.167446 0.141705 -0.007587 -0.807739 -0.589491
0.179116 0.152901 0.165118 -0.268275 -0.037626 0.962607
0.386730 0.170327 0.154800 -0.046769 0.322573 0.945389
0.202151 0.164019 0.149085 -0.049924 -0.847198 -0.528926
0.158449 0.166812 0.148781 -0.219471 0.235196 0.946845
0.510770 0.082110 0.192390 0.042585 -0.943601 0.328335
0.551137 0.103004 0.148833 0.816137 -0.546097 -0.188940
0.510375 0.204007 0.076526 0.603159 0.052790 -0.795872
0.817592 0.184940 0.137431 0.119010 0.728350 0.674791
0.441022 0.122824 0.156264 -0.924087 -0.351110 -0.150946
0.928291 0.162082 0.142586 0.288884 -0.954188 -0.077926
0.312333 0.133401 0.182448 0.014679 -0.368825 0.929383
0.529263 0.049578 0.267889 -0.567459 -0.806466 -0.166139
0.502689 0.070241 0.154075 -0.073829 -0.809515 -0.582439
0.496802 0.059211 0.269260 -0.002424 -0.945602 -0.325316
0.504739 0.117250 0.208669 0.143025 0.639535 0.755340
0.532675 0.076927 0.232637 0.433075 0.610904 0.662754
0.460408 0.185489 0.098139 -0.649590 0.181551 -0.738290
0.465197 0.144054 0.186180 -0.328882 0.553860 0.764903
0.751354 0.152988 0.158805 0.043960 -0.947053 -0.318055
0.918964 0.185328 0.123202 0.149240 0.908438 -0.390472
0.045199 0.169455 0.134691 -0.456168 0.589404 0.666719
0.392156 0.138321 0.174919 -0.094727 -0.623214 0.776293
0.452769 0.190475 0.108832 -0.713796 0.146703 -0.684816
0.539017 0.119742 0.114090 0.625607 -0.395481 -0.672466
0.385190 0.171790 0.153955 -0.042527 0.349814 0.935854
0.793324 0.180467 0.145923 0.108236 0.515492 0.850031
0.148225 0.179902 0.137359 -0.181694 0.450770 0.873953
0.735852 0.158748 0.164099 0.022956 0.183387 0.982773
0.498614 0.086481 0.196229 -0.012741 -0.964603 0.263398
0.520342 0.032627 0.159600 -0.258886 0.327231 -0.908789
0.487780 0.224404 0.065906 -0.726100 -0.500346 -0.471627
0.517688 0.223666 0.083900 0.799507 -0.308021 0.515667
0.503817 0.148001 0.082629 0.073305 -0.256730 -0.963699
0.471418 0.092451 0.204651 -0.281089 -0.916183 -0.285655
0.390410 0.145735 0.170287 -0.089628 -0.409719 0.907798
0.438640 0.044646 0.251009 -0.706586 0.451015 0.545272
0.148470 0.180109 0.137222 -0.181020 0.454069 0.872383
0.313144 0.173019 0.155857 0.014478 0.362004 0.932064
0.049329 0.179965 0.126058 -0.317165 0.915334 0.248133
0.555484 0.182057 0.117591 0.676575 0.056898 -0.734172
0.398098 0.150342 0.156953 -0.202846 -0.896410 -0.394084
0.896415 0.130310 0.171767 0.386251 -0.821730 0.419012
0.472172 0.219909 0.079703 -0.719730 -0.567531 0.399871
0.366055 0.188341 0.142656 -0.048123 0.910848 0.409927
0.455252 0.100431 0.185060 -0.711685 -0.672534 -0.202984
0.575322 0.167834 0.131836 0.451052 -0.532324 -0.716368
0.437916 0.151705 0.166589 -0.550857 0.302258 0.777944
0.099791 0.156263 0.146672 -0.259628 -0.944134 -0.202990
0.310664 0.170273 0.157634 0.013069 0.325943 0.945299
0.423947 0.122531 0.183403 -0.805706 -0.106001 0.582754
0.503981 0.256300 0.028862 0.840681 0.412336 -0.351048
0.855993 0.116508 0.186186 0.206232 -0.904657 0.372914
0.497538 0.070462 0.164190 0.071784 -0.981061 -0.179905
0.085965 0.181129 0.122829 -0.018532 -0.226506 -0.973833
0.437374 0.128760 0.162069 -0.972565 -0.179277 -0.148246
0.593985 0.148765 0.157651 0.243057 -0.897712 -0.367472
0.477257 0.180491 0.086215 -0.541265 0.082979 -0.836748
0.067076 0.183658 0.125219 -0.186713 0.801937 0.567481
0.883289 0.139981 0.160488 0.221268 -0.974819 -0.027730
0.617354 0.113622 0.190921 0.068433 -0.936036 0.345186
0.473311 0.201635 0.137668 -0.200432 0.796049 0.571081
0.084614 0.153804 0.146812 -0.314442 -0.946931 -0.066688
0.702111 0.105613 0.201772 0.024996 -0.830297 0.556760
0.072174 0.175169 0.134078 -0.310383 0.361238 0.879301
0.104800 0.181951 0.124017 -0.004940 -0.203423 -0.979078
0.154513 0.141750 0.168175 -0.255526 -0.461168 0.849724
0.661121 0.138694 0.178364 -0.004740 -0.357060 0.934070
0.802449 0.112370 0.204350 0.239685 -0.867579 0.435727
0.693750 0.184799 0.147702 -0.005762 0.570508 0.821272
0.731387 0.173641 0.154217 0.016090 0.418248 0.908190
0.650853 0.186896 0.145905 0.009478 0.798367 0.602097
0.586984 0.174473 0.150880 0.156266 0.492980 0.855893
0.483566 0.085084 0.133980 -0.309796 -0.797794 -0.517253
0.963789 0.154936 0.147145 0.675151 -0.694661 0.248229
0.235697 0.179022 0.134120 -0.013449 -0.717313 -0.696621
0.175867 0.151478 0.165277 -0.268533 -0.095485 0.958526
0.530057 0.049397 0.279486 0.424181 0.640251 0.640430
0.913808 0.168488 0.141857 0.381624 -0.109280 0.917835
0.292971 0.182157 0.136664 -0.010570 -0.352515 -0.935746
0.099613 0.183240 0.123741 0.002252 0.211014 -0.977480
0.377068 0.137968 0.170113 -0.093888 -0.988475 -0.118754
0.330367 0.185434 0.147830 0.013700 0.683161 0.730139
0.101224 0.169500 0.133297 -0.154702 -0.900200 -0.407071
0.635047 0.141622 0.174506 0.044557 -0.490008 0.870578
0.532043 0.059931 0.242211 -0.178104 -0.921412 -0.345366
0.909781 0.169183 0.141115 0.367107 -0.046592 0.929011
0.569718 0.128808 0.167264 0.966262 -0.249898 0.062361
0.454345 0.167537 0.105923 -0.703929 -0.135856 -0.697156
0.475390 0.058669 0.151807 -0.099932 -0.957874 -0.269240
0.519826 0.219445 0.075457 0.894080 0.022814 -0.447325
0.498809 0.070269 0.263411 -0.035762 0.736664 0.675313
0.837224 0.184142 0.135379 0.142379 0.715262 0.684199
0.512438 0.059766 0.153149 -0.301887 -0.889107 -0.344025
0.538979 0.098863 0.197071 0.564812 -0.782312 -0.262631
0.707068 0.132373 0.182606 0.000789 -0.385274 0.922802
0.123492 0.147304 0.154978 -0.167874 -0.976517 -0.135033
0.828613 0.163183 0.153786 0.231092 0.186021 0.954983
0.525050 0.106589 0.209595 0.409048 0.489973 0.769809
0.266124 0.163495 0.148635 -0.010357 -0.849764 -0.527061
0.672032 0.180169 0.137552 0.040563 -0.392143 -0.919009
0.252909 0.177295 0.151331 -0.026208 0.480941 0.876361
0.452976 0.124553 0.118122 -0.739850 -0.287121 -0.608428
0.661153 0.167863 0.146383 0.042807 -0.752190 -0.657555
0.608900 0.154528 0.153779 0.187435 -0.861662 -0.471601
0.459314 0.161219 0.092849 -0.675887 -0.130998 -0.725270
0.404807 0.140373 0.165391 -0.217325 -0.958123 -0.186469
0.802908 0.184750 0.140296 0.113855 0.560306 0.820423
0.444075 0.118658 0.146241 -0.895157 -0.385612 -0.223599
0.274618 0.153150 0.168146 -0.015057 0.061183 0.998013
0.490081 0.226446 0.098046 -0.350987 0.926789 0.133677
0.509623 0.076781 0.188250 0.063545 -0.840806 0.537594
0.893931 0.140990 0.163633 0.414229 -0.651546 0.635534
0.183254 0.168358 0.152451 -0.205123 0.321073 0.924574
0.546422 0.166511 0.111259 0.694284 -0.206657 -0.689393
0.465421 0.069186 0.180032 -0.499323 -0.737871 0.454118
0.480772 0.078583 0.188342 -0.196013 -0.838412 0.508570
0.502307 0.133206 0.204279 0.059093 0.584117 0.809516
0.455956 0.206297 0.114426 -0.626335 0.751755 -0.206323
0.947630 0.167543 0.134005 0.228040 -0.872097 -0.432948
0.620552 0.150125 0.168111 0.066140 -0.278078 0.958279
0.483893 0.076676 0.252283 -0.278476 0.681839 0.676422
0.065340 0.173559 0.134887 -0.345272 0.316464 0.883537
0.722789 0.104589 0.204737 0.073081 -0.824478 0.561155
0.209558 0.119169 0.196432 -0.213446 -0.914273 0.344305
0.849708 0.146037 0.159702 0.107865 -0.984155 -0.140729
0.193336 0.166708 0.155806 -0.190060 0.292118 0.937307
0.695821 0.166618 0.159910 -0.008777 0.277293 0.960745
0.408286 0.143982 0.170156 -0.361007 -0.188147 0.913386
0.703981 0.170094 0.157351 -0.002957 0.338952 0.940799
0.280366 0.172112 0.155566 -0.007972 0.384679 0.923016
0.087291 0.177711 0.124396 -0.068141 -0.755326 -0.651797
0.460245 0.042754 0.276547 -0.551355 0.527868 0.646037
0.307177 0.188512 0.145040 -0.007684 0.815886 0.578162
0.195994 0.115512 0.200886 -0.233079 -0.890211 0.391406
0.717202 0.144800 0.165323 0.002250 -0.985217 -0.171294
0.312100 0.140163 0.170456 -0.002784 -0.993196 -0.116418
0.366123 0.138135 0.176703 -0.047538 -0.566245 0.822865
0.479415 0.223503 0.083642 -0.927514 -0.142302 0.345641
0.824149 0.112306 0.198838 0.220402 -0.849093 0.480066
0.788274 0.118214 0.199702 0.223585 -0.740283 0.634028
0.510346 0.049962 0.284751 0.209524 -0.908439 -0.361715
0.798160 0.111010 0.205349 0.231425 -0.859817 0.455145
0.541267 0.199429 0.102084 0.669175 0.300746 -0.679526
0.471560 0.103611 0.211365 -0.435443 0.472925 0.765984
0.498467 0.226126 0.052019 -0.087509 -0.854277 -0.512399
0.169531 0.142938 0.166125 -0.107064 -0.985994 -0.127880
0.269516 0.122223 0.187748 -0.063089 -0.947200 0.314375
0.514385 0.032586 0.167544 -0.832097 -0.509412 0.219349
0.725258 0.155574 0.155767 0.007438 -0.918331 -0.395743
0.341315 0.117660 0.189259 -0.019947 -0.940274 0.339833
0.507888 0.202669 0.138084 0.100082 0.776431 0.622205
0.216266 0.169783 0.157303 -0.123865 0.355813 0.926312
0.318529 0.101877 0.203848 0.013341 -0.780988 0.624403
0.217628 0.184030 0.144756 -0.074355 0.562223 0.823636
0.420609 0.134795 0.165549 -0.882435 -0.470407 -0.004964
0.350832 0.187539 0.145335 -0.013930 0.834500 0.550833
0.526195 0.163980 0.169793 0.247583 0.627717 0.738020
0.235513 0.121023 0.195581 -0.166751 -0.679941 0.714055
0.286358 0.136175 0.179871 -0.006142 -0.308299 0.951270
0.498897 0.107092 0.212631 -0.033070 0.709643 0.703785
0.738530 0.126198 0.184509 0.076483 -0.967603 0.240614
0.436359 0.122167 0.165692 -0.979466 -0.182356 -0.085975
0.628579 0.121353 0.184815 0.062071 -0.971884 0.227131
0.882505 0.154210 0.153427 0.326873 -0.202203 0.923183
0.655560 0.161574 0.151597 0.046237 -0.822336 -0.567120
0.238611 0.189279 0.132882 0.014352 0.045158 -0.998877
0.458599 0.160427 0.093582 -0.681596 -0.155026 -0.715118
0.770943 0.154294 0.170070 0.138936 0.025545 0.989972
0.698359 0.109020 0.197998 0.009384 -0.855122 0.518341
0.365064 0.156722 0.164722 -0.034259 -0.080565 0.996160
0.483400 0.061202 0.263093 -0.283745 -0.897374 -0.337947
0.518039 0.039673 0.173682 0.007874 -0.284985 0.958500
0.889964 0.171170 0.140688 0.292941 0.199496 0.935087
0.541871 0.052963 0.259990 0.500983 0.598976 0.624694
0.546326 0.080238 0.169774 0.742655 -0.662702 0.096385
0.839626 0.142097 0.164487 0.104884 -0.990036 -0.093953
0.440485 0.135318 0.151845 -0.943027 -0.211675 -0.256696
0.484221 0.206418 0.067930 -0.281508 0.086840 -0.955621
0.505302 0.101760 0.111105 0.075888 -0.683689 -0.725817
0.600049 0.135518 0.176264 0.107345 -0.684461 0.721103
0.813568 0.119695 0.194477 0.212784 -0.920990 0.326343
0.866303 0.143664 0.164223 0.272253 -0.447587 0.851789
0.563752 0.157362 0.162984 0.467510 0.367317 0.804060
0.492247 0.152801 0.186355 -0.155254 0.621959 0.767504
0.520283 0.068274 0.252063 -0.705077 -0.657344 0.266018
0.908499 0.134356 0.168079 0.398746 -0.898388 0.184123
0.699210 0.127360 0.186189 -0.005212 -0.476891 0.878947
0.593943 0.161292 0.146271 0.245702 -0.766891 -0.592882
0.325572 0.176301 0.153993 0.022009 0.392146 0.919640
0.551153 0.168635 0.120362 0.674386 -0.228862 -0.702016
0.424677 0.144978 0.153589 -0.809346 -0.511300 -0.289019
0.078038 0.183499 0.120959 -0.142168 0.290461 -0.946267
0.055971 0.164899 0.137703 -0.267148 -0.919918 -0.287022
0.524283 0.214375 0.116667 0.341308 0.893354 0.292280
0.298978 0.109202 0.199697 -0.018953 -0.735753 0.676985
0.863475 0.175740 0.139418 0.197493 0.366233 0.909324
0.666433 0.154449 0.168438 -0.020711 0.014086 0.999686
0.771616 0.133441 0.186440 0.182852 -0.484295 0.855584
0.509389 0.090859 0.234388 0.226049 0.678479 0.698976
0.544258 0.114829 0.121676 0.668631 -0.434458 -0.603472
0.746047 0.189036 0.143305 0.030404 0.723018 0.690160
0.487807 0.247447 0.078947 -0.721892 0.445702 0.529359
0.648156 0.114639 0.191380 0.031999 -0.926411 0.375152
0.087582 0.136929 0.166471 -0.455757 -0.793545 0.403203
0.223541 0.158088 0.156035 -0.096697 -0.908009 -0.407638
0.683658 0.147058 0.164712 0.007329 -0.957611 -0.287972
0.546332 0.077736 0.183657 0.563122 -0.652823 0.506671
0.296999 0.143743 0.175080 0.003078 -0.154697 0.987957
0.463169 0.111599 0.205407 -0.502837 0.321590 0.802331
0.826441 0.160361 0.149991 0.024985 -0.872178 -0.488551
0.520363 0.089777 0.226610 0.344568 0.636758 0.689792
0.485439 0.216842 0.115616 -0.318501 0.884305 0.341412
0.090756 0.140820 0.163682 -0.468815 -0.731576 0.494984
0.498650 0.185886 0.155266 -0.023594 0.697497 0.716199
0.544837 0.051081 0.248618 -0.033095 -0.903062 -0.428232
0.934257 0.183050 0.125549 0.184453 0.747410 0.638244
0.471489 0.071955 0.151633 -0.251791 -0.652839 -0.714425
0.534769 0.183208 0.151110 0.167894 0.634152 0.754760
0.271552 0.133123 0.176610 -0.032607 -0.994002 0.104387
0.388143 0.129215 0.177072 -0.102847 -0.993040 0.057402
0.542669 0.047015 0.268515 0.507653 0.600740 0.617576
0.869832 0.150229 0.153428 0.131522 -0.976483 -0.170830
0.887183 0.132350 0.167754 0.274014 -0.955108 0.112629
0.507652 0.128342 0.088880 0.152916 -0.446649 -0.881545
0.852090 0.138687 0.166307 0.137083 -0.990409 0.017267
0.306173 0.150574 0.161295 -0.008146 -0.937891 -0.346835
0.540000 0.073107 0.155222 0.714086 -0.579074 -0.393389
0.290568 0.149488 0.171044 -0.001967 -0.029057 0.999576
0.193007 0.115822 0.201423 -0.260451 -0.767968 0.585142
0.491027 0.227507 0.053442 -0.518039 -0.724016 -0.455451
0.907411 0.154713 0.151577 0.464338 -0.437196 0.770227
0.529020 0.067294 0.179467 0.445134 -0.766339 0.463229
0.513728 0.069160 0.182107 0.147904 -0.787936 0.597730
0.466693 0.136141 0.101139 -0.640097 -0.279955 -0.715473
0.349478 0.144236 0.166257 -0.046274 -0.969144 -0.242112
0.510101 0.074873 0.186642 0.082342 -0.793146 0.603439
0.377360 0.187928 0.140747 -0.092039 0.941387 0.324530
0.492646 0.140028 0.198361 -0.171671 0.587429 0.790858
0.398319 0.154804 0.152874 -0.212371 -0.851069 -0.480188
0.725968 0.150786 0.169718 0.015859 0.012193 0.999800
0.548478 0.144313 0.121932 0.839795 -0.205826 -0.502374
0.785062 0.173818 0.153431 0.112477 0.424774 0.898285
0.500466 0.222100 0.061301 0.024423 -0.887892 -0.459404
0.541496 0.145818 0.103212 0.733704 -0.237411 -0.636643
0.543877 0.196774 0.104736 0.669526 0.265677 -0.693650
0.581287 0.173982 0.151595 0.179784 0.500263 0.847003
0.481683 0.091798 0.225790 -0.329753 0.640539 0.693522
0.520424 0.179743 0.158022 0.154182 0.652980 0.741515
0.545141 0.083054 0.156138 0.709776 -0.636472 -0.301862
0.882933 0.154071 0.147807 0.158158 -0.953252 -0.257481
0.681041 0.166067 0.160686 -0.019180 0.253128 0.967243
0.866208 0.149310 0.159991 0.259525 -0.285977 0.922423
0.384716 0.130250 0.180496 -0.079657 -0.788393 0.609993
0.659234 0.105252 0.200132 0.011025 -0.828174 0.560363
0.681547 0.160295 0.153446 0.013940 -0.835471 -0.549358
0.698719 0.186729 0.146185 0.003384 0.692208 0.721690
0.301427 0.138245 0.171679 -0.000402 -0.998812 -0.048726
0.449744 0.042712 0.266479 -0.556586 0.576387 0.598323
0.460121 0.078201 0.185104 -0.472488 -0.681112 0.559323
0.559848 0.041253 0.255375 0.789813 0.305838 0.531657
0.293395 0.114753 0.195805 -0.023747 -0.679163 0.733603
0.068165 0.146997 0.152562 -0.384287 -0.911954 0.143750
0.353663 0.122150 0.188102 -0.026988 -0.727271 0.685820
0.295996 0.106430 0.201128 -0.027801 -0.836604 0.547103
0.494792 0.176103 0.164458 -0.091145 0.677062 0.730260
0.941648 0.143344 0.156391 0.411887 -0.875299 0.253381
0.107078 0.121781 0.177886 -0.333162 -0.898461 0.285958
0.384767 0.170636 0.139700 -0.186746 -0.676122 -0.712731
0.627378 0.166062 0.158329 0.033660 0.202577 0.978688
0.487511 0.255391 0.056894 -0.801175 0.592473 -0.084225
0.553106 0.151564 0.133173 0.841570 -0.245861 -0.480950
0.882106 0.157417 0.151084 0.310790 -0.103763 0.944798
0.121956 0.158963 0.150638 -0.282003 -0.045055 0.958355
0.493894 0.167130 0.172889 -0.106765 0.663002 0.740965
0.726265 0.156135 0.166117 0.015384 0.122493 0.992350
0.510764 0.148902 0.189261 0.196070 0.606042 0.770889
0.825093 0.117505 0.193129 0.202863 -0.908634 0.365007
0.525530 0.067319 0.236246 -0.216632 -0.931335 -0.292721
0.144012 0.161128 0.144917 -0.060637 -0.909978 -0.410200
0.197229 0.172773 0.139400 -0.003698 -0.758243 -0.651962
0.201887 0.163096 0.150063 -0.053937 -0.855626 -0.514777
0.519450 0.053190 0.170658 -0.428929 -0.345230 0.834767
0.715220 0.181393 0.137039 0.002574 -0.436550 -0.899676
0.443150 0.126179 0.142906 -0.912132 -0.276856 -0.302268
0.265210 0.149355 0.171011 -0.035506 -0.025917 0.999033
0.813300 0.158999 0.153619 0.049347 -0.883625 -0.465587
0.056704 0.144981 0.155629 -0.407124 -0.879087 0.247904
0.502157 0.097077 0.226442 0.064905 0.711355 0.699829
0.336686 0.144160 0.174946 0.011258 -0.225277 0.974230
0.902203 0.152542 0.154709 0.466203 -0.437584 0.768879
0.205880 0.157107 0.156724 -0.090286 -0.909077 -0.406727
0.332808 0.152917 0.159576 -0.024985 -0.905937 -0.422676
0.356183 0.175969 0.137632 -0.111116 -0.614298 -0.781211
0.078062 0.136205 0.164973 -0.440204 -0.835137 0.329798
0.505952 0.066712 0.173995 -0.204452 -0.951423 0.230203
0.838181 0.118348 0.188277 0.185122 -0.915765 0.356517
0.764533 0.150056 0.162984 0.089023 -0.962295 -0.257027
0.672566 0.180022 0.151545 -0.022479 0.434999 0.900150
0.518018 0.037496 0.162646 0.072407 0.301032 -0.950861
0.495695 0.257821 0.044622 -0.635009 0.731017 -0.249756
0.232967 0.133952 0.179393 -0.137183 -0.987142 0.082050
0.569072 0.151200 0.166343 0.539202 0.279014 0.794614
0.496317 0.235043 0.039357 -0.842171 0.001412 -0.539209
0.166150 0.150050 0.157999 -0.068123 -0.958306 -0.277505
0.561055 0.115633 0.171431 0.880394 -0.474070 0.012855
0.562390 0.182310 0.147086 0.153568 0.668518 0.727668
0.480541 0.214513 0.071623 -0.629030 0.045729 -0.776035
0.536016 0.049680 0.272063 0.463610 0.621290 0.631716
0.436330 0.141438 0.173762 -0.649860 0.240188 0.721104
0.610812 0.127978 0.178102 0.102082 -0.991456 0.081205
0.613712 0.158563 0.150545 0.178314 -0.821741 -0.541244
0.249739 0.131575 0.180208 -0.097030 -0.986341 0.133106
0.455050 0.093654 0.203857 -0.788525 -0.612463 -0.055834
0.605641 0.164912 0.144038 0.211802 -0.736375 -0.642567
0.171001 0.173180 0.145094 -0.195554 0.385840 0.901602
0.256311 0.184831 0.146362 -0.021598 0.556425 0.830617
0.117304 0.173108 0.139173 -0.227770 0.285488 0.930923
0.547608 0.152785 0.173524 0.380124 0.557914 0.737725
0.464926 0.089598 0.193037 -0.460658 -0.881368 0.104808
0.484473 0.176016 0.082472 -0.466693 -0.019536 -0.884204
0.482392 0.082429 0.137663 -0.250138 -0.779200 -0.574698
0.200333 0.183035 0.142438 -0.112943 0.543049 0.832071
0.491128 0.053620 0.284814 -0.128243 0.739465 0.660867
0.491399 0.253682 0.045989 -0.846473 0.398025 -0.353638
0.709738 0.114873 0.193185 0.024753 -0.899062 0.437122
0.493880 0.256786 0.042419 -0.760741 0.587060 -0.276826
0.503022 0.246540 0.050038 0.163261 -0.782710 -0.600592
0.796909 0.160455 0.152969 0.068821 -0.880051 -0.469866
0.044491 0.161858 0.143845 -0.556016 -0.313980 0.769586
0.105160 0.136717 0.164574 -0.310624 -0.946818 0.083952
0.365095 0.148743 0.161397 -0.083795 -0.936187 -0.341367
0.881636 0.151675 0.155488 0.331254 -0.276293 0.902182
0.144048 0.125947 0.177658 -0.179951 -0.951145 0.250882
0.659035 0.184700 0.147988 -0.008745 0.648552 0.761120
0.155178 0.157196 0.149813 -0.055554 -0.923668 -0.379145
0.256384 0.143833 0.176045 -0.076894 -0.183078 0.980087
0.755413 0.110996 0.202692 0.144194 -0.779505 0.609573
0.501981 0.070831 0.172364 -0.068114 -0.989796 0.125158
0.088310 0.149087 0.152406 -0.335894 -0.941771 -0.015557
0.427159 0.158677 0.139167 -0.612954 -0.524907 -0.590559
0.203911 0.182629 0.143467 -0.106992 0.540105 0.834769
0.562351 0.110071 0.181919 0.823663 -0.552147 0.129276
0.828830 0.174121 0.144343 0.192391 0.401987 0.895205
0.758928 0.105994 0.206712 0.150152 -0.833369 0.531931
0.455644 0.170188 0.096581 -0.712484 0.000037 -0.701688
0.456634 0.148693 0.102315 -0.737841 -0.244917 -0.628972
0.394655 0.132260 0.173712 -0.135621 -0.990732 -0.007491
0.493029 0.078805 0.141815 -0.044245 -0.763730 -0.644018
0.508762 0.091837 0.208782 -0.061083 -0.967874 -0.243903
0.256457 0.136904 0.181461 -0.091370 -0.351130 0.931858
0.733317 0.144588 0.174621 0.042355 -0.141715 0.989001
0.552322 0.201918 0.122108 0.592458 0.788029 -0.167342
0.298651 0.130545 0.183991 0.003741 -0.420257 0.907398
0.564945 0.181711 0.121088 0.615324 0.165180 -0.770774
0.804033 0.109335 0.207837 0.244964 -0.826379 0.507040
0.655420 0.150827 0.160851 0.041163 -0.924463 -0.379043
0.963311 0.161076 0.138608 0.914295 -0.387162 -0.119041
0.668621 0.183121 0.135521 0.058360 -0.152347 -0.986603
0.676771 0.184429 0.148383 -0.014173 0.591745 0.806001
0.155608 0.119271 0.186265 -0.201171 -0.842805 0.499210
0.154493 0.179458 0.129517 0.030382 -0.632651 -0.773840
0.479935 0.073806 0.149217 -0.065735 -0.688941 -0.721830
0.233541 0.158444 0.166460 -0.111273 0.135351 0.984530
0.425957 0.157778 0.140693 -0.620716 -0.534369 -0.573726
0.878822 0.161605 0.148513 0.272541 0.026190 0.961788
0.880847 0.126522 0.173058 0.258567 -0.947888 0.186149
0.531471 0.060669 0.157543 0.542578 -0.802758 -0.247363
0.546613 0.072089 0.225433 0.405235 -0.849937 -0.336736
0.578300 0.146299 0.153992 0.776345 -0.545469 -0.315836
0.695141 0.127616 0.186129 -0.008380 -0.472434 0.881326
0.942962 0.168775 0.138698 0.441077 0.051749 0.895976
0.732715 0.191001 0.140858 0.020654 0.940873 0.338130
0.706016 0.105575 0.202939 0.035658 -0.776790 0.628749
0.422063 0.191659 0.132761 -0.357061 0.930880 -0.077259
0.080802 0.177210 0.133048 -0.270517 0.409750 0.871163
0.569804 0.173592 0.125614 0.577454 -0.046225 -0.815113
0.767221 0.167159 0.159703 0.086336 0.320700 0.943238
0.577568 0.189662 0.138735 0.156051 0.865084 0.476736
0.484906 0.078086 0.234946 -0.213379 -0.942325 -0.257863
0.142805 0.141433 0.163182 -0.136212 -0.990440 -0.021800
0.621758 0.148193 0.160706 0.128263 -0.932149 -0.338595
0.548092 0.098252 0.169422 0.846159 -0.521908 -0.107830
0.465712 0.075024 0.183671 -0.427463 -0.705184 0.565678
0.551153 0.131828 0.194133 0.412620 0.477940 0.775447
0.509316 0.098418 0.209281 0.093715 -0.883534 0.458896
0.920106 0.163783 0.144764 0.429069 -0.316303 0.846080
0.500000 0.228190 0.049438 0.000000 -0.800076 -0.599899
0.512681 0.098798 0.221253 0.288362 0.648887 0.704126
0.235198 0.183881 0.146423 -0.035679 0.568641 0.821812
0.460026 0.099468 0.195959 -0.590820 -0.767213 -0.249632
0.374592 0.188232 0.137551 -0.211826 0.973146 -0.090096
0.517533 0.164449 0.172291 0.201687 0.641095 0.740486
0.094481 0.185520 0.125293 -0.116842 0.988504 -0.095953
0.443418 0.124406 0.142990 -0.904205 -0.300261 -0.303738
0.466859 0.177264 0.091851 -0.596506 0.129428 -0.792104
0.886478 0.164765 0.138375 0.130505 -0.904720 -0.405524
0.456701 0.191308 0.102213 -0.675443 0.220399 -0.703706
0.386989 0.171411 0.154094 -0.045421 0.344977 0.937512
0.482095 0.069718 0.248044 -0.285485 -0.907426 -0.308344
0.441573 0.056775 0.241861 -0.689240 0.411861 0.596086
0.550676 0.101815 0.149210 0.818800 -0.541684 -0.190120
0.481294 0.026318 0.159877 0.740722 -0.646036 -0.184302
0.672976 0.108855 0.197378 -0.004013 -0.863944 0.503572
0.525066 0.064953 0.241865 -0.301953 -0.917592 -0.258552
0.441064 0.130011 0.150365 -0.941556 -0.238436 -0.237949
0.779903 0.171514 0.142030 0.042619 -0.786774 -0.615768
0.520378 0.067604 0.243145 -0.404695 -0.895434 -0.185525
0.252280 0.170438 0.142135 -0.011904 -0.790379 -0.612503
0.250544 0.184866 0.146180 -0.025267 0.562478 0.826426
0.349897 0.189669 0.139801 -0.120678 0.992419 -0.023264
0.673820 0.109028 0.197267 -0.005086 -0.864527 0.502561
0.527908 0.087110 0.210493 0.183103 -0.935541 -0.302053
0.511534 0.245982 0.048604 0.786987 -0.332552 -0.519674
0.527396 0.162343 0.087328 0.506566 -0.112127 -0.854879
0.461953 0.082384 0.188741 -0.450559 -0.792413 0.411191
0.705860 0.184505 0.147620 -0.001890 0.515902 0.856646
0.551340 0.148383 0.128876 0.844365 -0.227064 -0.485273
0.188305 0.181637 0.131053 0.029315 -0.448452 -0.893326
0.497313 0.091487 0.118493 -0.038259 -0.719699 -0.693232
0.505673 0.079523 0.231774 -0.054035 -0.961555 -0.269245
0.142865 0.154245 0.151221 -0.089609 -0.956104 -0.278990
0.398747 0.151526 0.155816 -0.207630 -0.884429 -0.417942
0.494268 0.111213 0.101555 -0.082168 -0.638097 -0.765559
0.440447 0.050374 0.248034 -0.622482 0.497832 0.603887
0.035112 0.150586 0.152982 -0.601125 -0.660158 0.450379
0.533531 0.202297 0.095399 0.661072 0.297617 -0.688772
0.065592 0.172046 0.129537 -0.152772 -0.817599 -0.555151
0.535618 0.066350 0.232581 0.015800 -0.927902 -0.372488
0.442864 0.063176 0.238352 -0.622106 0.432578 0.652579
0.088939 0.138807 0.165085 -0.462300 -0.766894 0.445143
0.498119 0.245077 0.052987 -0.101849 -0.710322 -0.696469
0.479192 0.028069 0.165008 -0.110442 -0.763245 0.636600
0.497447 0.107256 0.105136 -0.036336 -0.664489 -0.746414
0.556174 0.046876 0.252931 0.591809 0.550295 0.589014
0.531269 0.084719 0.225778 0.431676 0.579836 0.690975
0.661617 0.135241 0.174401 0.026189 -0.999189 -0.030578
0.809709 0.116992 0.198354 0.223326 -0.902698 0.367779
0.342423 0.133585 0.181447 -0.004033 -0.483179 0.875512
0.117085 0.157029 0.145135 -0.143945 -0.941749 -0.303953
0.140097 0.160362 0.145204 -0.070664 -0.921002 -0.383096
0.148031 0.170113 0.136964 -0.019814 -0.825284 -0.564370
0.883783 0.136199 0.163933 0.238562 -0.970487 0.035255
0.716255 0.128066 0.186169 0.025996 -0.482182 0.875685
0.758695 0.111342 0.202687 0.151643 -0.779471 0.607807
0.455512 0.075841 0.230524 -0.536851 0.492056 0.685327
0.142805 0.165011 0.148559 -0.228523 0.160825 0.960163
0.757583 0.152331 0.160049 0.063179 -0.950593 -0.303944
0.697733 0.155386 0.157015 0.010194 -0.898862 -0.438114
0.951108 0.175769 0.123233 0.094931 -0.663598 -0.742042
0.496220 0.085150 0.126721 -0.085097 -0.796561 -0.598539
0.459244 0.210279 0.118744 -0.378148 0.898436 0.223198
0.749133 0.167348 0.144728 0.010569 -0.823901 -0.566635
0.467526 0.148776 0.181971 -0.314009 0.574033 0.756230
0.516290 0.060995 0.273441 0.243707 0.708613 0.662174
0.654043 0.122625 0.184828 0.029624 -0.970704 0.238446
0.495607 0.249360 0.037907 -0.457489 -0.777928 -0.430735
0.722507 0.145183 0.173577 0.013384 -0.111539 0.993670
0.175599 0.160555 0.157412 -0.242913 0.142409 0.959538
0.293311 0.136119 0.173182 0.001792 -0.999827 0.018503
0.059404 0.159292 0.148453 -0.455893 -0.588679 0.667547
0.531619 0.061396 0.167517 0.590851 -0.803049 0.077511
0.452277 0.162400 0.120850 -0.670563 -0.342434 -0.658091
0.475971 0.174116 0.086868 -0.501920 0.075314 -0.861629
0.240847 0.160868 0.151622 -0.042758 -0.886832 -0.460110
0.571434 0.157417 0.162390 0.443890 0.353266 0.823507
0.151683 0.156239 0.150324 -0.065817 -0.934887 -0.348791
0.116127 0.148686 0.152652 -0.188255 -0.967563 -0.168471
0.865533 0.151333 0.153021 0.115147 -0.974560 -0.192284
0.082007 0.131009 0.170546 -0.430549 -0.858661 0.278080
0.560129 0.199476 0.128193 0.451284 0.891176 -0.046357
0.649043 0.119720 0.189895 0.023023 -0.741304 0.670775
0.485696 0.103126 0.112397 -0.206314 -0.657925 -0.724271
0.098050 0.124863 0.176082 -0.380342 -0.876153 0.296136
0.205179 0.119612 0.196397 -0.223080 -0.915175 0.335692
0.489465 0.061975 0.175311 0.349573 -0.880525 0.320115
0.511186 0.079510 0.230775 0.059134 -0.956993 -0.284019
0.511324 0.252576 0.073141 0.591170 0.747896 0.301942
0.505213 0.053125 0.279963 0.079382 -0.934714 -0.346422
0.525492 0.166396 0.168197 0.220948 0.631068 0.743596
0.511311 0.095525 0.221107 0.560070 0.124876 0.818980
0.050780 0.177481 0.121238 -0.070486 -0.627042 -0.775790
0.517218 0.053852 0.169891 -0.727194 -0.304765 0.615067
0.282942 0.155113 0.156486 -0.008058 -0.916288 -0.400438
0.170600 0.148245 0.166329 -0.268089 -0.218692 0.938244
0.800937 0.135710 0.184718 0.265284 -0.463730 0.845327
0.624945 0.183103 0.147212 0.022837 0.574533 0.818163
0.283810 0.129755 0.178844 -0.006425 -0.984418 0.175729
0.498592 0.224458 0.104755 -0.033117 0.914106 0.404121
0.745034 0.111211 0.201685 0.120476 -0.767327 0.629837
0.496393 0.068989 0.176560 0.124534 -0.947831 0.293440
0.864073 0.171094 0.143027 0.211839 0.279682 0.936431
0.439440 0.048938 0.247812 -0.687202 0.452255 0.568524
0.445707 0.183241 0.116783 -0.683266 0.063780 -0.727378
0.589711 0.180528 0.146998 0.074250 0.530684 0.844311
0.443976 0.137179 0.138556 -0.888409 -0.239948 -0.391348
