0.216222 0.138184 0.316665 0.033990 0.998968 -0.030128
0.132036 0.133901 0.358090 -0.109083 -0.993329 -0.037405
0.723290 0.121844 0.363192 0.117681 -0.991775 -0.050333
0.607179 0.105639 0.269667 0.217439 -0.922979 -0.317538
0.254372 0.135981 0.236575 -0.040289 0.997629 0.055804
0.205205 0.138825 0.354964 -0.063522 0.995089 0.075918
0.779033 0.136807 0.286193 0.025880 0.993621 0.109764
0.535785 0.100485 0.048240 0.510774 -0.341664 -0.788908
0.793728 0.139304 0.264599 0.125413 0.978435 0.164123
0.380041 0.108101 0.223036 -0.180580 -0.954632 -0.236789
0.535322 0.085906 0.291620 0.558776 -0.808412 -0.185040
0.479815 0.066076 0.215273 -0.971547 -0.196734 -0.131881
0.499069 0.096282 0.214533 -0.029425 0.996745 -0.075064
0.453600 0.089135 0.227085 0.425331 0.886911 -0.180229
0.274767 0.136943 0.387784 0.099469 0.949590 0.297296
0.073421 0.138421 0.347921 -0.085540 -0.890986 -0.445901
0.256618 0.132014 0.241420 0.147162 -0.967095 -0.207532
0.379078 0.098621 0.357788 -0.205586 -0.944674 0.255589
0.458915 0.098837 0.348962 -0.032343 0.989206 0.142918
0.486692 0.093271 0.164136 -0.177406 0.980536 0.084117
0.682487 0.120474 0.247748 -0.109231 -0.974377 -0.196616
0.265923 0.126775 0.293404 -0.048749 -0.996094 -0.073621
0.466599 0.059982 0.348365 -0.972956 -0.197674 0.119508
0.686634 0.131228 0.323105 -0.153313 0.984364 -0.086729
0.259768 0.134286 0.303764 0.030878 0.999338 -0.019238
0.723304 0.132697 0.233911 0.125482 0.989614 0.070134
0.115031 0.132487 0.328351 0.011945 -0.966779 -0.255336
0.489597 0.073779 0.152485 -0.185065 -0.955709 -0.228850
0.282583 0.126338 0.255941 0.088261 -0.986294 -0.139404
0.447145 0.085257 0.356313 -0.346003 -0.822498 0.451419
0.895256 0.138860 0.309020 -0.082689 -0.828165 -0.554352
0.478526 0.089234 0.165191 -0.677883 0.721355 0.141850
0.738445 0.135785 0.239784 -0.069009 0.997513 0.014349
0.228971 0.130101 0.311592 -0.117914 -0.989905 -0.078640
0.523779 0.052142 0.267921 0.883176 -0.437527 -0.169025
0.718466 0.139769 0.348910 -0.064515 0.996595 -0.051343
0.247258 0.130387 0.244140 0.041176 -0.987881 -0.149649
0.820401 0.128858 0.353904 0.064809 -0.995722 -0.065867
0.446181 0.098839 0.062617 -0.318797 -0.889325 -0.327825
0.311008 0.128576 0.304519 0.098960 0.988916 -0.110692
0.585223 0.089511 0.341226 0.249297 -0.968301 0.015601
0.847411 0.139227 0.298272 -0.617395 -0.145066 -0.773162
0.527099 0.049287 0.294254 0.891624 -0.428654 -0.145815
0.291466 0.120140 0.347496 -0.155037 -0.986857 -0.045570
0.578903 0.098430 0.218575 -0.276872 0.951495 -0.134158
0.706680 0.123047 0.297588 0.110549 -0.992829 -0.045486
0.196163 0.136914 0.295855 0.082917 -0.978765 -0.187469
0.586986 0.091191 0.356039 0.215951 -0.891339 0.398597
0.544899 0.090655 0.114761 0.646764 0.657497 0.386515
0.427293 0.095628 0.211073 0.371353 0.872799 -0.316731
0.835695 0.137943 0.331029 0.043723 0.998475 -0.033702
0.797092 0.137985 0.289569 -0.178171 -0.958928 -0.220710
0.521537 0.101236 0.081980 0.160363 0.985457 -0.056196
0.528207 0.074260 0.373786 0.942986 -0.118647 0.310967
0.772910 0.135723 0.250876 -0.146755 -0.970947 -0.189012
0.537080 0.101575 0.044467 0.538463 -0.160160 -0.827288
0.466713 0.064396 0.294627 -0.975732 -0.183120 -0.120061
0.912481 0.143218 0.269797 0.101691 -0.809032 -0.578900
0.483482 0.093229 0.236041 -0.660691 0.747598 -0.067719
0.572028 0.096528 0.283179 0.202121 -0.975831 -0.083073
0.422506 0.090806 0.321906 -0.243666 -0.961056 -0.130374
0.577565 0.103739 0.301061 -0.219069 0.972842 -0.074742
0.818398 0.131695 0.330681 0.042852 -0.985022 -0.167021
0.740487 0.140136 0.376528 -0.009346 0.992494 0.121933
0.050044 0.139701 0.352508 -0.108442 -0.983568 -0.144338
0.471204 0.085697 0.113074 -0.208839 -0.961730 -0.177375
0.526663 0.069389 0.252591 0.984878 -0.036872 -0.169282
0.625748 0.110604 0.263480 0.214591 -0.976704 0.000323
0.480256 0.077873 0.198728 -0.997574 -0.046270 -0.052008
0.045927 0.141876 0.359086 0.018316 0.997944 0.061414
0.784810 0.141181 0.232485 0.186499 0.975840 0.113821
0.447055 0.090244 0.246341 -0.203325 -0.976911 0.065606
0.548030 0.093075 0.363846 0.056037 0.633158 0.771991
0.534328 0.074036 0.347573 0.910921 -0.408174 0.060136
0.489942 0.034864 0.261013 0.049518 -0.943877 -0.326564
0.520601 0.030842 0.331842 0.560880 -0.824997 0.069231
0.940034 0.136797 0.314995 0.076585 -0.974812 -0.209468
0.810595 0.133756 0.311680 -0.073528 -0.963067 -0.259028
0.741226 0.137344 0.389313 -0.004388 0.927787 0.373085
0.393484 0.105905 0.265095 -0.024413 -0.974357 -0.223680
0.706215 0.119484 0.381902 0.111372 -0.956759 0.268716
0.354053 0.117279 0.246813 0.153575 0.987273 -0.041312
0.483663 0.067372 0.407378 -0.888374 -0.389801 0.242585
0.534100 0.086670 0.114016 0.228062 -0.962442 -0.147287
0.462320 0.079370 0.353414 -0.654483 -0.707698 0.266112
0.523415 0.089316 0.403137 0.988187 0.075408 0.133417
0.251327 0.133858 0.298742 -0.077584 0.991094 0.108229
0.341896 0.122524 0.299616 0.131735 0.979845 -0.150164
0.939227 0.139612 0.345251 0.110670 -0.648939 -0.752749
0.532037 0.064592 0.285160 0.971779 -0.183301 -0.148478
0.243684 0.135237 0.319523 0.072054 0.984777 -0.158183
0.134426 0.131104 0.339280 -0.113267 -0.989136 0.093710
0.474816 0.085918 0.108796 -0.202715 -0.960086 -0.192720
0.130788 0.134724 0.350366 -0.109829 -0.967579 -0.227440
0.375542 0.109491 0.282008 -0.203373 -0.927327 -0.314172
0.292338 0.123886 0.303418 -0.034763 -0.990463 -0.133320
0.619311 0.099316 0.337797 0.246900 -0.964868 -0.089833
0.520790 0.072041 0.395966 0.923189 -0.303926 0.235270
0.220659 0.137889 0.280598 0.032310 0.995122 0.093214
0.102101 0.137150 0.313611 0.029774 -0.921269 -0.387784
0.495331 0.099746 0.252657 -0.136196 0.985443 -0.101749
0.348057 0.110136 0.318416 -0.239754 -0.966418 -0.092493
0.809144 0.129820 0.338674 0.057874 -0.989289 -0.134005
0.472445 0.055961 0.275059 -0.908986 -0.383089 -0.164278
0.488186 0.094419 0.155769 -0.113607 0.990091 0.082537
0.555781 0.087967 0.307403 0.283891 -0.947049 -0.150012
0.681449 0.116108 0.327784 0.211278 -0.975953 -0.053638
0.693585 0.124453 0.260529 0.056302 0.998244 0.018402
0.123770 0.134641 0.304018 -0.531963 0.207811 0.820871
0.739860 0.129185 0.394278 0.134346 -0.576453 0.806011
0.502765 0.102626 0.354676 0.007892 0.999918 -0.010116
0.683218 0.114397 0.355847 0.187601 -0.981570 -0.036408
0.499158 0.028017 0.288824 -0.019265 -0.977217 -0.211367
0.816188 0.137079 0.306466 0.028266 0.991845 0.124277
0.215887 0.140605 0.256659 0.419004 0.894330 -0.156875
0.340192 0.125475 0.368963 0.317739 0.878545 0.356653
0.577120 0.097094 0.210343 -0.410063 0.834574 -0.367880
0.768339 0.137917 0.263792 0.104075 0.986186 0.128861
0.535160 0.068457 0.327450 0.977736 -0.209303 -0.014972
0.788752 0.139257 0.287760 -0.611370 0.653298 -0.446574
0.472797 0.079315 0.260335 -0.971931 0.065825 -0.225868
0.707741 0.126629 0.293110 -0.413647 -0.840979 -0.348784
0.676492 0.113932 0.341216 0.210045 -0.976541 -0.047414
0.241573 0.138814 0.342857 0.045639 0.993463 -0.104630
0.047468 0.139672 0.359370 -0.114704 -0.992996 0.028311
0.742426 0.132115 0.263791 0.152856 0.977652 0.144330
0.081367 0.141607 0.275282 -0.199668 -0.918584 -0.341080
0.477283 0.074184 0.230170 -0.991199 0.022900 -0.130385
0.477715 0.083341 0.239956 -0.952032 0.276019 -0.132096
0.791980 0.126086 0.369934 0.097616 -0.991256 0.088783
0.289943 0.126331 0.264623 0.142950 -0.977103 -0.157594
0.893863 0.139615 0.311186 -0.241435 0.604672 -0.759000
0.374310 0.110845 0.278140 -0.192806 -0.919787 -0.341786
0.126603 0.137366 0.314872 0.132845 -0.587863 -0.797978
0.328345 0.129670 0.326517 0.153829 0.984524 -0.083954
0.679894 0.133992 0.343987 -0.196211 0.979686 -0.041442
0.806901 0.135122 0.326601 0.050599 0.998178 -0.032862
0.253304 0.139836 0.375249 0.002006 0.993681 0.112221
0.210308 0.139500 0.343471 -0.056492 0.998062 -0.026077
0.366620 0.117826 0.299598 0.201409 0.971615 -0.124092
0.522047 0.093523 0.140844 0.326444 0.935938 0.132116
0.349149 0.108224 0.365564 -0.136400 -0.878564 0.457733
0.946102 0.140763 0.342128 0.167009 0.700966 -0.693365
0.421848 0.088409 0.336831 -0.260463 -0.964824 -0.035678
0.265616 0.127384 0.283453 0.016451 -0.995725 -0.090890
0.293570 0.132294 0.389584 0.212212 0.829349 0.516862
0.315712 0.115630 0.342043 -0.193832 -0.980037 -0.044244
0.643561 0.118182 0.267999 -0.147635 0.987705 -0.051402
0.671700 0.111856 0.364470 0.164347 -0.977449 0.132605
0.819002 0.134681 0.376322 0.140543 0.762671 0.631333
0.517864 0.103006 0.063622 0.227946 0.888676 -0.397864
0.711534 0.133598 0.234392 -0.464549 0.871535 -0.156914
0.116142 0.139425 0.287230 -0.039508 0.972602 0.229097
0.710870 0.128941 0.267709 0.082267 0.986425 0.142118
0.399336 0.092908 0.345842 -0.235897 -0.970490 0.050010
0.334186 0.117069 0.292539 -0.266124 -0.916283 -0.299337
0.423006 0.099035 0.238135 0.247502 0.965203 -0.084412
0.778025 0.132748 0.309119 0.783036 0.528508 0.327923
0.278239 0.131375 0.273199 0.326373 0.940515 -0.094406
0.555575 0.097894 0.302922 -0.112458 0.991784 -0.060967
0.465427 0.060455 0.330777 -0.981493 -0.191388 0.006484
0.529039 0.085844 0.270927 0.946053 -0.070262 -0.316303
0.810780 0.136914 0.289920 -0.025645 -0.996801 -0.075692
0.482686 0.099219 0.103231 -0.125282 0.991758 0.026860
0.349868 0.114885 0.282302 -0.194607 -0.956571 -0.217023
0.342079 0.108942 0.360508 -0.212261 -0.961120 0.176616
0.791921 0.133597 0.281206 0.243939 -0.969773 0.005801
0.519871 0.080436 0.412679 0.941516 -0.231392 0.244959
0.441250 0.096229 0.082405 -0.424582 0.850124 0.311479
0.793785 0.126215 0.370896 0.109165 -0.985889 0.126907
0.786847 0.138597 0.254983 -0.318511 -0.897569 -0.304829
0.742959 0.134705 0.228574 -0.241048 -0.854100 -0.460878
0.484183 0.100112 0.097039 -0.110868 0.993835 0.001068
0.485653 0.079534 0.131204 -0.177598 -0.961660 -0.208972
0.292506 0.124216 0.278949 0.206502 -0.961592 -0.180826
0.481665 0.036629 0.278579 -0.744450 -0.639887 -0.190630
0.530135 0.087916 0.143072 0.595581 0.757358 0.267754
0.439808 0.090486 0.221945 -0.900942 -0.102435 -0.421675
0.524424 0.043437 0.297371 0.884332 -0.445359 -0.140045
0.513399 0.095133 0.062741 0.222652 -0.499331 -0.837314
0.322804 0.118446 0.282090 -0.111581 -0.977132 -0.181003
0.534652 0.062026 0.319421 0.982558 -0.184237 -0.025241
0.471578 0.075117 0.264034 -0.978877 0.047689 -0.198810
0.688633 0.136515 0.360565 -0.189211 0.981049 0.041746
0.533865 0.059814 0.312004 0.973537 -0.221202 -0.057405
0.516373 0.093318 0.235298 0.649182 0.757729 -0.066406
0.958246 0.140832 0.349624 0.258638 -0.892128 -0.370424
0.514113 0.029963 0.340294 0.201362 -0.937857 0.282625
0.741803 0.134839 0.292211 -0.356813 0.910996 -0.206813
0.141699 0.132798 0.316306 -0.373195 -0.798223 0.472827
0.852151 0.133237 0.321123 0.558291 0.343856 0.755032
0.478556 0.052453 0.373339 -0.762812 -0.501241 0.408503
0.573618 0.086916 0.344280 0.268574 -0.961499 0.058197
0.645055 0.106052 0.363216 0.178352 -0.915646 0.360255
0.283671 0.131092 0.270120 0.897890 0.047331 -0.437669
0.725995 0.122546 0.383988 0.115619 -0.949376 0.292091
0.523801 0.051073 0.270774 0.884150 -0.436216 -0.167317
0.108440 0.138843 0.278665 0.077124 -0.899572 -0.429910
0.664422 0.125313 0.309087 -0.132112 0.982518 -0.131168
0.226900 0.130360 0.328193 -0.083802 -0.978315 -0.189415
0.573990 0.095758 0.209250 -0.561860 0.604563 -0.564638
0.515315 0.103243 0.060672 0.196643 0.864440 -0.462682
0.272197 0.132763 0.263623 0.370457 0.927244 -0.054596
0.452947 0.094939 0.358739 -0.038542 0.842264 0.537686
0.266907 0.129131 0.229259 -0.389198 -0.891133 -0.233251
0.750664 0.135729 0.222053 -0.140177 -0.201116 -0.969486
0.381646 0.107557 0.229120 -0.266935 -0.959638 -0.088546
0.723658 0.124328 0.325392 0.174589 -0.981642 -0.076798
0.744839 0.123313 0.369244 0.086810 -0.994812 -0.053041
0.842787 0.139276 0.299874 -0.298124 0.905769 -0.301173
0.481760 0.039430 0.271264 -0.804898 -0.553573 -0.213767
0.330347 0.119432 0.231018 -0.265444 -0.896890 -0.353735
0.486485 0.069548 0.175174 -0.602140 -0.768019 -0.218117
0.312109 0.124217 0.263674 0.031556 0.999495 0.003753
0.511566 0.103479 0.320799 0.108974 0.994029 0.005573
0.293866 0.119301 0.355954 -0.153486 -0.987333 -0.040199
0.594165 0.100365 0.217046 -0.158534 -0.951453 -0.263827
0.515512 0.074560 0.156679 0.366741 -0.913689 -0.175138
0.604997 0.103619 0.246935 0.330962 -0.943426 0.020299
0.606036 0.105307 0.251468 0.891359 -0.447723 -0.070874
0.562401 0.092048 0.229725 0.564316 0.643713 -0.516895
0.572024 0.100588 0.356600 -0.210258 0.853236 0.477263
0.301642 0.119268 0.339485 -0.112580 -0.990855 -0.074374
0.642961 0.118999 0.286719 -0.165977 0.981318 -0.097296
0.494906 0.061609 0.443612 -0.940747 -0.325293 0.095811
0.476084 0.090462 0.084339 -0.164203 -0.948077 -0.272372
0.815308 0.141915 0.239853 -0.565775 0.651274 -0.505709
0.198145 0.136135 0.327440 -0.072675 0.996788 -0.033649
0.457977 0.096626 0.292077 0.003106 0.995109 -0.098732
0.492342 0.096619 0.222468 -0.219238 0.972630 -0.076978
0.339485 0.120667 0.381675 0.356332 0.212315 0.909918
0.374139 0.101121 0.339770 -0.249013 -0.964815 -0.084401
0.476829 0.094956 0.275453 -0.384032 0.896515 -0.220861
0.507458 0.063870 0.428984 0.859410 -0.443939 0.253637
0.267082 0.123149 0.357102 -0.103049 -0.992323 -0.068386
0.842745 0.137592 0.281510 -0.163361 -0.959278 -0.230432
0.519681 0.075141 0.199830 0.988859 -0.118410 -0.090208
0.865897 0.136509 0.316905 -0.075841 0.217891 -0.973022
0.699012 0.128641 0.258978 -0.914211 -0.175266 -0.365376
0.788404 0.134198 0.314047 -0.013050 -0.961497 -0.274504
0.795114 0.140633 0.295167 -0.008132 0.997633 0.068274
0.057844 0.141206 0.355849 0.032563 0.999467 -0.002262
0.077148 0.140571 0.310247 0.017410 0.982967 0.182955
0.704486 0.120155 0.383736 0.104707 -0.933425 0.343155
0.523432 0.039993 0.301138 0.866124 -0.481240 -0.135047
0.932167 0.143767 0.298306 -0.047424 0.872203 -0.486839
0.526385 0.049830 0.288458 0.891029 -0.427879 -0.151615
0.609229 0.115305 0.326593 -0.270433 0.962423 -0.024673
0.277655 0.122322 0.384272 -0.116630 -0.949740 0.290501
0.191169 0.137924 0.278332 0.109268 -0.985623 -0.128871
0.772690 0.135837 0.279059 -0.508879 -0.753082 -0.417025
0.488190 0.103250 0.374580 -0.113680 0.992657 0.041329
0.501298 0.088811 0.084452 0.020126 -0.926013 -0.376954
0.492782 0.078494 0.130164 -0.126941 -0.965988 -0.225287
0.543187 0.092315 0.088271 0.187344 -0.959194 -0.211778
0.776652 0.134294 0.257740 0.026516 -0.994112 -0.105063
0.726659 0.135518 0.324487 -0.049633 0.992977 -0.107396
0.204328 0.142104 0.245637 0.119123 0.992680 -0.019887
0.503566 0.062512 0.453837 0.909523 -0.412539 0.050779
0.297845 0.137034 0.344425 0.135096 0.989880 -0.043428
0.439179 0.092456 0.243704 -0.247244 -0.968807 -0.016850
0.762179 0.134770 0.298639 -0.191875 0.978081 -0.080883
0.738288 0.137914 0.340394 -0.024622 0.996834 -0.075596
0.832415 0.133253 0.333429 0.626704 -0.724061 -0.288060
0.407858 0.100311 0.241822 -0.152615 -0.988267 -0.006016
0.668754 0.122231 0.292568 0.174953 0.530986 -0.829123
0.600285 0.107293 0.282565 -0.122343 0.986405 -0.109711
0.342171 0.120283 0.379903 0.350865 0.275481 0.894989
0.242207 0.134014 0.274093 0.173338 -0.961220 -0.214499
0.503601 0.025315 0.309600 0.078398 -0.996294 -0.035384
0.526344 0.096515 0.111263 0.274466 0.954571 0.116033
0.626400 0.113175 0.368946 -0.325021 0.597002 0.733451
0.899090 0.137831 0.344527 0.034718 0.235794 -0.971183
0.854375 0.136265 0.313062 0.086918 0.994549 0.057605
0.202609 0.128097 0.346914 -0.070971 -0.991345 -0.110450
0.252947 0.129099 0.258087 0.011747 -0.993359 -0.114451
0.133743 0.133285 0.361713 -0.108239 -0.993551 0.033785
0.269025 0.126995 0.290884 -0.010586 -0.995297 -0.096293
0.905174 0.142170 0.270577 -0.002160 -0.831542 -0.555457
0.290000 0.123069 0.388700 -0.091491 -0.888033 0.450585
0.244137 0.127498 0.329548 -0.096605 -0.990943 -0.093273
0.046938 0.142386 0.304502 -0.071671 0.992979 0.094103
0.638026 0.120361 0.360115 -0.301010 0.916314 0.264126
0.482721 0.103270 0.033835 -0.183537 -0.349288 -0.918865
0.936298 0.140751 0.303500 0.028802 -0.887087 -0.460702
0.592880 0.107695 0.345663 -0.281308 0.947189 0.153942
0.496404 0.102396 0.333081 -0.007825 0.999912 0.010721
0.631827 0.121827 0.325356 -0.244620 0.968504 -0.046487
0.781672 0.136825 0.285077 0.069911 0.987514 0.141170
0.623311 0.110065 0.269338 0.210327 -0.976854 -0.038976
0.370075 0.101094 0.353079 -0.241244 -0.968589 0.060312
0.729605 0.142150 0.362713 -0.036939 0.998960 -0.026735
0.880491 0.132233 0.330679 0.018139 -0.984600 -0.173881
0.492377 0.088640 0.085965 -0.061679 -0.954226 -0.292659
0.333269 0.121887 0.250361 0.202771 0.977840 -0.052081
0.303430 0.135173 0.340324 0.159571 0.985660 -0.054875
0.071042 0.140343 0.359182 0.044726 0.994487 0.094845
0.485059 0.094200 0.228031 -0.529317 0.846726 -0.053639
0.190943 0.134319 0.321963 -0.069738 0.997521 -0.009451
0.393731 0.105542 0.273440 -0.322185 -0.809448 -0.490908
0.644626 0.114067 0.280839 0.205933 -0.951368 -0.229109
0.123659 0.138143 0.318082 0.000160 0.993243 -0.116052
0.223950 0.135186 0.305345 -0.153149 0.984539 0.085022
0.596540 0.096613 0.303368 0.203459 -0.964312 -0.169432
0.477868 0.096378 0.390612 -0.815365 0.568659 0.108655
0.427254 0.095244 0.238852 -0.258722 -0.965898 0.010174
0.576833 0.087356 0.346861 0.262487 -0.960789 0.089363
0.578262 0.091116 0.321446 0.241685 -0.961533 -0.130543
0.482794 0.076825 0.424498 -0.870758 -0.482382 -0.095328
0.685506 0.124387 0.241520 -0.386823 0.892482 -0.232045
0.337482 0.123601 0.301477 0.118968 0.981341 -0.151053
0.939451 0.142211 0.305095 0.008833 0.996249 0.086075
0.780177 0.137546 0.318668 -0.044650 0.996822 -0.065970
0.572314 0.096715 0.274764 0.209332 -0.977344 -0.031295
0.455450 0.086737 0.212149 0.553722 0.788635 -0.267296
0.666040 0.113484 0.333270 0.228762 -0.970449 -0.076789
0.304048 0.118314 0.381740 -0.105078 -0.928738 0.355533
0.329639 0.132964 0.355003 0.228905 0.972436 0.044394
0.515103 0.041804 0.257531 0.710902 -0.641618 -0.288000
0.565103 0.096853 0.363015 -0.165972 0.643603 0.747147
0.845043 0.137073 0.317370 0.110932 0.992277 0.055498
0.874954 0.134099 0.360599 0.096025 -0.995378 0.001061
0.545222 0.092908 0.259877 -0.166942 0.938599 -0.301932
0.785851 0.137497 0.326376 0.010943 0.999030 -0.042664
0.387128 0.106209 0.232730 -0.434654 -0.897215 -0.077984
0.508070 0.075179 0.145000 0.116562 -0.964158 -0.238352
0.437835 0.092934 0.240504 -0.287013 -0.954740 -0.078066
0.678054 0.134366 0.347201 -0.200344 0.979215 -0.031643
0.585541 0.089323 0.344326 0.248368 -0.967131 0.054507
0.505607 0.060556 0.433134 0.872998 -0.449744 0.188691
0.378597 0.120259 0.331554 0.274342 0.961479 -0.017170
0.273094 0.133876 0.312971 0.082466 0.989285 -0.120480
0.826195 0.141382 0.256418 0.095824 0.994812 0.034153
0.528523 0.085456 0.153703 0.835188 0.462164 0.298103
0.573900 0.096910 0.290378 0.215731 -0.968626 -0.123383
0.553623 0.098207 0.319902 -0.105957 0.994154 -0.020760
0.889975 0.135119 0.328007 0.127578 0.880260 0.457018
0.252522 0.127412 0.313036 -0.099050 -0.990275 -0.097693
0.531598 0.050490 0.321047 0.939967 -0.334097 -0.069577
0.704645 0.119082 0.353515 0.157309 -0.986698 -0.041001
0.159715 0.137653 0.307054 0.274972 -0.844622 -0.459351
0.565160 0.098113 0.071355 0.249217 -0.958364 -0.139393
0.288520 0.136257 0.331614 0.096595 0.991636 -0.085600
0.457484 0.084368 0.362669 -0.524213 -0.630262 0.572687
0.428756 0.099795 0.358569 0.204693 0.802647 0.560231
0.345561 0.126369 0.325405 0.194915 0.978027 -0.073967
0.328364 0.124460 0.383243 0.394658 0.388004 0.832885
0.524639 0.097006 0.367830 0.650146 0.731557 0.205267
0.602660 0.106066 0.249683 -0.162390 0.985419 -0.050785
0.365263 0.112243 0.229493 0.837837 -0.386084 -0.385963
0.509714 0.095768 0.059896 0.162468 -0.452250 -0.876969
0.226789 0.131682 0.320623 -0.262398 -0.949365 -0.172780
0.708544 0.137662 0.343246 -0.107852 0.992716 -0.053698
0.474537 0.096821 0.111201 -0.232766 0.965613 0.115806
0.587979 0.107240 0.320928 -0.247495 0.968607 -0.023399
0.128354 0.137003 0.362989 0.012615 0.992566 0.121056
0.514520 0.043210 0.367693 0.284863 -0.850280 0.442580
0.514747 0.079294 0.132572 0.164163 -0.963453 -0.211683
0.100138 0.137371 0.341182 -0.059101 -0.607782 -0.791901
0.235344 0.133539 0.292839 0.436190 -0.801572 -0.408925
0.656771 0.111947 0.308357 0.251672 -0.962402 -0.102194
0.819132 0.129229 0.352456 0.057197 -0.992256 -0.110253
0.102082 0.138982 0.286677 -0.062547 0.934197 0.351233
0.232472 0.130729 0.306712 -0.122131 -0.988919 -0.084402
0.492323 0.097040 0.127011 -0.059084 0.994010 0.091939
0.143028 0.139136 0.264875 0.138196 -0.936555 -0.322130
0.393256 0.108952 0.363310 0.298924 0.736397 0.606930
0.058863 0.138813 0.362077 -0.102738 -0.990529 0.091093
0.667401 0.115832 0.379209 -0.109349 -0.653929 0.748612
0.949015 0.141393 0.349155 0.005037 0.975959 -0.217894
0.624683 0.112172 0.244509 -0.227436 0.972606 -0.048069
0.158712 0.137009 0.323096 -0.134867 0.990852 -0.004744
0.467487 0.052092 0.331737 -0.963380 -0.268122 0.003083
0.167623 0.137749 0.249453 0.024001 -0.997462 -0.067040
0.273312 0.142308 0.363236 0.040472 0.998910 -0.023275
0.464027 0.083073 0.364969 -0.632388 -0.539415 0.555983
0.885928 0.137631 0.358808 -0.024691 0.999695 -0.000422
0.074790 0.138861 0.341809 -0.059229 -0.472979 -0.879081
0.691387 0.124357 0.261884 0.023485 0.999646 0.012504
0.467443 0.089336 0.263726 -0.700040 0.120640 -0.703840
0.425987 0.095016 0.228479 -0.270944 -0.962587 -0.003939
0.182213 0.141939 0.248591 0.279816 0.926649 -0.251047
0.874568 0.141138 0.257879 0.142748 -0.926356 -0.348551
0.550548 0.083966 0.321460 0.349411 -0.926799 -0.137678
0.230782 0.136273 0.273295 -0.226989 0.951797 0.206295
0.448131 0.083417 0.326877 -0.341724 -0.930170 -0.134193
0.102838 0.140171 0.305073 0.091838 -0.796243 -0.597966
0.498060 0.104235 0.046373 0.009350 0.816434 -0.577363
0.597213 0.093239 0.330265 0.236779 -0.965234 -0.110717
0.328282 0.128200 0.318631 0.134463 0.985468 -0.103794
0.657011 0.109486 0.350565 0.254345 -0.965405 -0.057471
0.651804 0.117959 0.280611 -0.035498 -0.401978 -0.914961
0.744507 0.135415 0.288981 -0.283552 0.949905 -0.131445
0.666505 0.111387 0.357950 0.217650 -0.975579 0.029579
0.548275 0.091028 0.100486 0.255799 -0.961910 -0.096413
0.274337 0.127196 0.289063 0.027469 -0.990957 -0.131339
0.420654 0.097293 0.245804 -0.292495 -0.955045 0.048335
0.752012 0.135730 0.233865 0.128951 0.986918 0.096768
0.785964 0.127561 0.341372 0.035927 -0.989713 -0.138482
0.181228 0.136131 0.332404 -0.035807 0.999158 -0.020008
0.414541 0.100964 0.264604 -0.078744 -0.953260 -0.291710
0.314182 0.124448 0.241590 0.370247 0.902174 -0.221357
0.069953 0.140518 0.353392 0.048488 0.998014 -0.040210
0.817331 0.138145 0.339959 0.020004 0.999430 -0.027201
0.826695 0.137583 0.259365 -0.037382 -0.996691 -0.072171
0.476237 0.095585 0.063395 -0.212710 -0.884653 -0.414902
0.342949 0.116641 0.247362 -0.180160 -0.972020 -0.150727
0.459507 0.098960 0.331044 -0.017298 0.999825 0.007170
0.507044 0.103964 0.050521 0.098830 0.789731 -0.605439
0.867512 0.138170 0.267505 0.439610 -0.869287 0.226016
0.855336 0.135325 0.319964 0.075530 0.989366 -0.124298
0.383325 0.113712 0.299954 0.239670 0.965198 -0.104645
0.296705 0.119384 0.336604 -0.123288 -0.989693 -0.072857
0.161599 0.138489 0.319886 0.086744 0.992891 -0.081503
0.795782 0.128879 0.336206 0.082990 -0.989991 -0.114151
0.465596 0.102432 0.055329 -0.476926 0.841207 -0.254779
0.579101 0.097938 0.254986 0.291995 -0.955816 0.033994
0.026051 0.142243 0.359392 -0.264886 -0.962522 0.058192
0.240262 0.135971 0.224402 -0.428300 0.903107 -0.030938
0.099178 0.136032 0.359138 -0.079920 -0.996800 0.001240
0.484470 0.037581 0.357102 -0.221921 -0.874650 0.430974
0.294749 0.122562 0.295546 -0.132533 -0.990633 -0.032887
0.529089 0.063516 0.365944 0.904799 -0.252994 0.342540
0.857303 0.136101 0.323941 0.068166 0.997553 0.015517
0.182049 0.135096 0.312336 -0.060786 0.992933 0.101923
0.528495 0.089738 0.090028 0.152457 -0.969267 -0.193075
0.945270 0.139266 0.356456 0.104113 -0.993173 -0.052614
0.505422 0.052211 0.399409 0.247865 -0.953616 0.170820
0.265855 0.133360 0.240864 0.366612 -0.880605 -0.300217
0.485478 0.102038 0.344182 -0.101994 0.994698 -0.013150
0.409392 0.107183 0.345157 0.272584 0.950338 0.150186
0.652013 0.110371 0.371202 0.011299 -0.757055 0.653254
0.281898 0.124139 0.273146 -0.593966 -0.781839 0.189558
0.428393 0.097197 0.233481 0.328677 0.937325 -0.115729
0.771936 0.132574 0.391098 0.264288 0.522606 0.810577
0.329312 0.122784 0.256469 0.066792 0.997614 -0.017456
0.275422 0.132815 0.306194 0.004830 0.997404 -0.071853
0.534689 0.071085 0.342629 0.953601 -0.298772 0.037141
0.453361 0.096566 0.088681 -0.166441 0.968984 0.182667
0.688474 0.120057 0.263022 0.114330 -0.991768 -0.057668
0.490081 0.033121 0.271723 -0.159409 -0.963239 -0.216239
0.681054 0.124780 0.389333 -0.352980 0.390225 0.850370
0.928455 0.136495 0.315382 0.039043 -0.964424 -0.261462
0.586229 0.100396 0.262473 0.185113 -0.980011 -0.072878
0.809131 0.137926 0.300560 -0.386528 -0.755063 -0.529601
0.792053 0.140871 0.285048 -0.353744 0.919444 -0.171722
0.480557 0.077790 0.169477 -0.765411 -0.637481 0.088112
0.807439 0.136918 0.292730 -0.053407 -0.990155 -0.129384
0.222007 0.138063 0.279689 0.100807 0.993553 0.051872
0.885017 0.138547 0.289690 0.070819 0.955098 0.287703
0.499556 0.102188 0.326980 -0.002764 0.999686 0.024905
0.525209 0.095593 0.063714 0.437026 -0.494283 -0.751461
0.547251 0.085689 0.213299 -0.058511 -0.987190 -0.148431
0.389891 0.114089 0.347412 0.289047 0.946154 0.145756
0.686616 0.114630 0.365893 0.176944 -0.983756 -0.030234
0.523955 0.088820 0.397542 0.989106 0.066203 0.131480
0.364965 0.118153 0.299590 0.195635 0.972483 -0.126505
0.279989 0.132175 0.300007 0.045120 0.995614 -0.081957
0.522093 0.038140 0.298371 0.856190 -0.497979 -0.137681
0.478630 0.074513 0.217301 -0.992446 -0.041960 -0.115285
0.445070 0.092797 0.272906 -0.301902 -0.945014 -0.125716
0.379332 0.106907 0.287715 -0.220995 -0.936332 -0.272842
0.295636 0.118303 0.372023 -0.146181 -0.988815 -0.029612
0.372658 0.112899 0.257274 0.265086 0.955477 -0.129587
0.520512 0.087600 0.179670 0.877831 0.469048 0.096989
0.372276 0.101284 0.343029 -0.244185 -0.967260 -0.069154
0.344875 0.126254 0.360220 0.280540 0.937695 0.205001
0.484305 0.038684 0.359059 -0.235134 -0.871433 0.430483
0.488901 0.026369 0.316134 -0.237657 -0.971312 -0.008533
0.531666 0.058856 0.295001 0.946918 -0.290589 -0.137494
0.523952 0.072776 0.385766 0.924298 -0.265558 0.274139
0.608930 0.109865 0.284762 -0.312605 0.937089 -0.155377
0.199362 0.141454 0.248098 -0.063449 0.993725 0.092118
0.136998 0.136061 0.300409 0.232103 -0.899605 -0.369918
0.837860 0.131684 0.324974 -0.063847 -0.971821 -0.226909
0.380868 0.112828 0.282243 0.284346 0.950570 -0.124754
0.212688 0.142221 0.243443 0.492779 0.831592 -0.256171
0.366695 0.108392 0.293420 -0.228850 -0.958307 -0.171103
0.695199 0.124069 0.260961 0.374383 0.926344 0.041524
0.798352 0.143733 0.225974 -0.344603 -0.219394 -0.912751
0.495413 0.102402 0.372085 -0.041203 0.998937 0.020680
0.717843 0.125134 0.301857 0.048940 -0.991138 -0.123490
0.446547 0.093938 0.086194 -0.204555 -0.966937 -0.152285
0.328276 0.120560 0.228738 -0.434829 -0.806546 -0.400508
0.368654 0.109284 0.286728 -0.212340 -0.962289 -0.170034
0.186918 0.138425 0.265736 0.166626 -0.971695 -0.167463
0.239932 0.135881 0.223312 -0.528176 0.803344 -0.275079
0.506435 0.039018 0.255624 -0.214997 -0.911320 -0.351102
0.311522 0.116003 0.378020 -0.105720 -0.945609 0.307646
0.216270 0.129319 0.329877 -0.043345 -0.984080 -0.172358
0.069515 0.143546 0.298770 0.053368 0.851695 -0.521314
0.089950 0.136886 0.354307 -0.078910 -0.992072 -0.097806
0.523370 0.061470 0.243835 0.940214 -0.293987 -0.171956
0.109619 0.142159 0.276315 0.100942 0.993920 0.043985
0.574288 0.095462 0.237355 0.262617 -0.964863 0.008511
0.117210 0.139209 0.313903 0.191926 0.478860 -0.856655
0.474920 0.082515 0.128941 -0.260783 -0.953566 -0.150676
0.191382 0.137656 0.304913 -0.069839 0.987172 0.143578
0.536902 0.096401 0.289460 0.031437 0.992378 -0.119154
0.758478 0.124041 0.380206 0.103160 -0.958842 0.264537
0.556984 0.087258 0.313643 0.279322 -0.949057 -0.145840
0.216344 0.136946 0.302944 0.557185 -0.172669 -0.812238
0.808523 0.139560 0.236256 0.076879 -0.972225 -0.221063
0.643028 0.113307 0.256508 0.178527 -0.983924 -0.004605
0.626557 0.112268 0.223103 -0.237017 0.957443 -0.164700
0.547413 0.090790 0.261213 0.246683 -0.967773 -0.050616
0.274190 0.131842 0.235964 -0.192328 0.974369 0.116683
0.260432 0.130604 0.279670 -0.161383 0.976860 0.140359
0.800185 0.134063 0.311909 -0.044573 -0.968308 -0.245751
0.814232 0.133606 0.317474 0.040701 0.999129 0.009162
0.686265 0.123631 0.277737 0.026946 0.999095 -0.032898
0.482163 0.081992 0.122385 -0.184480 -0.960594 -0.207910
0.557373 0.084218 0.333722 0.289063 -0.955700 -0.055504
0.146766 0.132394 0.358746 -0.127964 -0.991755 0.006841
0.594078 0.095008 0.310674 0.189706 -0.970364 -0.149686
0.838449 0.139639 0.245058 0.904149 -0.343227 0.254381
0.517181 0.097646 0.271115 0.396644 0.906119 -0.147044
0.920508 0.139385 0.306852 0.001130 -0.914891 -0.403699
0.505180 0.099245 0.047496 0.116098 0.009380 -0.993194
0.499300 0.099627 0.247486 -0.020030 0.994957 -0.098283
0.373394 0.113327 0.263806 -0.052803 0.994747 -0.087695
0.447731 0.096200 0.283560 0.063250 0.990374 -0.123125
0.105085 0.137088 0.314106 0.051270 -0.894823 -0.443467
0.610537 0.106159 0.256130 0.161334 -0.986592 -0.024648
0.262688 0.127804 0.277300 0.002092 -0.996577 -0.082639
0.314716 0.133891 0.367029 0.223297 0.963373 0.148494
0.186410 0.141648 0.229730 -0.845239 -0.182434 -0.502284
0.730531 0.127626 0.235309 -0.001737 -0.987183 -0.159582
0.497343 0.096317 0.139326 -0.024400 0.995661 0.089802
0.492910 0.062102 0.428067 -0.848521 -0.466787 0.249244
0.538675 0.100741 0.048156 0.434935 -0.619846 -0.653163
0.478953 0.087032 0.176662 -0.818807 0.555029 0.146622
0.434158 0.092441 0.304110 -0.241922 -0.957741 -0.155581
0.683315 0.124540 0.290086 -0.031926 0.993885 -0.105704
0.791043 0.137429 0.372796 0.109021 0.956093 0.272031
0.333630 0.129066 0.327974 0.171720 0.981989 -0.078806
0.094091 0.138779 0.363156 0.038431 0.990894 0.129044
0.655899 0.113220 0.292865 0.241554 -0.965501 -0.097262
0.609783 0.106415 0.248032 0.064807 -0.995889 -0.063288
0.537699 0.089918 0.365957 0.459119 0.313271 0.831307
0.222974 0.135163 0.384276 -0.190548 0.825788 0.530816
0.510603 0.094564 0.204172 0.226294 0.972638 -0.052600
0.780911 0.137767 0.234271 -0.089251 -0.966414 -0.240993
0.480607 0.077623 0.411192 -0.935058 -0.268140 0.231877
0.636719 0.123430 0.329052 -0.241633 0.969494 -0.041171
0.914445 0.144461 0.267806 0.178687 -0.040258 -0.983082
0.310126 0.118176 0.326890 -0.194217 -0.979561 -0.052349
0.523400 0.057146 0.373770 0.846144 -0.358559 0.394304
0.629929 0.112169 0.257309 -0.774904 0.562003 -0.289268
0.465453 0.061998 0.315621 -0.981542 -0.187483 -0.037768
0.135657 0.136626 0.317497 -0.014671 0.929595 -0.368291
0.309946 0.119618 0.309952 -0.208067 -0.976094 -0.062836
0.582311 0.101186 0.252066 0.070685 0.992944 -0.095219
0.641272 0.123082 0.353707 -0.277812 0.948172 0.154240
0.548254 0.096019 0.090734 0.176116 0.964985 0.194388
0.515706 0.102031 0.347033 0.121813 0.992426 -0.015912
0.170345 0.138497 0.334598 0.031961 0.998327 -0.048187
0.322238 0.130731 0.327663 0.139105 0.987510 -0.073980
0.622141 0.116661 0.352898 -0.302688 0.928693 0.214264
0.409121 0.107071 0.350964 0.275933 0.941962 0.191227
0.389095 0.106526 0.369489 0.250218 0.309724 0.917312
0.328346 0.120496 0.276839 -0.482020 -0.409924 -0.774351
0.057292 0.140690 0.363782 0.001972 0.849712 0.527244
0.251465 0.139525 0.377263 -0.002557 0.990943 0.134262
0.296181 0.136801 0.341482 0.128325 0.990342 -0.052499
0.663609 0.130127 0.356819 -0.249651 0.962544 0.105752
0.277242 0.139570 0.346850 0.051062 0.997023 -0.057779
0.478733 0.078629 0.164546 -0.742225 -0.664579 0.086239
0.194075 0.128864 0.344952 -0.053625 -0.990501 -0.126615
0.338546 0.129425 0.356654 0.251683 0.961480 0.110511
0.650274 0.115986 0.264780 0.264499 -0.952428 -0.151395
0.543770 0.087897 0.289790 0.345785 -0.922959 -0.169055
0.794604 0.137694 0.273019 0.213537 0.952825 0.215701
0.627094 0.105414 0.300369 0.241886 -0.957003 -0.160116
0.908803 0.144094 0.270929 -0.004361 0.999716 0.023411
0.555178 0.090315 0.293117 0.290990 -0.941727 -0.168748
0.518506 0.103164 0.034520 0.247862 0.330179 -0.910795
0.861281 0.132085 0.335329 0.058965 -0.995349 -0.076182
0.247384 0.128930 0.308810 -0.104598 -0.989116 -0.103483
0.337272 0.122475 0.282350 0.158370 0.984932 -0.069484
0.739717 0.130736 0.251913 -0.112107 -0.978137 -0.175158
0.492313 0.103415 0.322668 -0.047840 0.998598 0.022656
0.363645 0.117470 0.288560 0.240888 0.962176 -0.127240
0.372988 0.113189 0.253953 0.046517 0.997654 -0.050224
0.186327 0.135177 0.328873 -0.049118 0.998683 -0.014791
0.870795 0.131982 0.334327 0.068551 -0.997006 -0.035782
0.703615 0.131175 0.239199 -0.867112 -0.285745 -0.408004
0.460446 0.083383 0.308768 -0.581705 -0.799964 -0.147233
0.475372 0.060367 0.251937 -0.935891 -0.308818 -0.169527
0.542002 0.097519 0.302323 -0.021568 0.997017 -0.074111
0.179535 0.133142 0.376006 -0.219892 0.384289 0.896643
0.504753 0.102686 0.328280 0.026567 0.999398 0.022315
0.876243 0.139914 0.287073 0.038914 0.984834 0.169078
0.508081 0.095018 0.198957 0.119277 0.992112 -0.038552
0.943198 0.141241 0.358576 -0.041033 0.998008 0.047922
0.096750 0.138816 0.351698 0.027267 0.987728 -0.153787
0.457869 0.088341 0.121161 -0.899613 0.168567 0.402842
0.767049 0.132988 0.273341 -0.040299 -0.989441 -0.139223
0.755891 0.131660 0.303969 0.541014 0.779290 0.316244
0.857639 0.133438 0.329002 0.025621 -0.952744 -0.302693
0.473837 0.075236 0.380079 -0.947681 -0.135714 0.288933
0.762797 0.134324 0.392332 0.168913 0.715682 0.677693
0.932365 0.138540 0.351406 0.095415 -0.977075 -0.190317
0.253278 0.123634 0.366994 -0.075237 -0.993163 -0.089260
0.676497 0.116222 0.317703 0.229518 -0.971130 -0.065027
0.533743 0.103971 0.041588 0.414848 0.658911 -0.627485
0.301011 0.132964 0.383166 0.213930 0.921834 0.323196
0.778798 0.138434 0.333822 -0.001078 0.999277 -0.038004
0.743383 0.139868 0.352004 -0.019389 0.998177 -0.057162
0.767308 0.136782 0.282798 -0.829693 0.203149 -0.519942
0.559905 0.084566 0.336724 0.287210 -0.957602 -0.022555
0.598956 0.102517 0.269079 0.251151 -0.964478 -0.081884
0.773628 0.132727 0.293471 -0.065414 -0.981583 -0.179488
0.317010 0.130858 0.322283 0.137907 0.987645 -0.074426
0.709518 0.122760 0.291310 0.359129 -0.928061 0.098639
0.475044 0.095115 0.065451 -0.233917 -0.888514 -0.394748
0.158955 0.138340 0.355638 -0.037365 0.990766 0.130333
0.521000 0.094592 0.135055 0.258666 0.957812 0.125250
0.396596 0.102663 0.228686 -0.322029 -0.946580 -0.016858
0.438484 0.102770 0.047810 -0.396080 -0.834194 -0.383719
0.342166 0.110637 0.368675 -0.084680 -0.861255 0.501068
0.312005 0.135430 0.363946 0.203550 0.974626 0.093123
0.204853 0.138160 0.250508 0.188048 -0.946898 -0.260809
0.576626 0.088113 0.336420 0.262462 -0.964143 -0.039261
0.379921 0.113797 0.361587 0.313817 0.842851 0.437173
0.812860 0.134922 0.327922 0.035517 0.999174 -0.019750
0.547943 0.102343 0.051374 0.702705 -0.300545 -0.644887
0.798702 0.141376 0.274561 -0.356879 0.910966 -0.206828
0.522663 0.100443 0.325957 0.182052 0.982971 -0.024998
0.445433 0.096630 0.354570 0.127385 0.876057 0.465078
0.733966 0.122388 0.370086 0.100191 -0.993444 -0.055051
0.089270 0.138192 0.316759 -0.012644 0.956748 0.290644
0.282649 0.122434 0.336468 -0.148240 -0.987448 -0.054518
0.334953 0.113153 0.337134 -0.229758 -0.970521 -0.072806
0.827288 0.139612 0.345377 0.000236 0.999390 -0.034911
0.826648 0.140259 0.266107 0.333084 0.920107 0.206055
0.891716 0.139995 0.307438 -0.192143 -0.503787 -0.842187
0.534623 0.062038 0.318176 0.982287 -0.185080 -0.029269
0.466046 0.103709 0.044061 -0.528743 -0.516394 -0.673623
0.523621 0.052906 0.265249 0.881340 -0.440597 -0.170628
0.223628 0.139795 0.343430 -0.016108 0.999680 -0.019520
0.115145 0.140082 0.276680 0.226488 -0.738828 -0.634694
0.635160 0.114005 0.234104 -0.589091 0.787992 -0.178998
0.300959 0.117868 0.380098 -0.112567 -0.954740 0.275317
0.712532 0.133789 0.224987 -0.505965 0.598307 -0.621311
0.932121 0.136274 0.316138 0.048983 -0.967168 -0.249371
0.414644 0.099522 0.281729 -0.048714 -0.932811 -0.357058
0.054826 0.140736 0.341715 -0.129461 0.767980 -0.627253
0.107746 0.133128 0.325794 0.009219 -0.963357 -0.268063
0.395104 0.098928 0.301802 -0.261980 -0.948004 -0.180708
0.899813 0.134795 0.320417 -0.004856 -0.953819 -0.300344
0.501043 0.095996 0.058940 0.061577 -0.364948 -0.928989
0.779689 0.132055 0.307014 0.925634 -0.139850 0.351631
0.510970 0.097125 0.244043 0.420914 0.902100 -0.095115
0.322805 0.120109 0.267244 -0.336583 -0.802873 -0.492043
0.726703 0.135405 0.243020 -0.628798 0.732613 -0.260559
0.146529 0.135083 0.317710 -0.105359 0.993218 0.049164
0.254107 0.133593 0.306232 0.059916 0.997710 -0.031372
0.793717 0.137769 0.329028 0.067451 0.997054 -0.036512
0.586684 0.098832 0.284909 0.061616 -0.945593 -0.319465
0.473982 0.081378 0.154069 -0.718459 -0.686743 0.110455
0.734799 0.127399 0.283065 -0.016008 -0.995878 -0.089277
0.383658 0.108190 0.267623 -0.141311 -0.987550 -0.069113
0.440065 0.099934 0.067177 -0.258684 0.950042 0.174650
0.539236 0.094315 0.278426 -0.037213 0.979252 -0.199199
0.636192 0.117735 0.292650 -0.219148 0.967069 -0.129430
0.494326 0.093977 0.185655 -0.034884 0.998169 -0.049407
0.352646 0.108517 0.326566 -0.247945 -0.964890 -0.086668
0.651481 0.107894 0.364434 0.165522 -0.909076 0.382339
0.242803 0.126252 0.342699 -0.081174 -0.992286 -0.093701
0.872474 0.131973 0.337880 0.309608 -0.820635 0.480313
0.146818 0.136038 0.280976 -0.163908 -0.983325 0.078774
0.650027 0.117815 0.283122 0.065712 -0.494074 -0.866933
0.220827 0.138889 0.262141 0.851521 0.271012 -0.448848
0.514892 0.054026 0.230395 0.509579 -0.809536 -0.291516
0.115704 0.136848 0.326791 -0.096322 0.945631 0.310651
0.517665 0.083641 0.113944 0.169456 -0.959824 -0.223658
0.731002 0.123107 0.354439 0.107279 -0.992092 -0.065149
0.585205 0.105332 0.298120 -0.245811 0.965467 -0.086319
0.326856 0.119006 0.239252 -0.299316 -0.941635 -0.154059
0.614472 0.104457 0.290093 0.233603 -0.938106 -0.255709
0.522326 0.065133 0.383119 0.881876 -0.337713 0.329004
0.581251 0.105079 0.310381 -0.225947 0.972611 -0.054551
0.059273 0.142001 0.306036 -0.009030 0.991996 0.125942
0.811143 0.138877 0.348422 0.032670 0.999056 0.028636
0.384082 0.112638 0.292280 0.253980 0.957277 -0.138256
0.631050 0.105282 0.307778 0.250128 -0.958828 -0.134482
0.894662 0.139938 0.283667 0.022713 0.962680 0.269688
0.616146 0.114027 0.356077 -0.302393 0.919801 0.250050
0.124495 0.135160 0.296667 0.128460 -0.956728 -0.261092
0.103525 0.138891 0.278985 0.028100 -0.918576 -0.394243
0.551721 0.087821 0.299888 0.300104 -0.941369 -0.154151
0.394918 0.108461 0.287867 0.211905 0.913477 -0.347355
0.094191 0.136034 0.323142 -0.059261 0.908369 0.413949
0.459082 0.091338 0.117479 -0.454662 0.842898 0.287759
0.440174 0.091763 0.244387 -0.286506 -0.956088 0.061727
0.615075 0.097806 0.339209 0.240519 -0.967470 -0.078432
0.921273 0.142345 0.301038 -0.110556 0.306494 -0.945431
0.506222 0.094637 0.192349 0.087915 0.995785 -0.026144
0.465268 0.097085 0.096121 -0.208466 0.963804 0.166206
0.351328 0.117527 0.271427 -0.684722 0.675941 -0.272507
0.521853 0.089385 0.253652 0.841425 0.475056 -0.257537
0.551076 0.096118 0.074070 0.234257 -0.940082 -0.247730
0.771008 0.132862 0.274338 0.469015 -0.873854 0.128077
0.469333 0.103469 0.049830 -0.556142 -0.393841 -0.731844
0.847820 0.136166 0.317419 0.094467 0.994342 0.048580
0.120621 0.136851 0.345649 -0.120516 -0.100693 -0.987591
0.534070 0.098875 0.320083 0.039235 0.998296 -0.043203
0.443506 0.091921 0.229748 0.138557 0.979652 -0.145205
0.794938 0.142151 0.243767 -0.070324 0.995741 -0.059616
0.481532 0.070468 0.195153 -0.955957 -0.263322 -0.129642
0.491664 0.103051 0.330319 -0.041290 0.999017 0.016149
0.135411 0.136331 0.336535 -0.140611 0.965630 0.218601
0.816609 0.135302 0.304587 -0.118738 -0.952036 -0.282010
0.532780 0.053420 0.326049 0.963151 -0.266888 -0.033339
0.829324 0.133467 0.374848 0.178266 0.582861 0.792777
0.231582 0.135808 0.276226 -0.260914 0.938119 0.227722
0.796655 0.138750 0.353214 0.060355 0.996139 0.063758
0.458282 0.102065 0.044589 -0.564848 -0.440361 -0.697875
0.386517 0.100402 0.308128 -0.251457 -0.955715 -0.152900
0.530916 0.085341 0.117834 0.228144 -0.961016 -0.156202
0.572210 0.099358 0.361070 -0.201922 0.722433 0.661301
0.188201 0.141764 0.263057 0.128658 0.986654 -0.099808
0.312132 0.120669 0.294696 -0.148563 -0.981887 -0.117586
0.581569 0.097182 0.230499 0.339959 -0.940195 0.021497
0.666127 0.112702 0.344395 0.226921 -0.971978 -0.061359
0.108714 0.135196 0.361272 -0.085345 -0.995967 0.027691
0.762515 0.134395 0.267711 -0.161221 -0.966135 -0.201470
0.620396 0.113178 0.281305 -0.266636 0.956606 -0.117518
0.582393 0.091975 0.321899 0.235869 -0.963343 -0.127812
0.330902 0.111620 0.359626 -0.201799 -0.978341 0.046107
0.792081 0.127929 0.339441 0.044816 -0.990277 -0.131691
0.491295 0.053679 0.225962 -0.222227 -0.892339 -0.392869
0.563708 0.095806 0.261285 0.419502 -0.876051 -0.237807
0.519352 0.089774 0.180299 0.752307 0.655128 0.069579
0.330285 0.114745 0.311961 -0.218569 -0.969604 -0.109985
0.740419 0.124648 0.343779 0.094523 -0.992040 -0.083206
0.330318 0.119122 0.274180 -0.832429 -0.524518 -0.178724
0.307945 0.121863 0.276549 -0.934884 0.196381 0.295679
0.211136 0.126296 0.356745 -0.070769 -0.993109 -0.093414
0.404620 0.093361 0.357481 -0.170495 -0.866793 0.468616
0.710475 0.126552 0.291499 -0.192027 -0.950753 -0.243299
0.541295 0.094516 0.102935 0.245237 0.948245 0.201717
0.869261 0.145775 0.250688 -0.029469 0.999547 -0.006106
0.664215 0.117251 0.280457 0.266921 -0.950795 -0.157299
0.842479 0.132374 0.321502 -0.061510 -0.976497 -0.206567
0.531489 0.095823 0.286574 0.060482 0.986341 -0.153208
0.798490 0.137091 0.254495 -0.072935 -0.980117 -0.184528
0.341671 0.109386 0.364723 -0.172653 -0.926891 0.333261
0.523341 0.100713 0.356810 0.327049 0.941648 0.079608
0.802488 0.140804 0.290119 0.071853 0.992490 0.099003
0.514306 0.084671 0.106005 0.130828 -0.960199 -0.246783
0.296760 0.130309 0.307265 0.139671 0.979164 -0.147408
0.274129 0.137615 0.336351 0.047306 0.995609 -0.080774
0.502954 0.083169 0.109415 0.030698 -0.965433 -0.258837
0.514587 0.081415 0.430781 0.683272 0.069313 0.726866
0.537868 0.080775 0.323876 0.535810 -0.834773 -0.126731
0.565409 0.086018 0.332036 0.276024 -0.957704 -0.081330
0.427606 0.102064 0.293449 0.204933 0.974602 -0.090294
0.454010 0.100532 0.065857 -0.214341 0.975171 0.055675
0.140027 0.133447 0.356472 -0.122131 -0.990978 -0.055193
0.407588 0.103502 0.258846 0.347396 0.931725 -0.105856
0.375217 0.112235 0.245696 0.228341 0.972315 -0.049639
0.526945 0.103857 0.046672 0.346446 0.717567 -0.604212
0.307343 0.116815 0.357823 -0.164127 -0.985698 -0.038230
0.383740 0.096993 0.353003 -0.235497 -0.966320 0.103766
0.557559 0.095078 0.083166 0.231688 -0.963851 -0.131571
0.506974 0.102802 0.391016 0.135966 0.990481 0.021472
0.165521 0.132520 0.331475 -0.526386 -0.772642 0.354883
0.671485 0.127188 0.313405 -0.122404 0.985536 -0.117198
0.540573 0.095655 0.356413 0.136874 0.915156 0.379150
0.202102 0.126441 0.367445 -0.090876 -0.995206 0.036150
0.466931 0.088067 0.264653 -0.754059 -0.001423 -0.656806
0.418406 0.089228 0.335334 -0.254435 -0.965481 -0.055772
0.647301 0.117161 0.221876 0.511934 0.654378 -0.556519
0.342769 0.108904 0.358285 -0.225053 -0.967378 0.116321
0.480068 0.077511 0.408634 -0.941141 -0.258006 0.218371
0.901920 0.139435 0.306645 -0.039697 -0.891151 -0.451966
0.477633 0.085828 0.247186 -0.904299 0.392258 -0.168454
0.424298 0.096117 0.241845 -0.271822 -0.962059 0.023562
0.452780 0.098598 0.324950 0.047924 0.998794 -0.010700
0.861121 0.140957 0.258723 -0.083519 -0.917544 -0.388763
0.534836 0.061739 0.335401 0.984275 -0.174462 0.027686
0.505004 0.076706 0.137312 0.062739 -0.969476 -0.237024
0.360325 0.125359 0.336991 0.251631 0.967606 -0.020517
0.336580 0.120596 0.230485 0.469743 0.686844 -0.554605
0.690873 0.116233 0.359275 0.174463 -0.984091 -0.033572
0.541346 0.098251 0.059823 0.213381 -0.919720 -0.329519
0.314743 0.118954 0.288925 -0.255065 -0.966524 -0.027805
0.686617 0.133191 0.335393 -0.181092 0.981117 -0.067938
0.253060 0.134555 0.279897 0.494491 -0.764926 -0.412755
0.424565 0.101981 0.274673 0.260230 0.960208 -0.101396
0.451932 0.094215 0.361493 -0.020936 0.760203 0.649348
0.094636 0.136355 0.359672 -0.080375 -0.996586 0.018870
0.370631 0.112556 0.221208 -0.396992 0.895609 -0.200702
0.343940 0.122221 0.300252 0.132934 0.979899 -0.148753
0.846745 0.136695 0.307127 -0.162316 -0.936868 -0.309727
0.871396 0.135150 0.348076 0.106570 -0.942656 -0.316294
0.336135 0.115493 0.377818 0.124940 -0.602598 0.788204
0.621145 0.112105 0.367334 -0.318624 0.642508 0.696895
0.100446 0.134960 0.319950 0.006903 -0.951699 -0.306956
0.710623 0.126334 0.263940 -0.139855 -0.977414 -0.158439
0.253916 0.135577 0.326484 0.030852 0.992908 -0.114815
0.832661 0.139432 0.293457 0.197591 0.935174 0.293951
0.863811 0.133929 0.354698 0.117068 -0.988887 -0.091638
0.459311 0.094473 0.272459 0.060941 0.968133 -0.242907
0.286810 0.132854 0.308915 0.103823 0.986241 -0.128645
0.357724 0.116944 0.251479 0.229584 0.971817 -0.053513
0.722260 0.125822 0.391714 0.095465 -0.849485 0.518905
0.186181 0.141066 0.274473 -0.091390 0.992778 0.077719
0.390090 0.096063 0.341449 -0.239322 -0.970332 -0.034350
0.673799 0.119142 0.280967 0.173752 -0.937951 -0.300096
0.557879 0.099449 0.337008 -0.141824 0.985507 0.093071
0.180391 0.140276 0.294723 0.253694 0.965326 -0.061530
0.525760 0.041245 0.351936 0.778020 -0.560805 0.283164
0.357416 0.113488 0.261033 -0.187853 -0.982102 -0.013639
0.489157 0.103585 0.317321 -0.115260 0.993335 -0.000774
0.231179 0.138541 0.337862 0.023789 0.997253 -0.070145
0.129115 0.135645 0.344192 -0.106628 -0.879873 -0.463092
0.114897 0.137322 0.284993 0.113766 -0.927037 -0.357296
0.356827 0.112850 0.244247 -0.184451 -0.982547 -0.024060
0.763728 0.128853 0.318192 0.095752 -0.990726 -0.096404
0.500505 0.052828 0.410020 0.052021 -0.989754 0.132966
0.543874 0.081729 0.326319 0.457697 -0.879589 -0.129753
0.454141 0.098433 0.330148 0.016731 0.999442 0.028925
0.357238 0.123258 0.355223 0.277086 0.946429 0.165819
0.681282 0.125428 0.296872 -0.063217 0.987179 -0.146567
0.500807 0.102346 0.349083 0.001756 0.999974 -0.006995
0.534766 0.066322 0.344058 0.992043 -0.105459 0.068768
0.510708 0.077684 0.136344 0.128972 -0.965703 -0.225351
0.630651 0.112155 0.263954 -0.622923 -0.582488 -0.522183
0.544564 0.103907 0.038684 0.519533 -0.436606 -0.734480
0.485762 0.092127 0.179265 -0.273543 0.961753 -0.014334
0.970238 0.141796 0.358407 0.229337 -0.973139 0.020146
0.546554 0.091902 0.248441 -0.359567 0.916609 -0.174757
0.847750 0.137576 0.303948 -0.244914 -0.886254 -0.393155
0.247373 0.127458 0.329776 -0.101864 -0.990361 -0.093851
0.764759 0.135702 0.318841 -0.098786 0.978521 -0.180934
0.461617 0.094144 0.279131 0.023087 0.978919 -0.202939
0.494579 0.104288 0.045667 -0.024019 0.831916 -0.554381
0.552727 0.096819 0.294617 -0.091170 0.992690 -0.079091
0.852815 0.134475 0.320052 0.174543 0.973326 0.148898
0.072857 0.139104 0.314942 -0.006684 0.951795 0.306661
0.238931 0.138652 0.340834 0.045819 0.993583 -0.103413
0.278204 0.136633 0.388034 0.116878 0.943912 0.308819
0.443563 0.086153 0.318414 -0.281871 -0.948860 -0.142173
