0.470237 0.597044 0.191796 0.788090 0.135780 -0.600398
0.305935 0.599737 0.181582 -0.050719 0.147845 -0.987709
0.615280 0.473743 0.137180 0.172211 -0.902331 0.395148
0.282256 0.285436 0.201403 0.092724 0.126978 0.987562
0.373783 0.448173 0.189968 0.021827 -0.726552 0.686765
0.759329 0.517975 0.128616 0.079145 0.949844 -0.302543
0.387280 0.521513 0.165807 0.037841 0.183948 -0.982207
0.454547 0.656139 0.207305 0.789446 -0.128759 0.600163
0.764015 0.518695 0.136855 0.019398 -0.981895 0.188429
0.302756 0.234654 0.217249 0.610720 0.194113 -0.767686
0.293918 0.559486 0.106632 -0.477333 0.837702 -0.265344
0.715471 0.498412 0.144785 0.222500 0.191216 0.955997
0.417806 0.831673 0.216956 0.053383 -0.021990 0.998332
0.387944 0.217278 0.201647 -0.075480 0.074608 0.994352
0.748040 0.487085 0.137395 -0.012983 -0.991931 -0.126112
0.381087 0.283119 0.202072 -0.211565 0.074581 0.974514
0.408825 0.174689 0.217488 -0.045540 -0.022163 -0.998717
0.124643 0.508714 0.218495 -0.416745 0.313616 0.853211
0.708981 0.517154 0.108101 0.303528 0.848742 -0.433021
0.548526 0.541165 0.136188 0.202631 0.931869 0.300934
0.348640 0.441242 0.180284 -0.052475 -0.813479 0.579223
0.594936 0.523951 0.073843 0.228992 0.764356 -0.602763
0.658394 0.532719 0.066708 -0.391784 0.448078 -0.803574
0.098022 0.490659 0.171684 -0.217653 -0.479895 -0.849899
0.385540 0.135440 0.208959 0.872982 0.476613 -0.103645
0.488540 0.057546 0.203312 -0.317251 -0.050192 0.947012
0.204509 0.456547 0.213556 -0.056529 -0.977445 0.203482
0.457291 0.627060 0.197257 0.901740 0.073628 -0.425962
0.395857 0.674570 0.200231 0.361322 0.093601 -0.927731
0.094091 0.491370 0.210186 -0.250667 -0.470428 0.846087
0.326751 0.359267 0.189382 -0.019127 0.131851 0.991085
0.422201 0.591631 0.183837 0.238682 0.163511 -0.957233
0.310803 0.680245 0.197259 0.018567 0.115038 -0.993188
0.544279 0.541942 0.081822 0.205460 0.931423 -0.300396
0.642217 0.492009 0.076339 0.314632 -0.388761 -0.865951
0.442332 0.530065 0.036303 0.094057 0.499903 -0.860959
0.402597 0.467551 0.168291 -0.060288 0.183858 0.981102
0.782455 0.438447 0.136936 -0.238471 0.334874 0.911587
0.385525 0.482517 0.210679 0.063891 -0.265490 0.961994
0.288979 0.546773 0.089998 -0.550548 0.679853 -0.484455
0.471798 0.506852 0.131148 -0.160306 0.570415 -0.805561
0.519648 0.511064 0.098534 0.211120 0.524335 0.824925
0.151884 0.466145 0.186740 -0.246237 -0.954981 -0.165463
0.574296 0.479390 0.061658 0.256669 -0.584775 -0.769518
0.354324 0.616931 0.210246 0.061032 -0.116536 0.991310
0.829022 0.525540 0.133557 0.027390 -0.963566 0.266064
0.313784 0.725203 0.224914 -0.008078 -0.040783 0.999135
0.480625 0.845506 0.208078 0.895065 -0.161308 -0.415738
0.577602 0.537732 0.124523 0.187416 0.969209 0.159717
0.379979 0.700493 0.224289 0.207775 -0.089045 0.974115
0.475490 0.439967 0.107407 0.223778 -0.973761 -0.041396
0.751480 0.480416 0.137637 -0.020414 -0.979930 -0.198294
0.395262 0.238989 0.201763 -0.122080 0.075998 0.989606
0.395698 0.297923 0.204990 -0.548211 0.033810 0.835656
0.411774 0.570985 0.150556 0.151312 0.943906 0.293508
0.375591 0.273026 0.201467 -0.128893 0.085552 0.987961
0.068210 0.493238 0.143459 0.243076 -0.008074 -0.969974
0.129509 0.527696 0.196949 -0.321885 0.930827 0.173063
0.403627 0.576538 0.115363 0.101579 0.994470 -0.026677
0.242575 0.699173 0.219111 -0.756830 0.174869 0.629786
0.048716 0.489032 0.144343 -0.014436 -0.582030 -0.813039
0.787778 0.471825 0.130369 -0.207245 0.573966 0.792220
0.498018 0.941773 0.207551 0.247607 -0.044870 0.967821
0.407278 0.525858 0.190875 0.190181 -0.154682 0.969487
0.669397 0.520390 0.138335 0.003676 0.981627 -0.190773
0.361389 0.422875 0.116660 -0.046694 -0.998036 -0.041757
0.498742 0.554271 0.125926 0.218995 0.965687 0.139605
0.612403 0.470693 0.066867 -0.013472 -0.869117 0.494423
0.449721 0.671621 0.206976 0.967845 -0.081569 0.237953
0.408981 0.510874 0.027490 -0.012977 0.158509 -0.987272
0.674443 0.489351 0.126453 -0.001842 0.995417 0.095611
0.598197 0.519183 0.087921 -0.389248 0.586904 -0.709950
0.578572 0.472507 0.073212 0.287090 -0.346336 0.893102
0.516416 0.502959 0.037809 0.216914 0.063930 -0.974095
0.519218 0.530839 0.167725 0.232047 0.699211 0.676209
0.285307 0.322704 0.222842 0.031737 -0.061465 -0.997604
0.603684 0.469652 0.075206 -0.037921 0.789844 -0.612134
0.871819 0.410377 0.135128 -0.184043 -0.547905 -0.816044
0.519778 0.536379 0.058184 0.208623 0.779926 -0.590078
0.745485 0.495759 0.136969 -0.004046 -0.999219 -0.039303
0.290152 0.293085 0.225991 0.027724 -0.044704 -0.998616
0.413350 0.426370 0.094635 0.124111 -0.975691 -0.180622
0.410459 0.713857 0.220047 0.418340 -0.107910 0.901857
0.416788 0.429483 0.198177 -0.304566 -0.147060 -0.941070
0.442038 0.492229 0.130538 0.338119 0.196553 0.920349
0.411654 0.346167 0.197407 -0.409368 0.112940 0.905352
0.300385 0.540359 0.172942 -0.372053 0.135222 -0.918309
0.501604 0.470557 0.175050 0.241105 -0.632552 0.736034
0.231746 0.454639 0.183556 -0.055576 -0.998442 -0.005011
0.459087 0.513718 0.031650 0.116530 0.252424 -0.960574
0.597863 0.533765 0.121479 0.179586 0.975851 0.124351
0.525550 0.488734 0.097390 0.102869 -0.718845 0.687517
0.789463 0.559348 0.136932 0.251216 -0.121278 -0.960303
0.696373 0.466466 0.137898 -0.006302 0.944979 0.327072
0.414275 0.362489 0.193826 -0.307023 0.136444 0.941871
0.456149 0.675453 0.208793 0.908090 -0.103998 0.405656
0.224747 0.457365 0.163786 -0.195143 -0.951421 -0.238154
0.222752 0.492065 0.125342 -0.520389 -0.188442 -0.832878
0.470796 0.570997 0.185579 0.519619 0.185866 -0.833937
0.463817 0.480643 0.194668 0.247435 -0.373700 0.893938
0.392850 0.677759 0.200585 0.345083 0.091525 -0.934099
0.497550 0.476017 0.179192 -0.576879 0.219711 0.786726
0.304559 0.525163 0.200161 0.097462 0.540765 0.835509
0.466496 0.835549 0.206723 0.743385 -0.107849 -0.660112
0.435551 0.747315 0.216518 0.496696 -0.107837 0.861199
0.802765 0.463916 0.131321 -0.249125 0.176181 0.952312
0.373662 0.218427 0.220737 -0.034916 -0.033526 -0.998828
0.365977 0.185839 0.218186 0.057642 0.006433 -0.998317
0.326072 0.663449 0.194041 0.032935 0.122155 -0.991964
0.351299 0.310743 0.225029 -0.086919 -0.077061 -0.993230
0.230628 0.544860 0.178897 -0.054944 0.995733 -0.074137
0.301401 0.562386 0.154432 -0.236570 0.897392 0.372455
0.750917 0.496526 0.133115 0.376842 0.920657 -0.101885
0.403492 0.567290 0.199376 0.191372 -0.134990 0.972190
0.237530 0.472950 0.127062 -0.472491 -0.634480 -0.611709
0.476987 0.901799 0.204170 0.402250 -0.055651 -0.913837
0.402749 0.582091 0.202061 0.207813 -0.131347 0.969310
0.130569 0.522800 0.209655 -0.402972 0.743503 0.533682
0.296981 0.735620 0.201748 -0.117243 0.136016 -0.983745
0.512104 0.534121 0.166313 0.235061 0.731538 0.639999
0.348482 0.775832 0.201299 -0.009232 0.091722 -0.995742
0.500259 0.447528 0.136103 0.224201 -0.943283 0.244848
0.388637 0.793642 0.219759 0.046435 -0.032415 0.998395
0.488454 0.462595 0.050668 0.194655 -0.720638 -0.665424
0.250737 0.300725 0.204641 0.326852 0.204646 0.922653
0.404554 0.476677 0.190401 -0.180705 -0.156595 -0.970991
0.505838 0.541971 0.158109 0.231506 0.834584 0.499874
0.603809 0.467858 0.072571 -0.020411 0.813276 -0.581519
0.339312 0.209654 0.219185 0.148872 0.029831 -0.988406
0.262413 0.356689 0.211438 0.415882 -0.039660 -0.908554
0.784581 0.471073 0.130193 -0.183553 0.688469 0.701654
0.424368 0.593926 0.201052 0.413690 -0.150138 0.897953
0.363369 0.780474 0.201270 0.026301 0.080588 -0.996400
0.428841 0.450559 0.192975 -0.374307 -0.153509 -0.914510
0.279800 0.573641 0.193865 -0.631634 -0.149370 0.760741
0.448297 0.283281 0.214803 -0.700097 -0.129880 -0.702137
0.438052 0.125594 0.202400 -0.050811 0.049400 0.997486
0.620901 0.498751 0.132961 0.574827 -0.089425 0.813374
0.345877 0.252030 0.201007 -0.035614 0.089468 0.995353
0.740845 0.489098 0.115393 0.608510 -0.785703 -0.111294
0.332979 0.804868 0.211913 -0.853875 0.383583 0.351797
0.604134 0.468317 0.096471 0.197789 -0.961143 -0.192574
0.407457 0.704309 0.220478 0.431478 -0.111217 0.895242
0.253607 0.716148 0.210847 -0.846215 0.340816 -0.409591
0.328975 0.231536 0.221341 0.069285 -0.011743 -0.997528
0.656124 0.498719 0.078825 0.344968 -0.133694 -0.929044
0.340432 0.503951 0.211635 -0.010697 0.056795 0.998329
0.491561 0.542191 0.164131 0.241800 0.798586 0.551174
0.349404 0.420875 0.177067 -0.018811 0.156859 0.987442
0.367063 0.380288 0.185681 -0.073001 0.140292 0.987415
0.373194 0.709837 0.225184 0.110422 -0.073949 0.991130
0.664701 0.523757 0.122453 0.200441 0.977410 0.067030
0.358778 0.604900 0.207726 0.063134 -0.124584 0.990198
0.802796 0.497696 0.133535 -0.002171 -0.999775 -0.021089
0.324709 0.692402 0.199972 0.061356 0.104306 -0.992651
0.334384 0.431261 0.085357 -0.204245 -0.904133 -0.375269
0.439605 0.625981 0.194547 0.585446 0.128510 -0.800461
0.303243 0.433120 0.113985 -0.398203 -0.900198 -0.176289
0.440446 0.498251 0.203933 0.216401 -0.036137 0.975636
0.388044 0.166461 0.217015 0.017422 0.000997 -0.999848
0.406921 0.148719 0.215877 0.006094 0.005957 -0.999964
0.137321 0.520874 0.217578 -0.428932 0.654059 0.623077
0.411967 0.424522 0.199676 -0.272981 -0.141610 -0.951540
0.269852 0.407579 0.194971 0.854206 -0.081908 -0.513442
0.438091 0.471122 0.170873 -0.196576 0.198563 0.960172
0.742727 0.531540 0.128682 0.005897 0.951997 -0.306051
0.399274 0.575065 0.101108 0.072450 0.986169 -0.149071
0.711937 0.517812 0.138199 0.201770 -0.603660 -0.771287
0.831823 0.430216 0.133367 -0.245566 0.241912 0.938709
0.383156 0.567725 0.073508 -0.026629 0.904046 -0.426605
0.494184 0.457812 0.058725 0.210068 -0.803021 -0.557699
0.601828 0.481359 0.133327 0.044869 0.998964 0.007569
0.283492 0.557767 0.138341 -0.428575 0.903307 -0.018966
0.326836 0.263861 0.200741 -0.006155 0.098951 0.995073
0.593091 0.523650 0.076243 -0.021795 0.878301 0.477611
0.761568 0.499948 0.132118 0.803832 -0.566603 0.181149
0.457491 0.596897 0.196964 0.856329 -0.077649 0.510560
0.298510 0.650998 0.217472 -0.020797 -0.081820 0.996430
0.456866 0.068687 0.209913 0.057127 0.056986 -0.996739
0.598804 0.532776 0.064690 0.325569 0.236910 0.915357
0.241741 0.299848 0.209410 0.748144 0.315510 0.583725
0.394917 0.392233 0.207451 -0.189455 -0.119967 -0.974533
0.587991 0.528022 0.146718 0.189906 0.844674 0.500462
0.381696 0.637031 0.189466 0.122828 0.125859 -0.984415
0.397361 0.557624 0.197500 0.168767 -0.141228 0.975486
0.482447 0.972155 0.205098 -0.639895 0.482009 -0.598499
0.599925 0.468358 0.131017 0.179857 -0.947669 0.263770
0.204736 0.460792 0.226588 -0.031877 -0.924461 0.379941
0.372259 0.192202 0.201601 0.009456 0.084145 0.996409
0.424558 0.129580 0.202193 -0.027765 0.053103 0.998203
0.221647 0.540235 0.158547 -0.203126 0.917728 -0.341342
0.467859 0.817866 0.211930 0.486728 -0.092019 0.868693
0.477445 0.536366 0.177999 0.250460 0.688743 0.680370
0.464882 0.520854 0.183191 0.992673 0.120833 0.000165
0.688364 0.481632 0.102091 0.291701 -0.896607 -0.333176
0.381516 0.434468 0.170801 0.040119 -0.878183 0.476640
0.266626 0.407203 0.192757 0.978674 0.000498 -0.205420
0.675654 0.522253 0.108911 0.240392 0.942951 -0.230338
0.740124 0.494375 0.110359 0.638012 -0.637697 -0.431604
0.419955 0.135874 0.214915 -0.012887 0.001417 -0.999916
0.476951 0.101122 0.204342 -0.420808 -0.059182 0.905217
0.412575 0.428283 0.084800 0.111078 -0.956885 -0.268388
0.447013 0.713976 0.211376 0.920474 -0.138846 0.365307
0.271389 0.690532 0.200078 -0.080147 0.128511 -0.988464
0.405866 0.692675 0.205991 0.783263 -0.000834 -0.621690
0.427635 0.882575 0.213578 -0.010200 0.018239 0.999782
0.245822 0.295606 0.209101 0.728723 0.315359 0.607875
0.608355 0.474491 0.142766 0.175816 -0.860296 0.478518
0.367060 0.340988 0.193759 -0.115449 0.115447 0.986582
0.480532 0.865267 0.210097 0.404601 -0.074784 0.911430
0.390186 0.522783 0.166113 0.041755 0.184196 -0.982002
0.478933 0.558130 0.095789 0.209908 0.967054 -0.144031
0.668148 0.517266 0.140733 0.175826 0.846067 0.503246
0.817564 0.432033 0.132524 -0.216070 0.520682 0.825957
0.423543 0.237115 0.218155 -0.330658 -0.088926 -0.939552
0.309981 0.439685 0.162300 -0.076152 -0.903380 0.422025
0.412994 0.574926 0.128777 0.146157 0.984425 0.097701
0.414052 0.830634 0.217079 0.048377 -0.021143 0.998605
0.317966 0.435965 0.199129 0.035419 -0.143889 -0.988960
0.426911 0.695733 0.209645 0.987642 -0.105925 0.115509
0.459460 0.336224 0.206429 -0.946005 -0.079960 -0.314137
0.711601 0.509365 0.142175 0.188708 0.742884 0.642271
0.151336 0.466114 0.188241 -0.248557 -0.958604 -0.138914
0.431622 0.803872 0.203810 0.375649 0.000265 -0.926762
0.223267 0.539147 0.222781 0.108939 0.918464 0.380205
0.580294 0.487442 0.058220 0.262354 -0.401341 -0.877551
0.861403 0.566237 0.134352 0.081929 -0.705952 0.703505
0.652354 0.518630 0.141912 0.174826 0.841770 0.510744
0.268437 0.517782 0.226354 0.460885 0.436006 0.772971
0.440307 0.705442 0.210964 0.938130 -0.130413 0.320787
0.478883 0.608460 0.195752 0.980987 0.061635 -0.184024
0.346681 0.802219 0.202917 -0.156805 0.144610 -0.976985
0.850052 0.561346 0.134708 0.069508 -0.734354 0.675198
0.393221 0.699505 0.204803 0.521163 0.040249 -0.852508
0.122746 0.524290 0.180541 -0.259101 0.912087 -0.317748
0.447186 0.441518 0.157626 0.218286 -0.890735 0.398675
0.393220 0.292054 0.204292 -0.447629 0.045883 0.893041
0.554089 0.458315 0.131155 0.201095 -0.948590 0.244412
0.283096 0.700246 0.226420 -0.031896 -0.046570 0.998406
0.396548 0.562160 0.174305 0.073519 0.169546 -0.982776
0.307434 0.739564 0.201350 -0.055683 0.112736 -0.992064
0.426877 0.611224 0.189218 0.302146 0.156500 -0.940327
0.495059 0.886842 0.207577 0.604208 -0.102353 0.790226
0.459048 0.385822 0.194387 -0.794136 0.114968 0.596767
0.480369 0.399069 0.194473 -0.972738 0.074642 0.219565
0.356575 0.321347 0.197635 -0.114342 0.105497 0.987824
0.596595 0.528092 0.069219 0.066154 0.772518 0.631538
0.460862 0.797892 0.208220 0.930831 -0.138230 -0.338299
0.811549 0.437125 0.132122 -0.208978 0.564068 0.798846
0.859078 0.422948 0.135225 -0.083284 -0.581848 -0.809022
0.203389 0.540356 0.168557 -0.181481 0.927817 -0.325913
0.397875 0.695090 0.221682 0.381103 -0.108524 0.918141
0.591930 0.490627 0.061269 0.274197 -0.315958 -0.908288
0.532393 0.452052 0.098772 0.211814 -0.973085 -0.090776
0.658644 0.470538 0.128698 0.062296 0.998058 0.000020
0.746367 0.519724 0.137941 0.020574 -0.979608 0.199860
0.368623 0.446333 0.187402 0.008587 -0.751498 0.659680
0.376260 0.527078 0.208566 0.024636 0.398029 0.917042
0.462200 0.517351 0.032660 0.123620 0.316762 -0.940415
0.296065 0.430055 0.198002 0.180476 -0.150033 -0.972069
0.291937 0.302514 0.200517 0.005368 0.109789 0.993940
0.379871 0.234551 0.201526 -0.083034 0.079029 0.993408
0.413169 0.526927 0.167318 0.070759 0.187668 -0.979681
0.390949 0.711327 0.203773 0.381440 0.053763 -0.922829
0.437047 0.437180 0.074032 0.154268 -0.917252 -0.367220
0.365358 0.383189 0.185059 -0.066225 0.142502 0.987576
0.586482 0.528304 0.078530 -0.022742 -0.810284 -0.585597
0.369397 0.526108 0.208703 0.008349 0.384578 0.923055
0.364972 0.518208 0.033382 -0.198971 0.247611 -0.948209
0.419136 0.563716 0.065466 0.114810 0.877990 -0.464706
0.381256 0.541680 0.199367 0.042149 0.597657 0.800643
0.651784 0.502091 0.138972 0.686639 -0.130676 -0.715158
0.402638 0.692822 0.205580 0.716268 0.013288 -0.697699
0.293196 0.589832 0.202798 -0.157173 -0.135878 0.978179
0.328577 0.233878 0.201552 0.052993 0.107369 0.992806
0.819782 0.464589 0.132295 -0.198728 -0.619210 0.759662
0.372429 0.363498 0.213956 -0.114127 -0.107482 -0.987635
0.183109 0.540546 0.213055 -0.168300 0.969526 0.178027
0.051833 0.502404 0.143175 0.053499 0.193108 -0.979718
0.477393 0.416579 0.189495 -0.755522 0.155166 0.636483
0.386588 0.384503 0.185115 -0.110008 0.138341 0.984256
0.439550 0.557637 0.062823 0.140015 0.863019 -0.485380
0.283602 0.698261 0.226608 -0.028156 -0.047860 0.998457
0.750963 0.525951 0.128234 0.068218 0.958603 -0.276453
0.478783 0.510163 0.033486 0.153674 0.200224 -0.967623
0.109043 0.517967 0.176580 -0.238131 0.813530 -0.530530
0.292160 0.310236 0.225690 0.011836 -0.055508 -0.998388
0.755786 0.512864 0.136945 0.012928 -0.991999 0.125580
0.564019 0.524235 0.160356 0.209879 0.694434 0.688267
0.285686 0.616179 0.186384 -0.161362 0.151175 -0.975248
0.349058 0.532054 0.169780 0.448178 0.469532 0.760708
0.386364 0.436096 0.174507 -0.055072 0.170129 0.983882
0.720373 0.490224 0.138294 -0.032559 -0.991690 0.124463
0.286681 0.591478 0.202036 -0.220585 -0.131300 0.966490
0.601533 0.470931 0.077125 -0.045116 0.779781 -0.624425
0.318461 0.525575 0.050006 -0.435692 0.336758 -0.834726
0.464027 0.758899 0.211016 0.949698 -0.162554 0.267675
0.493357 0.490769 0.187996 0.256084 -0.223134 0.940549
0.454037 0.831435 0.213821 0.314833 -0.073189 0.946321
0.493402 0.550390 0.146465 0.231125 0.910190 0.343707
0.756943 0.460089 0.137501 -0.226489 -0.446229 0.865784
0.276410 0.260488 0.208906 0.741384 0.344431 0.575948
0.772324 0.422084 0.133394 0.174207 0.984623 0.013025
0.503121 0.531253 0.047740 0.192428 0.647906 -0.737014
0.430044 0.901884 0.211687 -0.153463 0.099962 0.983085
0.395792 0.575546 0.103741 0.060493 0.989591 -0.130573
0.184526 0.495435 0.144193 -0.378757 -0.105753 -0.919434
0.485707 0.448593 0.073908 0.210387 -0.910587 -0.355766
0.331704 0.426899 0.201429 -0.002316 -0.135238 -0.990811
0.335935 0.339260 0.193636 -0.051035 0.121647 0.991261
0.419937 0.520879 0.028686 0.036054 0.300113 -0.953222
0.731300 0.542313 0.129533 0.008085 0.907662 -0.419625
0.256417 0.536719 0.119286 -0.520288 0.743311 -0.420463
0.667140 0.463231 0.136669 0.077795 0.996969 0.000025
0.598847 0.467142 0.127733 0.179708 -0.958518 0.221243
0.436253 0.781538 0.205801 0.639106 -0.043264 -0.767901
0.783972 0.496071 0.134729 -0.003741 -0.999333 -0.036338
0.410719 0.434592 0.164016 0.154643 -0.889066 0.430868
0.714955 0.455660 0.129727 0.020242 0.926902 0.374758
0.337996 0.212491 0.202236 0.131118 0.138826 0.981598
0.425185 0.458801 0.192037 0.196544 -0.625042 0.755442
0.463820 0.063364 0.202920 0.018538 0.054737 0.998329
0.351208 0.578389 0.202441 0.039480 -0.135671 0.989967
0.323842 0.532155 0.192287 -0.058547 -0.171969 0.983361
0.535335 0.453120 0.094690 0.211473 -0.968442 -0.131907
0.733840 0.508188 0.108429 0.659746 0.146164 -0.737137
0.519941 0.509464 0.179772 0.251528 0.238728 0.937946
0.474939 0.959489 0.203666 -0.173929 0.149635 -0.973323
0.489458 0.862865 0.208251 0.719650 -0.123823 0.683206
0.445903 0.282191 0.215133 -0.681104 -0.128447 -0.720832
0.336929 0.278451 0.200874 -0.054423 0.095479 0.993943
0.500831 0.969728 0.203365 0.320443 -0.061878 -0.945245
0.453164 0.692299 0.212450 0.837363 -0.132891 0.530249
0.628217 0.498504 0.136424 0.913204 0.236039 0.332180
0.111664 0.501511 0.166604 -0.232365 0.068517 -0.970212
0.536534 0.512590 0.044214 0.237964 0.301374 -0.923335
0.066281 0.502250 0.206067 -0.303037 0.193380 0.933152
0.275786 0.480511 0.220137 0.403250 -0.477958 0.780350
0.402307 0.429292 0.081715 0.066321 -0.947073 -0.314092
0.249412 0.692315 0.222161 -0.371306 0.020390 0.928287
0.312802 0.518066 0.051674 -0.484661 0.240981 -0.840852
0.283725 0.673442 0.196328 -0.036405 0.121906 -0.991874
0.506899 0.504162 0.115261 -0.082485 -0.720977 -0.688032
0.276763 0.647852 0.192513 -0.146603 0.145942 -0.978370
0.290346 0.527633 0.072140 -0.599393 0.383802 -0.702442
0.301534 0.445418 0.194898 0.174658 -0.167301 -0.970312
0.547473 0.502299 0.174620 0.237990 0.072911 0.968527
0.855264 0.412347 0.136083 -0.111970 -0.501106 -0.858112
0.597066 0.466648 0.126600 0.181564 -0.962191 0.203032
0.256673 0.544884 0.179045 -0.070104 0.992323 0.101890
0.453821 0.582183 0.195005 0.800131 -0.086175 0.593603
0.471162 0.520390 0.173401 0.353010 0.216348 -0.910262
0.254831 0.519316 0.233403 0.429471 0.526043 0.734053
0.268069 0.548688 0.165025 -0.296264 0.948883 0.108849
0.408864 0.686651 0.204951 0.762326 0.014764 -0.647025
0.735080 0.543919 0.137567 0.155044 0.790378 -0.592675
0.259439 0.486056 0.234461 0.481942 -0.367816 0.795263
0.287629 0.524662 0.073029 -0.612347 0.346115 -0.710799
0.263936 0.690832 0.200963 -0.131838 0.140013 -0.981333
0.222753 0.494686 0.254358 0.221011 -0.158286 0.962341
0.028854 0.503865 0.174513 -0.314544 0.945429 0.085002
0.537539 0.518581 0.093098 0.104083 -0.930543 -0.351078
0.829919 0.464770 0.134145 -0.039181 -0.923907 -0.380607
0.239522 0.455569 0.173484 -0.086741 -0.994461 -0.059365
0.294673 0.705442 0.226226 -0.017019 -0.046827 0.998758
0.181025 0.480911 0.248583 -0.280405 -0.549477 0.787051
0.422417 0.348522 0.198328 -0.570857 0.099420 0.815008
0.199339 0.541023 0.173249 -0.170074 0.945028 -0.279278
0.420723 0.574261 0.106215 0.158462 0.983503 -0.087244
0.324598 0.780244 0.218665 -0.224823 0.049235 0.973155
0.313557 0.664071 0.220479 0.014794 -0.075940 0.997003
0.045438 0.497128 0.175976 0.041281 -0.318373 -0.947066
0.452159 0.437322 0.143430 0.218654 -0.940138 0.261403
0.340436 0.354198 0.190635 -0.044465 0.129985 0.990518
0.610038 0.493563 0.126307 0.011124 0.999932 0.003436
0.329343 0.607026 0.208613 0.016129 -0.112161 0.993559
0.264802 0.497354 0.233686 0.523558 -0.079200 0.848301
0.443374 0.567496 0.129484 0.201396 0.971653 0.123813
0.391505 0.360003 0.213327 -0.219965 -0.112032 -0.969053
0.422156 0.623162 0.191450 0.301054 0.149028 -0.941890
0.376512 0.578417 0.121420 0.002088 0.999992 0.003314
0.467370 0.802594 0.208837 0.966049 -0.158018 -0.204401
0.279952 0.488912 0.221395 0.397359 -0.333496 0.854919
0.268087 0.548373 0.168021 -0.264995 0.953993 0.140266
0.468921 0.419926 0.187513 -0.580407 0.175134 0.795271
0.255168 0.471543 0.224848 0.302112 -0.721706 0.622791
0.030404 0.501472 0.151836 0.933784 0.240464 -0.265000
0.311607 0.218598 0.212550 0.886261 0.371817 -0.276211
0.802855 0.477577 0.131176 -0.184644 -0.683896 0.705828
0.396305 0.289081 0.204540 -0.480684 0.038508 0.876048
0.669238 0.516478 0.091499 0.293433 0.715348 -0.634172
0.401726 0.510543 0.209768 0.120178 0.157238 0.980221
0.720570 0.495396 0.126233 -0.011289 0.999005 0.043153
0.425910 0.606546 0.187954 0.287882 0.158299 -0.944492
0.402568 0.433163 0.175359 -0.091399 0.165224 0.982012
0.384671 0.795703 0.219693 0.037777 -0.029722 0.998844
0.743473 0.431947 0.135901 0.143982 0.989580 0.000047
0.268873 0.454770 0.123677 -0.511722 -0.816714 -0.266679
0.441244 0.896919 0.202445 0.025338 0.045308 -0.998652
0.522850 0.491528 0.108775 -0.083688 0.719450 -0.689484
0.315605 0.452584 0.184787 -0.012135 -0.770548 0.637266
0.752586 0.511524 0.126240 0.700045 0.348451 -0.623312
0.300336 0.538953 0.190490 -0.271522 -0.196243 0.942213
0.266022 0.612641 0.201242 -0.710351 -0.081771 0.699081
0.338828 0.731242 0.224388 0.031850 -0.048748 0.998303
0.372772 0.458807 0.169629 -0.029527 0.174361 0.984239
0.312615 0.454140 0.066643 -0.448355 -0.599112 -0.663357
0.259043 0.311027 0.223044 0.184836 -0.025661 -0.982434
0.320524 0.429304 0.144971 -0.136221 -0.964249 0.227303
0.355563 0.222627 0.201176 -0.005080 0.088058 0.996102
0.367115 0.333705 0.220108 -0.106626 -0.093825 -0.989862
0.369614 0.670678 0.220962 0.116070 -0.091146 0.989050
0.417741 0.574546 0.128975 0.164465 0.980957 0.103320
0.326719 0.713602 0.200719 0.044047 0.098996 -0.994112
0.615518 0.475421 0.084425 0.224049 -0.869378 -0.440437
0.219518 0.504865 0.126758 -0.512426 0.109389 -0.851735
0.475530 0.044318 0.203173 0.042897 0.063776 0.997042
0.223109 0.455017 0.179756 -0.115481 -0.990058 -0.080312
0.248349 0.518207 0.110376 -0.618407 0.338777 -0.709086
0.308705 0.458489 0.188147 0.031329 -0.736912 0.675263
0.521569 0.524572 0.046706 0.217386 0.556022 -0.802236
0.411081 0.260385 0.204851 -0.516852 0.011966 0.855991
0.365984 0.190660 0.218653 0.025811 -0.006804 -0.999644
0.601168 0.479016 0.083219 -0.333698 -0.858534 -0.389313
0.402460 0.680561 0.202593 0.544070 0.062946 -0.836675
0.775176 0.469165 0.137013 -0.033790 -0.943991 -0.328236
0.321675 0.784383 0.217226 -0.396617 0.092817 0.913280
0.480440 0.468352 0.043594 0.182670 -0.598174 -0.780269
0.508295 0.941534 0.206103 0.340471 -0.054027 0.938702
0.442598 0.854518 0.202474 0.197019 0.019044 -0.980215
0.271123 0.636328 0.191924 -0.258314 0.172157 -0.950598
0.792174 0.533356 0.130680 0.212524 0.542992 -0.812399
0.591030 0.527354 0.146590 0.188597 0.842431 0.504719
0.336210 0.538525 0.199176 -0.090159 0.551844 0.829060
0.720829 0.508693 0.126583 0.001490 0.997004 -0.077336
0.386215 0.510855 0.211850 0.062809 0.162734 0.984669
0.364002 0.394092 0.182797 -0.051525 0.149621 0.987400
0.523475 0.549306 0.093881 0.205936 0.967481 -0.146870
0.249156 0.467628 0.222622 0.220573 -0.807221 0.547487
0.418311 0.428721 0.084056 0.132746 -0.953938 -0.269035
0.427263 0.273835 0.217700 -0.511247 -0.113654 -0.851886
0.181402 0.516422 0.250667 -0.266052 0.460722 0.846730
0.316946 0.357719 0.189550 -0.008432 0.129088 0.991597
0.620700 0.522729 0.129872 -0.045694 0.991597 -0.121029
0.494940 0.899661 0.208046 0.388788 -0.066349 0.918935
0.372365 0.532094 0.169274 -0.209520 -0.977302 0.031346
0.262876 0.522715 0.225712 0.414787 0.583896 0.697866
0.474063 0.462248 0.047175 0.176954 -0.694383 -0.697509
0.594858 0.465945 0.124325 0.184423 -0.968572 0.166901
0.731315 0.503910 0.133363 0.823391 -0.565437 -0.048043
0.823561 0.487643 0.133001 -0.012382 -0.992663 -0.120281
0.299500 0.372155 0.187129 0.035347 0.135973 0.990082
0.475121 0.503331 0.120566 0.012165 -0.840537 0.541618
0.865063 0.423248 0.134701 -0.152638 -0.699402 -0.698240
0.827473 0.558809 0.132996 0.252527 0.066315 -0.965315
0.652328 0.485731 0.138495 -0.002509 0.991484 0.130202
0.484592 0.930904 0.209428 0.105247 -0.006015 0.994428
0.451902 0.184238 0.214142 -0.360043 -0.080780 -0.929432
0.310967 0.342700 0.192565 -0.007592 0.123135 0.992361
0.317507 0.574262 0.201352 -0.026202 -0.135598 0.990417
0.401786 0.673545 0.217529 0.373175 -0.116061 0.920473
0.467953 0.483785 0.033014 0.143091 -0.297493 -0.943940
0.360270 0.457095 0.169789 -0.015777 0.170949 0.985154
0.653581 0.520713 0.092560 0.258096 0.821898 -0.507808
0.385211 0.165013 0.202027 0.023594 0.079684 0.996541
0.360320 0.353004 0.191186 -0.088154 0.124674 0.988274
0.470518 0.137535 0.205653 -0.587205 -0.083329 0.805138
0.290955 0.578253 0.199284 -0.219133 -0.145588 0.964772
0.219984 0.493208 0.254981 0.196747 -0.202832 0.959244
0.545911 0.543968 0.128805 0.201014 0.959485 0.197439
0.805633 0.568445 0.132233 0.064052 0.709492 -0.701796
0.869795 0.604204 0.135624 0.471954 0.127385 -0.872372
0.439370 0.752536 0.215981 0.507746 -0.107681 0.854751
0.607572 0.529494 0.092637 0.197217 0.937033 -0.288226
0.216955 0.501459 0.257245 0.180164 0.037081 0.982937
0.817200 0.415664 0.136277 -0.188239 0.466410 0.864308
0.461296 0.440719 0.181433 -0.377788 0.193854 0.905371
0.383163 0.750585 0.222509 0.083389 -0.054746 0.995012
0.350832 0.424799 0.105087 -0.095301 -0.983846 -0.151542
0.649845 0.485281 0.083184 0.297534 -0.672500 -0.677656
0.460780 0.265837 0.213046 -0.725631 -0.127800 -0.676111
0.458771 0.242192 0.210354 -0.974165 -0.156265 -0.163045
0.428256 0.394806 0.202403 -0.467690 -0.151079 -0.870885
0.406318 0.433234 0.198998 -0.209555 -0.136956 -0.968158
0.336302 0.520696 0.165543 -0.038127 0.171049 -0.984524
0.387343 0.177824 0.201636 -0.015614 0.070012 0.997424
0.758592 0.437826 0.136979 -0.011879 0.787243 0.616529
0.675767 0.499594 0.129093 0.608079 -0.448335 0.655161
0.469960 0.440882 0.088534 0.214142 -0.956598 -0.197644
0.396599 0.605630 0.206860 0.199539 -0.121972 0.972269
0.403453 0.488100 0.027976 -0.036040 -0.158138 -0.986759
0.282228 0.379242 0.187671 0.175934 0.150947 0.972760
0.257618 0.457750 0.194535 0.019047 -0.961885 0.272789
0.567543 0.537102 0.085087 0.201609 0.932071 -0.300993
0.293927 0.494805 0.213934 0.287709 -0.181822 0.940300
0.456956 0.081532 0.210982 -0.004324 0.024809 -0.999683
0.353827 0.523999 0.036621 -0.244263 0.317736 -0.916176
0.690032 0.485196 0.138395 -0.117529 0.885630 0.449273
0.475365 0.897660 0.204196 0.405492 -0.054541 -0.912470
0.557791 0.534937 0.147569 0.202019 0.871409 0.447028
0.824499 0.452302 0.135281 -0.054364 -0.847448 -0.528087
0.336662 0.458706 0.197528 -0.057209 -0.615210 0.786285
0.617867 0.500381 0.148315 0.069250 0.489427 -0.869291
0.388937 0.567604 0.073538 -0.002518 0.907273 -0.420534
0.450360 0.891391 0.202586 0.052687 0.044027 -0.997640
0.440698 0.729002 0.215835 0.606483 -0.120787 0.785869
0.368446 0.545861 0.045689 -0.146774 0.623170 -0.768191
0.467029 0.435545 0.190204 -0.993449 0.039250 -0.107327
0.268031 0.728184 0.217610 -0.755008 0.215719 0.619215
0.409459 0.315557 0.204500 -0.744117 0.022446 0.667673
0.639799 0.472612 0.129521 0.066026 0.997756 0.011138
0.463271 0.471800 0.038134 0.146368 -0.500767 -0.853117
0.461662 0.331972 0.208313 -0.874562 -0.106753 -0.473017
0.285322 0.603041 0.204882 -0.185248 -0.114673 0.975978
0.225872 0.481668 0.248115 0.209684 -0.513372 0.832155
0.490000 0.038560 0.203182 -0.100667 0.005387 0.994906
0.265881 0.305548 0.201116 0.108143 0.134291 0.985023
0.451748 0.255939 0.214281 -0.634745 -0.119695 -0.763395
0.324106 0.431625 0.155626 -0.099930 -0.938302 0.331065
0.391269 0.757928 0.201703 0.118015 0.077397 -0.989991
0.452150 0.870557 0.202620 0.260896 -0.005896 -0.965349
0.417838 0.685593 0.217326 0.532598 -0.126059 0.836928
0.627671 0.512645 0.074950 0.280164 0.485646 -0.828044
0.321732 0.465147 0.168774 0.098300 0.156852 0.982718
0.565728 0.459709 0.096501 0.205278 -0.967368 -0.148527
0.460837 0.534835 0.042327 0.139220 0.618699 -0.773194
0.649522 0.474399 0.121220 0.196808 -0.971782 0.130022
0.365842 0.174059 0.216345 0.168015 0.057051 -0.984132
0.813598 0.558437 0.132191 0.224987 0.457937 -0.860043
0.665580 0.477607 0.103125 0.251158 -0.941645 -0.224109
0.331677 0.577697 0.202420 0.004965 -0.131818 0.991261
0.332687 0.538481 0.048670 -0.314498 0.518158 -0.795363
0.423300 0.643442 0.209502 0.498632 -0.139403 0.855531
0.369788 0.732392 0.201377 0.108876 0.086189 -0.990312
0.415188 0.231442 0.219303 -0.235582 -0.078020 -0.968718
0.467693 0.557156 0.080249 0.199000 0.934769 -0.294289
0.461619 0.475112 0.184319 -0.977286 0.073314 -0.198838
0.397271 0.675644 0.200686 0.393975 0.088761 -0.914825
0.093725 0.518558 0.195015 -0.231639 0.960847 0.152042
0.632491 0.500000 0.146840 0.082444 0.577793 -0.812009
0.383759 0.234551 0.221579 -0.068545 -0.046554 -0.996561
0.286799 0.706566 0.225945 -0.033645 -0.043961 0.998467
0.369422 0.454309 0.045359 -0.140204 -0.615602 -0.775485
0.286321 0.455819 0.091788 -0.554897 -0.662365 -0.503351
0.269046 0.456051 0.190309 -0.078471 -0.932181 0.353385
0.628109 0.474624 0.133509 0.171481 -0.921018 0.349742
0.718814 0.487895 0.138261 -0.050278 -0.980068 0.192197
0.711852 0.503720 0.095518 0.441723 0.033306 -0.896533
0.393251 0.709394 0.204209 0.436359 0.046650 -0.898562
0.398105 0.422842 0.120177 0.085515 -0.996213 0.015725
0.167298 0.536068 0.215893 -0.242866 0.929871 0.276327
0.493296 0.879398 0.208307 0.455484 -0.076518 0.886949
0.741694 0.478753 0.127792 -0.007787 0.979538 0.201109
0.349937 0.737877 0.201071 0.058750 0.090058 -0.994202
0.827727 0.404980 0.135904 -0.016341 0.529510 0.848146
0.404760 0.426306 0.142756 0.123390 -0.967172 0.222155
0.508760 0.499674 0.117562 -0.264779 0.954566 -0.136729
0.783522 0.440015 0.131383 -0.011490 0.802614 0.596388
0.677066 0.497768 0.131025 0.645938 -0.223926 0.729809
0.382376 0.343082 0.217428 -0.174392 -0.100496 -0.979535
0.609667 0.500839 0.133322 0.585785 -0.251180 0.770561
0.494570 0.556299 0.107347 0.213004 0.976272 -0.039019
0.532372 0.509416 0.099564 -0.014417 0.870261 0.492381
0.285308 0.253631 0.206707 0.573545 0.313894 0.756648
0.659494 0.481628 0.091284 0.283832 -0.815490 -0.504396
0.454383 0.616757 0.194364 0.743303 0.120204 -0.658066
0.432590 0.399543 0.201009 -0.494482 -0.155237 -0.855213
0.457233 0.186137 0.213407 -0.413423 -0.086212 -0.906449
0.495360 0.940427 0.207922 0.214494 -0.035740 0.976071
0.397116 0.666436 0.216983 0.318576 -0.113159 0.941119
0.372935 0.782935 0.201416 0.043164 0.078047 -0.996015
0.461893 0.887013 0.202974 0.290182 -0.020042 -0.956761
0.185367 0.522365 0.151188 -0.322701 0.583436 -0.745296
0.414957 0.676260 0.203284 0.745808 0.035995 -0.665188
0.332531 0.572748 0.151789 -0.120634 0.945951 0.301037
0.635780 0.501644 0.137331 0.984303 -0.128318 -0.121171
0.142617 0.524340 0.169728 -0.257597 0.771297 -0.582018
0.586084 0.531476 0.073353 0.075259 -0.910087 -0.407527
0.647368 0.493505 0.077483 0.326503 -0.330830 -0.885408
0.529459 0.490496 0.099422 0.001060 -0.853206 0.521573
0.272534 0.536770 0.204339 0.197890 0.796064 0.571946
0.493029 0.453664 0.157442 0.232703 -0.855806 0.462003
0.353034 0.545451 0.195702 0.028360 -0.153643 0.987719
0.398614 0.562034 0.174311 0.077781 0.169150 -0.982516
0.457269 0.324677 0.210144 -0.818759 -0.127560 -0.559788
0.441661 0.324852 0.212276 -0.690120 -0.141461 -0.709734
0.439485 0.135670 0.202424 -0.068319 0.050557 0.996382
0.446157 0.905138 0.211973 -0.003332 0.024030 0.999706
0.263554 0.624552 0.204781 -0.640378 -0.061396 0.765602
0.387616 0.574338 0.147466 0.060009 0.967281 0.246508
0.147177 0.467258 0.201804 -0.283640 -0.948254 0.142700
0.432547 0.873120 0.202316 0.040919 0.050864 -0.997867
0.855473 0.408421 0.134971 -0.249737 0.162089 0.954651
0.409182 0.211239 0.219745 -0.085069 -0.043042 -0.995445
0.218921 0.531015 0.142771 -0.344584 0.731800 -0.587988
0.464968 0.561356 0.098062 0.209591 0.968667 -0.133252
0.296567 0.365755 0.188438 0.037266 0.133888 0.990295
0.374590 0.699173 0.202243 0.224978 0.082135 -0.970896
0.128452 0.528126 0.191839 -0.290569 0.956449 0.027839
0.584128 0.483548 0.062244 0.264816 -0.501613 -0.823563
0.335500 0.204671 0.203911 0.250270 0.187254 0.949895
0.118512 0.500044 0.164543 -0.251960 0.012058 -0.967663
0.613003 0.500899 0.145076 0.258655 0.188139 -0.947471
0.429136 0.413521 0.199144 -0.439668 -0.155416 -0.884612
0.456981 0.564351 0.106244 0.204791 0.976365 -0.069086
0.416821 0.565565 0.162195 0.172935 0.894515 0.412234
0.474569 0.494492 0.124145 -0.029013 0.885571 0.463597
0.244245 0.501681 0.110285 -0.615960 0.005744 -0.787757
0.429413 0.125721 0.202267 -0.032579 0.051412 0.998146
0.496790 0.463353 0.180878 -0.577641 0.210554 0.788668
0.447291 0.411575 0.186536 -0.362775 0.174906 0.915315
0.642798 0.503578 0.125644 0.000598 0.999518 -0.031050
0.292834 0.585111 0.180669 -0.190044 0.148525 -0.970476
0.169985 0.469025 0.229838 -0.295682 -0.821815 0.487025
0.339924 0.426207 0.201679 -0.019148 -0.133735 -0.990832
0.485994 0.866851 0.207531 0.914534 -0.166319 -0.368735
0.396990 0.534225 0.035977 -0.042109 0.484004 -0.874052
0.657297 0.524208 0.126047 0.193794 0.972272 0.130887
0.388876 0.565229 0.199180 0.144030 -0.139348 0.979713
0.481846 0.559024 0.115643 0.220399 0.975043 0.026745
0.741373 0.521368 0.127801 0.003866 0.979652 -0.200666
0.328815 0.459840 0.197449 -0.054841 -0.617210 0.784885
0.394358 0.554652 0.184132 0.092486 0.767155 0.634760
0.428578 0.407339 0.200257 -0.446707 -0.153796 -0.881362
0.573263 0.508791 0.132222 -0.017362 0.998791 -0.045988
0.599836 0.481954 0.155480 0.190809 -0.651842 0.733957
0.129315 0.513684 0.217109 -0.454345 0.455913 0.765319
0.341223 0.426119 0.146278 -0.089501 -0.968665 0.231683
0.222730 0.545642 0.186972 -0.046005 0.998586 -0.026646
0.457339 0.087392 0.211339 -0.029995 0.009701 -0.999503
0.460914 0.365193 0.202847 -0.883361 -0.089140 -0.460139
0.454705 0.437523 0.085390 0.191495 -0.953156 -0.234145
0.833828 0.555075 0.133321 0.243161 -0.277268 -0.929513
0.332736 0.697801 0.200814 0.079528 0.099956 -0.991809
0.174195 0.464897 0.223376 -0.257869 -0.894059 0.366281
0.612765 0.512934 0.137521 -0.022372 0.999726 -0.006911
0.252223 0.462565 0.126100 -0.437210 -0.806073 -0.398866
0.446739 0.356389 0.199795 -0.913334 0.046831 0.404510
0.366946 0.641452 0.190148 0.096268 0.126612 -0.987270
0.491219 0.559238 0.185980 0.759776 0.177150 -0.625587
0.393552 0.555940 0.197216 0.156037 -0.142928 0.977356
0.266708 0.513245 0.088994 -0.693568 0.205635 -0.690418
0.434782 0.412322 0.184623 -0.296918 0.170692 0.939523
0.566287 0.473980 0.157175 0.207113 -0.738043 0.642181
0.481076 0.525370 0.185030 0.256751 0.509580 0.821223
0.196741 0.466858 0.157312 -0.297637 -0.796760 -0.525913
0.646922 0.479717 0.140693 0.176776 -0.816560 0.549528
0.407179 0.332735 0.200033 -0.474479 0.090280 0.875625
0.558631 0.534586 0.072181 0.213016 0.854557 -0.473664
0.342474 0.252004 0.200954 -0.028324 0.090229 0.995518
0.380649 0.360930 0.214352 -0.141367 -0.104484 -0.984428
0.263418 0.525025 0.098001 -0.673994 0.400835 -0.620534
0.425647 0.573287 0.123656 0.175321 0.982583 0.061594
0.382111 0.560596 0.179162 0.046705 0.825001 0.563198
0.346218 0.494456 0.035143 -0.288056 -0.058241 -0.955841
0.348904 0.730330 0.201056 0.067369 0.091415 -0.993531
0.544311 0.456829 0.085174 0.215247 -0.943155 -0.253233
0.355471 0.218828 0.220910 0.006546 -0.020144 -0.999776
0.502287 0.466446 0.049273 0.203476 -0.689323 -0.695292
0.741198 0.531505 0.137758 0.210525 -0.555017 -0.804758
0.592795 0.470348 0.068151 0.174883 -0.596306 0.783476
0.262752 0.382398 0.201061 0.823992 -0.030258 -0.565793
0.455149 0.081429 0.202655 -0.023930 0.038879 0.998957
0.600802 0.524521 0.077485 0.223459 0.804727 -0.549982
0.401855 0.520927 0.207755 0.119115 0.318710 0.940338
0.281953 0.442207 0.188322 0.776359 -0.174895 -0.605539
0.430172 0.432020 0.147485 0.195028 -0.939159 0.282743
0.206868 0.506737 0.134120 -0.455063 0.164062 -0.875215
0.350302 0.362413 0.214517 -0.063311 -0.104078 -0.992552
0.424424 0.749103 0.218056 0.394850 -0.098110 0.913492
0.381425 0.671708 0.197541 0.183619 0.109389 -0.976892
0.384556 0.145372 0.213563 0.292726 0.116717 -0.949046
0.160185 0.471627 0.227587 -0.360149 -0.781898 0.508850
0.748597 0.550735 0.137354 0.170543 0.738860 -0.651921
0.329186 0.379711 0.211317 -0.021540 -0.105111 -0.994227
0.157068 0.532614 0.177573 -0.234297 0.911485 -0.338084
0.429703 0.509088 0.205109 0.201840 0.141497 0.969144
0.761487 0.491100 0.136354 -0.008738 -0.996353 -0.084878
0.304932 0.759742 0.219492 -0.291505 0.050840 0.955217
0.585316 0.487850 0.133565 0.029203 0.999561 0.004926
0.027895 0.497024 0.156057 0.091334 -0.989038 -0.116027
0.600639 0.475920 0.076425 0.241934 -0.785808 -0.569187
0.406487 0.664441 0.199255 0.432016 0.098434 -0.896478
0.360018 0.780704 0.201218 0.018835 0.081305 -0.996511
0.276263 0.545591 0.186409 -0.030054 0.900659 0.433487
0.305769 0.540468 0.171964 -0.210385 0.145199 -0.966776
0.226345 0.454717 0.192304 -0.036117 -0.997652 0.058196
0.336366 0.340967 0.193292 -0.050106 0.122619 0.991188
0.343825 0.565415 0.075761 -0.190948 0.872107 -0.450520
0.233710 0.695291 0.212656 -0.915880 0.326598 -0.233445
0.328987 0.539509 0.050937 -0.334583 0.532173 -0.777718
0.421776 0.184646 0.202161 -0.119224 0.056456 0.991261
0.352406 0.622688 0.186068 0.044968 0.141745 -0.988881
0.302594 0.717375 0.200800 -0.013440 0.106219 -0.994252
0.297114 0.474934 0.200803 0.156081 -0.584551 0.796203
0.758266 0.436678 0.131567 0.028829 0.845166 0.533726
0.677254 0.507206 0.086002 0.366770 0.237081 -0.899596
0.430728 0.782833 0.217128 0.311413 -0.082845 0.946656
0.620358 0.464881 0.067890 -0.033148 0.796349 -0.603928
0.346664 0.428276 0.154891 -0.070469 -0.946477 0.314985
0.436325 0.601084 0.200597 0.525746 -0.157654 0.835904
0.313812 0.501788 0.048420 -0.482687 0.036482 -0.875033
0.472551 0.844211 0.211237 0.421441 -0.080657 0.903262
0.363418 0.660489 0.218982 0.094358 -0.096896 0.990812
0.368102 0.720492 0.224603 0.090900 -0.066030 0.993669
0.377592 0.676462 0.198159 0.172944 0.105542 -0.979261
0.262172 0.482932 0.094779 -0.699584 -0.237270 -0.674006
0.382137 0.572824 0.085824 -0.011845 0.954382 -0.298352
0.489068 0.497383 0.119457 -0.038770 0.895286 0.443802
0.556067 0.514928 0.051249 0.243493 0.391416 -0.887414
0.570966 0.490446 0.167803 0.220384 -0.315454 0.922995
0.375552 0.453784 0.196795 0.027728 -0.653805 0.756154
0.537503 0.546404 0.094884 0.202960 0.968833 -0.142024
0.335987 0.585994 0.178272 0.006225 0.151556 -0.988429
0.313068 0.378713 0.185547 0.012463 0.139827 0.990098
0.419183 0.326177 0.215166 -0.521670 -0.129709 -0.843230
0.307361 0.410523 0.179606 0.063612 0.154361 0.985965
0.534349 0.472387 0.052262 0.234691 -0.652317 -0.720696
0.339156 0.570945 0.156399 -0.099120 0.932873 0.346300
0.336363 0.282199 0.200866 -0.058592 0.096167 0.993639
0.360239 0.178284 0.216229 0.194021 0.064621 -0.978867
0.363752 0.203062 0.201508 0.010202 0.086838 0.996170
0.328179 0.409312 0.179276 0.003938 0.150336 0.988627
0.702068 0.543390 0.129735 -0.075236 0.996895 -0.023242
0.765358 0.465223 0.129148 -0.104769 0.910290 0.400493
0.683057 0.488729 0.138505 -0.092554 0.930730 0.353800
0.539535 0.488757 0.103821 -0.116477 0.659920 -0.742252
0.471007 0.770176 0.211301 0.772549 -0.133861 0.620684
0.529400 0.548673 0.099360 0.205509 0.973963 -0.095714
0.457325 0.351297 0.202491 -0.999705 -0.020756 -0.012588
0.558192 0.498598 0.172456 0.231651 -0.049124 0.971558
0.741211 0.500124 0.127375 0.000581 0.999997 -0.002222
0.466395 0.355549 0.203705 -0.939947 -0.067089 -0.334661
0.813024 0.432418 0.136641 -0.277244 -0.498353 0.821450
0.706760 0.486760 0.139134 0.195447 -0.645382 0.738432
0.388148 0.581262 0.202458 0.146862 -0.131549 0.980371
0.412130 0.657507 0.213407 0.431509 -0.127910 0.892995
0.230563 0.537671 0.223292 0.152332 0.897755 0.413317
0.502672 0.548576 0.145244 0.226541 0.909996 0.347254
0.369783 0.381063 0.210417 -0.099920 -0.116710 -0.988127
0.395465 0.873597 0.206486 -0.666983 0.425384 -0.611704
0.401267 0.537819 0.193405 0.174878 -0.150166 0.973071
0.817234 0.467256 0.134713 -0.036126 -0.935704 -0.350931
0.479324 0.177849 0.209310 -0.942157 -0.166559 -0.290857
0.655066 0.497136 0.153524 0.197302 -0.073040 0.977618
0.302478 0.399063 0.181964 0.070751 0.152837 0.985716
0.376746 0.516110 0.211840 0.029532 0.241588 0.969929
0.460915 0.555389 0.180439 0.368435 0.195683 -0.908825
0.066026 0.510968 0.145012 0.292774 0.600912 -0.743766
0.841540 0.595103 0.135924 0.208639 0.345326 -0.914997
0.557047 0.523357 0.085974 0.047167 -0.886474 -0.460368
0.761781 0.516640 0.128743 0.084197 0.943038 -0.321855
0.354900 0.395198 0.182429 -0.036261 0.149865 0.988041
0.440865 0.103797 0.212607 -0.002563 0.017905 -0.999836
0.352173 0.468331 0.167355 -0.001554 0.172651 0.984982
0.365905 0.400176 0.181576 -0.048994 0.152985 0.987013
0.419202 0.427651 0.198150 -0.328574 -0.149105 -0.932634
0.356736 0.552254 0.197031 0.037292 -0.151504 0.987753
0.251792 0.480974 0.235544 0.381393 -0.508197 0.772189
0.414577 0.193394 0.218558 -0.074848 -0.034986 -0.996581
0.568913 0.459289 0.113938 0.196424 -0.979604 0.042348
0.617738 0.504209 0.138696 0.000706 0.999328 -0.036641
0.340570 0.721685 0.200930 0.061993 0.094622 -0.993581
0.322605 0.564618 0.199389 -0.021683 -0.143086 0.989473
0.082751 0.487610 0.203587 -0.232340 -0.770213 0.593961
0.305920 0.519829 0.186400 -0.279165 -0.218005 0.935169
0.415404 0.278051 0.219349 -0.427968 -0.107069 -0.897429
0.468483 0.417877 0.187947 -0.594654 0.172367 0.785287
0.308667 0.525651 0.188467 -0.200674 -0.200001 0.959025
0.609929 0.529728 0.075761 -0.102308 -0.686651 -0.719752
0.332530 0.441677 0.179987 -0.100500 -0.810904 0.576484
0.295848 0.692418 0.199710 0.002075 0.110436 -0.993881
0.389345 0.405496 0.205138 -0.154958 -0.124710 -0.980018
0.397239 0.873061 0.204834 -0.441679 0.309188 -0.842213
0.172586 0.526618 0.237262 -0.279809 0.727054 0.626976
0.351534 0.606802 0.208226 0.052164 -0.120824 0.991302
0.316089 0.368851 0.213594 -0.003013 -0.096827 -0.995297
0.348417 0.468037 0.203605 -0.004660 -0.487818 0.872933
0.421187 0.569998 0.082282 0.139577 0.946466 -0.291069
0.319806 0.599879 0.206933 -0.007437 -0.119034 0.992862
0.453597 0.155703 0.213861 -0.259454 -0.065138 -0.963556
0.212475 0.461186 0.158114 -0.254499 -0.876414 -0.408814
0.387346 0.444306 0.197261 -0.136025 -0.144409 -0.980124
0.372187 0.393421 0.207862 -0.103669 -0.122343 -0.987059
0.373449 0.355233 0.190929 -0.113667 0.122950 0.985882
0.384779 0.570205 0.079618 -0.010465 0.932323 -0.361477
0.582583 0.499720 0.143477 0.476945 0.160714 -0.864115
0.263451 0.495906 0.234244 0.525006 -0.107547 0.844276
0.367121 0.435179 0.172267 -0.005445 -0.871983 0.489505
0.356595 0.576854 0.116653 -0.074406 0.996156 -0.046234
0.209331 0.528915 0.144737 -0.338684 0.687534 -0.642332
0.466762 0.655741 0.205547 0.936448 -0.074134 0.342883
0.338834 0.424047 0.130804 -0.105406 -0.991652 0.074273
0.454424 0.701822 0.213979 0.777082 -0.137046 0.614298
0.349594 0.257115 0.201065 -0.050833 0.089389 0.994699
0.634912 0.483585 0.079974 0.272966 -0.697798 -0.662244
0.560615 0.528600 0.064691 0.219787 0.763137 -0.607713
0.340041 0.330314 0.195538 -0.069475 0.115086 0.990923
0.369278 0.475292 0.191226 -0.067567 -0.163263 -0.984266
0.427795 0.135304 0.214759 -0.034428 -0.007066 -0.999382
0.307168 0.522097 0.169106 -0.363136 0.123613 -0.923500
0.437198 0.294652 0.210539 -0.957868 -0.125807 -0.258190
0.398150 0.438994 0.175729 0.107477 -0.835947 0.538183
0.612654 0.506194 0.159455 0.198660 0.289963 0.936192
0.552543 0.529666 0.062447 0.219554 0.756411 -0.616148
0.095535 0.518887 0.195288 -0.234101 0.959606 0.156052
0.365745 0.602425 0.207115 0.081525 -0.125658 0.988718
0.863934 0.570536 0.134514 0.078115 -0.646610 0.758810
0.426584 0.483821 0.146487 -0.084418 -0.717363 -0.691566
0.454646 0.368142 0.203220 -0.797301 -0.116352 -0.592262
0.402723 0.435655 0.168472 0.123869 -0.874675 0.468615
0.606221 0.526199 0.072116 -0.031723 0.888544 0.457694
0.613127 0.480009 0.076236 0.250322 -0.732123 -0.633510
0.375849 0.446556 0.052298 -0.093796 -0.726485 -0.680751
0.421022 0.748584 0.205685 0.635799 -0.018348 -0.771637
0.685695 0.517423 0.098610 0.299526 0.775767 -0.555400
0.660345 0.502308 0.138769 0.645530 -0.151651 -0.748527
0.447300 0.744129 0.214897 0.601863 -0.117207 0.789952
0.490646 0.539023 0.053671 0.179768 0.759069 -0.625697
0.392749 0.324350 0.200061 -0.324998 0.096080 0.940821
0.373763 0.661198 0.194312 0.131997 0.112418 -0.984855
0.471596 0.442843 0.082409 0.211519 -0.942231 -0.259730
0.497564 0.486149 0.185705 0.251963 -0.320027 0.913289
0.352356 0.635412 0.214042 0.065724 -0.106011 0.992191
0.290867 0.700961 0.226536 -0.018038 -0.048344 0.998668
0.673492 0.510583 0.147239 0.184561 0.634436 0.750619
0.270814 0.668901 0.196590 -0.136911 0.142476 -0.980284
0.417703 0.318872 0.216596 -0.523199 -0.127006 -0.842693
0.444001 0.542785 0.189759 0.599881 -0.105266 0.793134
0.648441 0.519785 0.127446 -0.034250 0.999357 -0.010581
0.561122 0.458019 0.117416 0.200161 -0.976430 0.080751
0.401615 0.249713 0.202894 -0.285173 0.046111 0.957366
0.027190 0.499591 0.170347 -0.960525 -0.127025 0.247501
0.443230 0.538369 0.173878 0.242980 0.196906 -0.949836
0.342290 0.600582 0.207100 0.034455 -0.120562 0.992108
0.842279 0.420644 0.136314 -0.095729 -0.575917 -0.811884
0.386769 0.599497 0.206195 0.148304 -0.122797 0.981288
0.355784 0.447126 0.055627 -0.179460 -0.710086 -0.680861
0.392239 0.576931 0.113891 0.055803 0.997284 -0.048079
0.455210 0.470985 0.173276 -0.287378 0.206362 0.935323
0.391157 0.435714 0.198953 -0.151049 -0.139316 -0.978660
0.211574 0.458065 0.220785 0.014007 -0.951903 0.306079
0.323765 0.714556 0.225653 0.025111 -0.052436 0.998309
0.315530 0.494020 0.048033 -0.471522 -0.061040 -0.879739
0.421075 0.239832 0.204992 -0.530737 -0.004892 0.847522
0.353238 0.529939 0.039642 -0.241300 0.402499 -0.883045
0.350328 0.576645 0.176571 0.018811 0.157867 -0.987281
0.355491 0.576905 0.127879 -0.065471 0.996298 0.055719
0.428082 0.365330 0.195051 -0.481940 0.128015 0.866802
0.413889 0.855276 0.202032 0.026739 0.057817 -0.997969
