0.141289 0.295603 0.482731 0.145131 -0.989316 0.013802
0.511390 0.290626 0.298273 0.153527 0.978625 -0.136831
0.495732 0.273895 0.659680 -0.294499 0.898523 0.325463
0.624309 0.285981 0.498713 0.119966 -0.967758 0.221479
0.494155 0.217625 0.517143 -0.134648 -0.960172 0.244827
0.381556 0.025000 0.438025 0.000000 1.000000 0.000000
0.517740 0.293271 0.380843 0.279178 0.959344 -0.041469
0.462531 0.277504 0.118053 -0.987893 0.067755 -0.139559
0.929800 0.285331 0.474377 0.284165 0.955605 0.077900
0.156755 0.307691 0.484037 -0.257434 0.961951 -0.091536
0.479868 0.235222 0.539383 -0.596926 -0.732369 0.327589
0.478382 0.261596 0.581787 0.298231 0.530472 -0.793510
0.533036 0.258953 0.580733 0.952790 -0.144480 0.267053
0.450143 0.231104 0.449411 -0.885851 -0.461230 0.050346
0.613242 0.282350 0.480294 0.155888 -0.985925 0.060416
0.406590 0.287198 0.421530 0.022785 0.920833 -0.389291
0.310111 0.300273 0.441604 -0.348429 -0.388523 -0.853022
0.613091 0.291628 0.479743 -0.191848 0.963252 0.187988
0.511301 0.266321 0.581409 0.831715 0.550029 -0.075622
0.187972 0.306356 0.483836 0.171150 -0.985039 -0.020132
0.462668 0.278982 0.510181 -0.744560 0.654535 0.131202
0.455354 0.281643 0.429772 0.110817 0.983189 -0.145118
0.501643 0.291363 0.587070 0.119889 0.971805 0.203030
0.441236 0.281127 0.406516 -0.002856 0.893285 -0.449481
0.235832 0.317401 0.480828 0.149962 0.988394 -0.024243
0.503231 0.300104 0.428534 0.064190 0.997888 -0.009921
0.481010 0.220488 0.513233 -0.346032 -0.908846 0.232939
0.459123 0.025000 0.438717 0.000000 1.000000 0.000000
0.510527 0.280001 0.087500 0.108836 -0.983612 -0.143743
0.466912 0.286537 0.332839 -0.594537 0.800075 -0.080037
0.295143 0.306293 0.454252 0.099981 0.978234 -0.181833
0.690736 0.297567 0.426738 0.274788 -0.881019 -0.385092
0.170197 0.302266 0.479139 0.167925 -0.985264 -0.032493
0.642372 0.291981 0.417880 0.261662 0.274370 -0.925340
0.489134 0.306075 0.582076 -0.296000 -0.301661 -0.906303
0.374367 0.294847 0.468983 0.156735 0.987614 0.007249
0.543277 0.281933 0.472517 0.719546 0.693897 0.027571
0.371013 0.290981 0.496792 0.201527 0.183123 0.962213
0.486898 0.266168 0.579724 -0.116983 0.144641 0.982545
0.448005 0.273477 0.456900 -0.160571 -0.985542 0.054077
0.486053 0.232393 0.568571 -0.452990 -0.832036 0.320182
0.492518 0.299004 0.454899 -0.088766 0.995970 0.012812
0.330069 0.292736 0.481180 -0.168584 -0.985457 0.021282
0.518089 0.205613 0.492535 0.242096 -0.965371 0.097201
0.522748 0.249247 0.590472 0.816786 -0.479292 0.321154
0.827089 0.310782 0.491713 0.290948 0.952176 0.093323
0.494058 0.298182 0.357499 -0.156006 0.986211 -0.055234
0.547163 0.273699 0.451920 0.844645 0.535326 0.001148
0.520790 0.274515 0.190090 0.802399 -0.592707 -0.069669
0.510042 0.297178 0.423637 0.180860 0.983431 -0.012359
0.628692 0.290466 0.418063 0.076683 0.783331 -0.616857
0.462352 0.282659 0.317584 -0.686757 0.717663 -0.115433
0.528308 0.236372 0.525129 0.711501 -0.643314 0.282691
0.477540 0.288635 0.320462 -0.451958 0.885785 -0.105444
0.536210 0.218539 0.401668 0.605208 -0.791772 -0.082586
0.597622 0.289127 0.465077 -0.181603 0.974396 0.132561
0.544864 0.226395 0.422895 0.764482 -0.643192 -0.043266
0.652042 0.288662 0.471754 0.165185 -0.985861 0.028131
0.449819 0.265531 0.349885 -0.947465 0.308821 -0.083299
0.750856 0.304747 0.467650 0.194664 -0.977832 -0.077145
0.410904 0.025000 0.506909 0.000000 1.000000 0.000000
0.471316 0.289094 0.410433 -0.475636 0.879603 -0.008345
0.441254 0.025000 0.495180 0.000000 1.000000 0.000000
0.548591 0.262309 0.504416 0.965425 0.229512 0.123610
0.439844 0.274815 0.484448 -0.146012 -0.983452 0.107252
0.513505 0.270777 0.198321 0.229311 -0.969021 -0.091730
0.685718 0.303474 0.461354 -0.127064 0.987209 -0.096301
0.693983 0.295499 0.425676 0.212311 -0.965296 -0.152080
0.363172 0.287327 0.448985 -0.183204 -0.982432 -0.035560
0.915161 0.286512 0.483915 0.503871 0.729188 0.463031
0.558390 0.277495 0.391630 0.336000 -0.650419 -0.681219
0.469136 0.287895 0.379339 -0.531205 0.846417 -0.037408
0.492748 0.282170 0.144105 -0.209760 0.975989 -0.058706
0.170276 0.311022 0.491609 -0.264532 0.963177 -0.048085
0.489017 0.269238 0.637664 -0.882530 0.372972 0.286414
0.598208 0.289229 0.461076 -0.176832 0.978393 0.107129
0.581897 0.277256 0.397008 0.199572 -0.973855 -0.108525
0.200713 0.309307 0.467885 0.202156 -0.971411 -0.124474
0.102053 0.291637 0.488636 -0.478104 0.504332 0.719073
0.712184 0.298443 0.514796 0.146230 -0.984269 0.099157
0.183786 0.305396 0.479372 0.175565 -0.983533 -0.042898
0.543992 0.279497 0.448233 0.748035 0.663642 0.004769
0.667366 0.300471 0.488470 -0.181400 0.975247 0.126443
0.554172 0.238210 0.481010 0.932589 -0.354057 0.070154
0.860079 0.294424 0.468505 -0.160338 -0.983728 -0.081064
0.282672 0.300472 0.501304 -0.155722 -0.985275 0.070590
0.341605 0.300194 0.488790 0.183523 0.973273 0.138052
0.575683 0.285587 0.439786 -0.160531 0.986694 0.025789
0.388260 0.025000 0.478653 0.000000 1.000000 0.000000
0.497093 0.200543 0.496223 -0.106968 -0.987780 0.113351
0.553546 0.245642 0.381937 0.985363 -0.145848 -0.088247
0.208813 0.320504 0.516729 -0.285886 0.951474 0.113874
0.482725 0.273867 0.160902 -0.158969 -0.978508 -0.131339
0.548305 0.268117 0.375213 0.887829 0.453461 -0.078304
0.452732 0.241363 0.324045 -0.864748 -0.466969 -0.184800
0.665846 0.290906 0.495491 0.152655 -0.985480 0.074340
0.533504 0.294927 0.580442 -0.725037 -0.230942 0.648836
0.230403 0.318293 0.492105 0.169282 0.982949 0.071801
0.360358 0.297131 0.474363 0.162170 0.986424 0.025853
0.502001 0.227934 0.546918 0.023532 -0.945205 0.325630
0.063139 0.283649 0.466578 -0.413453 0.859271 0.301180
0.571697 0.284921 0.449483 -0.173783 0.980378 0.093050
0.651919 0.294611 0.497064 -0.233988 0.763610 0.601788
0.452456 0.025000 0.439442 0.000000 1.000000 0.000000
0.487500 0.270906 0.583100 -0.083688 0.086554 -0.992726
0.450086 0.025000 0.479743 0.000000 1.000000 0.000000
0.484057 0.204698 0.484405 -0.308422 -0.947165 0.088055
0.506189 0.293234 0.521413 0.139622 0.986041 0.090711
0.163564 0.302151 0.457998 0.185226 -0.949567 -0.253008
0.534656 0.220229 0.358723 0.610659 -0.774740 -0.163934
0.183686 0.313657 0.511390 -0.337454 0.907051 0.251761
0.514641 0.285422 0.269519 0.240810 0.952598 -0.185922
0.473146 0.214658 0.391364 -0.428753 -0.900149 -0.076835
0.865349 0.293196 0.493192 -0.142754 -0.987626 0.064935
0.183822 0.314417 0.480302 -0.237275 0.947789 -0.213065
0.514050 0.294111 0.337269 0.171175 0.982502 -0.073417
0.448190 0.256611 0.318389 -0.988016 0.027508 -0.151880
0.545994 0.236323 0.332170 0.893116 -0.405249 -0.195237
0.475724 0.214613 0.502347 -0.436488 -0.884480 0.164845
0.495023 0.206253 0.345150 0.001448 -0.981954 -0.189116
0.532320 0.285625 0.504579 0.587920 0.805663 0.072512
0.518143 0.271119 0.194231 0.276953 -0.956791 -0.088587
0.097775 0.290036 0.488448 -0.482717 0.298083 0.823487
0.445217 0.256858 0.347076 -0.994268 0.049114 -0.094967
0.467489 0.280330 0.286229 -0.701175 0.685582 -0.195780
0.532420 0.258623 0.551820 0.952059 -0.109726 0.285558
0.390005 0.282937 0.401976 -0.202902 -0.972342 -0.115681
0.515518 0.269820 0.209738 0.252102 -0.964037 -0.084133
0.538649 0.282371 0.325144 0.615750 0.783552 -0.083057
0.512718 0.214519 0.326130 0.308245 -0.921312 -0.237001
0.481857 0.279509 0.140819 -0.943804 0.257530 -0.207155
0.392824 0.025000 0.425432 0.000000 1.000000 0.000000
0.798777 0.317778 0.503250 0.308945 0.935506 0.171413
0.470620 0.248193 0.580998 -0.890647 -0.358748 0.279372
0.422893 0.025000 0.452602 0.000000 1.000000 0.000000
0.085405 0.282744 0.467511 0.136001 -0.990322 -0.027669
0.444025 0.025000 0.464920 0.000000 1.000000 0.000000
0.529565 0.226441 0.514748 0.603972 -0.766018 0.220080
0.645292 0.295534 0.493760 -0.204693 0.938615 0.277674
0.462271 0.269114 0.517564 -0.912149 0.354971 0.204889
0.291491 0.299028 0.436929 -0.203791 -0.971327 -0.122443
0.942026 0.277032 0.481111 -0.041065 -0.978685 0.201219
0.594630 0.279324 0.459288 0.166219 -0.985849 0.021730
0.289085 0.308726 0.467285 0.138377 0.988230 -0.065224
0.600700 0.280311 0.464778 0.163670 -0.986014 0.031435
0.514948 0.205160 0.472210 0.209443 -0.976228 0.055795
0.631063 0.293793 0.434203 -0.109964 0.982150 -0.152609
0.379621 0.025000 0.487306 0.000000 1.000000 0.000000
0.500194 0.301384 0.429142 0.011965 0.999880 -0.009890
0.455665 0.235962 0.324293 -0.773575 -0.603728 -0.192599
0.584928 0.277745 0.468425 0.159798 -0.986126 0.044954
0.456158 0.280202 0.416213 -0.706840 0.707373 0.000666
0.541960 0.280572 0.387566 0.684615 0.727958 -0.037135
0.542958 0.227912 0.367154 0.761116 -0.631060 -0.149888
0.400697 0.025000 0.503259 0.000000 1.000000 0.000000
0.499210 0.290783 0.286301 -0.138195 0.976311 -0.166490
0.658515 0.299026 0.488896 -0.185197 0.971551 0.147614
0.499106 0.204651 0.337054 0.078562 -0.975716 -0.204464
0.459076 0.274862 0.313101 -0.820533 0.552588 -0.146194
0.536483 0.285718 0.432108 0.599318 0.800511 0.000692
0.507753 0.277453 0.202999 0.599429 0.799404 0.040472
0.704996 0.297278 0.468066 0.176118 -0.984320 -0.009856
0.371117 0.286021 0.407040 -0.203906 -0.971544 -0.120516
0.522827 0.291791 0.434705 0.402479 0.915428 -0.001412
0.340802 0.290973 0.415636 -0.205268 -0.970398 -0.127251
0.167518 0.301633 0.495148 0.140772 -0.987931 0.064626
0.293549 0.298698 0.471240 -0.184159 -0.982036 -0.041128
0.923397 0.279845 0.472569 -0.127975 -0.991717 0.010948
0.352230 0.289118 0.481106 -0.165069 -0.985660 0.035014
0.471514 0.289909 0.468279 -0.426201 0.903809 0.038496
0.378570 0.284811 0.442508 -0.183607 -0.982314 -0.036724
0.304849 0.296851 0.460118 -0.189023 -0.980098 -0.060651
0.816590 0.313405 0.486231 0.272485 0.962034 0.015578
0.387854 0.025000 0.394071 0.000000 1.000000 0.000000
0.475871 0.025000 0.434424 0.000000 1.000000 0.000000
0.144800 0.296399 0.494872 0.127517 -0.988404 0.082445
0.705351 0.306193 0.455241 -0.094486 0.975589 -0.198239
0.466961 0.258006 0.552537 -0.963084 -0.045680 0.265298
0.696374 0.302658 0.441950 -0.017774 0.915763 -0.401325
0.355211 0.288631 0.483327 -0.162315 -0.985683 0.045644
0.484025 0.211851 0.338701 -0.188119 -0.962356 -0.196169
0.490847 0.266445 0.669109 -0.910005 0.188428 0.369305
0.570959 0.284822 0.435833 -0.157624 0.987428 0.011877
0.469931 0.288917 0.449445 -0.465722 0.884548 0.026046
0.489460 0.275260 0.213196 0.379397 0.924291 -0.041756
0.546090 0.276888 0.478440 0.804335 0.593149 0.034920
0.372377 0.295171 0.468819 0.156131 0.987724 0.004884
0.566936 0.274818 0.480716 0.150508 -0.985546 0.077757
0.549230 0.228459 0.488890 0.816262 -0.571145 0.086661
0.471791 0.216881 0.357871 -0.421809 -0.895550 -0.141656
0.227272 0.309515 0.509762 -0.156127 -0.985329 0.068935
0.568676 0.282601 0.412428 -0.109735 0.982470 -0.150699
0.086820 0.285474 0.488823 -0.261175 -0.566202 0.781795
0.547652 0.255545 0.511274 0.983824 -0.023774 0.177552
0.440409 0.025000 0.488874 0.000000 1.000000 0.000000
0.674987 0.295379 0.421873 0.290872 -0.841550 -0.455178
0.640328 0.286757 0.459768 0.170888 -0.985270 0.006361
0.506048 0.254193 0.250936 0.298692 -0.859334 -0.415124
0.538875 0.227929 0.505609 0.743213 -0.648489 0.164613
0.480230 0.285565 0.299804 -0.428225 0.891526 -0.147661
0.522811 0.209185 0.495456 0.342015 -0.933053 0.111526
0.179426 0.313265 0.500085 -0.273948 0.961565 0.018563
0.492230 0.274863 0.626120 -0.520762 0.806000 0.281372
0.069557 0.286046 0.474353 -0.417649 0.783827 0.459548
0.099359 0.285967 0.459852 0.155802 -0.984175 -0.084415
0.488223 0.205080 0.443244 -0.220832 -0.975250 0.010981
0.155399 0.301556 0.509637 -0.227122 -0.622339 0.749072
0.505624 0.204106 0.405564 0.118427 -0.989974 -0.076982
0.526550 0.277636 0.145950 0.731809 -0.674272 -0.099061
0.185360 0.314795 0.481496 -0.238928 0.949211 -0.204724
0.201417 0.309435 0.502285 0.149521 -0.985702 0.077684
0.870110 0.292109 0.453475 -0.176887 -0.937785 -0.298781
0.105285 0.292289 0.461061 -0.331296 0.500133 -0.800069
0.549714 0.272018 0.447012 0.168488 -0.985639 0.011251
0.452634 0.230716 0.400867 -0.830996 -0.555034 -0.037184
0.632433 0.294818 0.444420 -0.133700 0.987921 -0.078337
0.552720 0.263053 0.449083 0.960324 0.278667 0.011091
0.523240 0.274429 0.154725 0.323373 -0.940811 -0.101516
0.497797 0.288485 0.067010 -0.393626 0.913089 -0.106427
0.490711 0.298552 0.477534 -0.096971 0.994831 0.030136
0.391417 0.025000 0.517643 0.000000 1.000000 0.000000
0.745164 0.303824 0.455180 0.204255 -0.972082 -0.115482
0.466425 0.240405 0.522939 -0.817894 -0.498373 0.287529
0.745380 0.306503 0.519753 0.106248 -0.949173 0.296279
0.437295 0.282772 0.413302 0.048139 0.944712 -0.324347
0.920175 0.285712 0.481474 0.421334 0.856288 0.298744
0.170888 0.302409 0.494725 0.143498 -0.987876 0.059232
0.467894 0.288008 0.448703 -0.496399 0.867684 0.026709
0.526392 0.214652 0.386756 0.476885 -0.871389 -0.115161
0.477409 0.285127 0.556500 -0.566304 0.815634 0.118491
0.653945 0.288971 0.487733 0.155963 -0.985820 0.061921
0.487342 0.286824 0.583590 -0.060992 -0.007517 -0.998110
0.732429 0.301742 0.478004 0.177174 -0.984108 -0.011882
0.408052 0.025000 0.523104 0.000000 1.000000 0.000000
0.750106 0.313927 0.471336 -0.096031 0.976489 -0.192997
0.527669 0.210035 0.493691 0.406513 -0.908248 0.099159
0.470994 0.266666 0.586931 -0.942528 0.207466 0.261913
0.521266 0.266113 0.599641 0.943015 0.114956 0.312262
0.470587 0.235793 0.297752 -0.406013 -0.866902 -0.289198
0.317680 0.304065 0.454890 0.124345 0.986012 -0.110989
0.348371 0.289741 0.437316 -0.192551 -0.978510 -0.073772
0.482731 0.276391 0.130596 -0.254052 -0.955236 -0.151596
0.174629 0.303289 0.477488 0.173064 -0.983832 -0.046074
0.467024 0.278910 0.101034 -0.984688 -0.060567 -0.163467
0.479629 0.277771 0.114196 -0.473869 -0.862049 -0.179777
0.877976 0.295974 0.463893 0.253970 0.770211 -0.585042
0.496922 0.281872 0.164511 0.082997 0.996472 0.012443
0.366585 0.286762 0.412205 -0.202134 -0.972801 -0.113136
0.812514 0.305357 0.492232 -0.171716 -0.984952 -0.019556
0.509148 0.241558 0.595782 0.369931 -0.863829 0.341981
0.556793 0.248529 0.416630 0.996691 -0.076807 -0.026590
0.583081 0.277449 0.396847 0.199774 -0.973728 -0.109291
0.501392 0.300892 0.429727 0.033221 0.999404 -0.009344
0.540630 0.218890 0.433030 0.640222 -0.767873 -0.022068
0.532544 0.258619 0.559455 0.951770 -0.122817 0.281158
0.394147 0.282258 0.391567 -0.207374 -0.968949 -0.134661
0.293213 0.298752 0.484495 -0.171176 -0.985179 0.011019
0.506427 0.207806 0.337748 0.194557 -0.958491 -0.208431
0.678974 0.293044 0.456079 0.177700 -0.983928 -0.017548
0.379447 0.284664 0.420367 -0.195396 -0.977071 -0.084572
0.588630 0.281525 0.489975 0.065554 -0.891790 0.447675
0.083201 0.289502 0.465611 -0.257175 0.963450 -0.075006
0.637137 0.295548 0.482387 -0.185982 0.970493 0.153475
0.732096 0.310990 0.464567 -0.095992 0.976192 -0.194512
0.696252 0.295855 0.464951 0.175727 -0.984398 -0.009009
0.683309 0.293748 0.477413 0.165282 -0.985815 0.029171
0.459119 0.252743 0.286819 -0.836492 -0.455386 -0.304802
0.470986 0.273220 0.235853 -0.887216 0.103501 -0.449595
0.414174 0.025000 0.462930 0.000000 1.000000 0.000000
0.654341 0.289043 0.425264 0.198111 -0.975298 -0.097697
0.589337 0.287751 0.480197 -0.200416 0.949940 0.239683
0.767442 0.307442 0.486189 0.183031 -0.982606 -0.031375
0.485529 0.278805 0.155331 -0.950920 -0.059074 -0.303746
0.438902 0.274950 0.385812 -0.201849 -0.973247 -0.109755
0.467773 0.287695 0.420011 -0.520272 0.854001 0.000205
0.775597 0.312261 0.460182 0.325426 -0.730608 -0.600258
0.512952 0.249636 0.264338 0.390389 -0.831945 -0.394288
0.137102 0.294629 0.508699 0.036076 -0.932148 0.360275
0.531628 0.257205 0.532597 0.946163 -0.118260 0.301315
0.182780 0.314063 0.509682 -0.314108 0.930705 0.187416
0.623009 0.283940 0.461470 0.168029 -0.985648 0.016272
0.689975 0.294844 0.432181 0.204993 -0.971062 -0.122543
0.454680 0.274209 0.499555 -0.796429 0.594263 0.112034
0.333700 0.293981 0.421235 -0.240660 -0.936843 -0.253787
0.370381 0.286140 0.398366 -0.208393 -0.968004 -0.139785
0.482223 0.259731 0.581107 0.032624 0.988483 0.147772
0.763379 0.310103 0.455262 0.314734 -0.774491 -0.548731
0.671219 0.291789 0.431774 0.198366 -0.975269 -0.097470
0.644558 0.296747 0.489944 -0.191398 0.964290 0.183062
0.500519 0.252394 0.615741 -0.097070 -0.906406 0.411102
0.801926 0.307794 0.493533 -0.176536 -0.983890 -0.028218
0.477349 0.271953 0.183966 -0.223451 -0.966180 -0.128705
0.227302 0.309510 0.528559 -0.136317 -0.980447 0.141922
0.530703 0.284236 0.310840 0.475291 0.873010 -0.109323
0.101243 0.293236 0.465246 -0.264999 0.949419 -0.168461
0.165525 0.301191 0.478156 0.166687 -0.985415 -0.034244
0.480092 0.274963 0.180594 -0.541860 -0.816487 -0.199342
0.783225 0.312102 0.486907 -0.189854 -0.977340 -0.093609
0.736655 0.311745 0.473204 -0.111231 0.983193 -0.144775
0.254507 0.305070 0.506231 -0.155276 -0.985228 0.072210
0.464344 0.287023 0.487012 -0.518732 0.853078 0.056346
0.514157 0.281648 0.579068 0.136079 0.030094 0.990241
0.466019 0.287749 0.485981 -0.495306 0.866995 0.054702
0.570694 0.284789 0.422843 -0.137188 0.987945 -0.071718
0.403774 0.280699 0.454637 -0.171479 -0.985121 0.011503
0.391112 0.282765 0.451064 -0.176205 -0.984327 -0.007171
0.456557 0.280382 0.403165 -0.708636 0.705481 -0.011504
0.503421 0.288138 0.071876 -0.261744 0.959087 -0.107894
0.548322 0.234052 0.498217 0.874135 -0.469748 0.123387
0.545245 0.280591 0.458042 -0.193110 0.960496 0.200389
0.478127 0.270072 0.229264 -0.147253 -0.980833 -0.127606
0.441739 0.278987 0.482735 0.092411 -0.372638 0.923364
0.833896 0.300452 0.464096 -0.176671 -0.972214 -0.153583
0.681384 0.294246 0.418825 0.226817 -0.951980 -0.205641
0.497837 0.281153 0.073285 -0.074378 -0.984930 -0.156146
0.325656 0.293456 0.476433 -0.174049 -0.984737 -0.000270
0.790416 0.311187 0.474318 0.203380 -0.973054 -0.108635
0.693132 0.304673 0.490236 -0.173431 0.981361 0.082778
0.540535 0.230625 0.505063 0.799365 -0.578716 0.161566
0.507944 0.280129 0.604825 0.550252 0.793646 0.259515
0.364218 0.287147 0.402306 -0.207576 -0.968656 -0.136446
0.483635 0.245392 0.597360 -0.672801 -0.662422 0.329447
0.545136 0.222027 0.477082 0.711666 -0.699803 0.061696
0.502673 0.299372 0.368610 -0.002820 0.998694 -0.051019
0.488252 0.276789 0.579029 -0.101624 0.042117 0.993931
0.799987 0.308253 0.471299 -0.189026 -0.969632 -0.155187
0.473094 0.243088 0.558098 -0.820527 -0.485100 0.302348
0.442144 0.255151 0.448433 -0.983369 0.172262 0.057539
0.522843 0.272713 0.175206 0.321938 -0.942256 -0.092246
0.528925 0.238113 0.296223 0.590766 -0.728962 -0.345845
0.512218 0.266434 0.627590 0.948645 -0.023258 0.315486
0.511798 0.273458 0.166316 0.205889 -0.972482 -0.109031
0.476385 0.276952 0.153714 -0.938650 -0.275097 -0.207985
0.497043 0.279032 0.231897 -0.246589 0.917582 -0.311829
0.854810 0.303898 0.492107 0.301408 0.942542 0.144107
0.443030 0.251547 0.359658 -0.994277 -0.072041 -0.078894
0.602613 0.289975 0.443706 -0.154107 0.988028 -0.007161
0.743393 0.303527 0.480905 0.178675 -0.983766 -0.016713
0.907734 0.283445 0.485002 -0.125143 -0.988720 0.082286
0.493887 0.269541 0.580691 -0.838535 0.391097 0.379346
0.534406 0.277248 0.121074 0.426116 -0.898719 -0.103587
0.397610 0.281692 0.388658 -0.208179 -0.968303 -0.138026
0.432045 0.276087 0.476709 -0.152384 -0.984752 0.083917
0.215596 0.320718 0.511390 0.197923 0.952533 0.231317
0.493512 0.284808 0.115740 -0.338453 0.938411 -0.069531
0.729225 0.310547 0.488009 -0.148634 0.988731 -0.017850
0.898987 0.285458 0.486003 -0.129223 -0.988781 0.074925
0.455958 0.281541 0.423069 0.100064 0.978489 -0.180408
0.601518 0.280452 0.390486 0.210481 -0.965783 -0.151526
0.490215 0.292591 0.583145 -0.174088 -0.045511 -0.983678
0.103093 0.286807 0.483709 0.104721 -0.988951 0.104922
0.491144 0.201961 0.477125 -0.193336 -0.978544 0.071219
0.504971 0.277247 0.213000 0.511144 0.857960 0.051350
0.505115 0.270715 0.199061 0.139129 -0.985199 -0.100129
0.682668 0.293654 0.431155 0.203233 -0.972234 -0.116008
0.241473 0.307196 0.447505 -0.207824 -0.967909 -0.141284
0.510045 0.296847 0.403127 0.161553 0.986502 -0.026747
0.556903 0.273188 0.436809 0.175129 -0.984453 -0.013474
0.183654 0.314315 0.499681 -0.271909 0.962322 0.001485
0.805830 0.306909 0.471000 -0.186311 -0.971250 -0.148193
0.450198 0.282508 0.471680 0.174041 0.981578 0.078832
0.598701 0.289334 0.445699 -0.158231 0.987316 0.013009
0.439693 0.274836 0.464775 -0.157764 -0.985381 0.064300
0.784449 0.310214 0.476843 0.198759 -0.975838 -0.090750
0.435721 0.025000 0.426362 0.000000 1.000000 0.000000
0.455150 0.225625 0.407746 -0.747280 -0.663675 -0.033281
0.075062 0.281862 0.450912 0.128647 -0.968049 -0.215245
0.293953 0.298630 0.456469 -0.193162 -0.978071 -0.077883
0.518681 0.213098 0.348633 0.384143 -0.903362 -0.190712
0.301635 0.297378 0.471594 -0.182569 -0.982584 -0.034612
0.455143 0.256873 0.291689 -0.912122 -0.304514 -0.274416
0.302062 0.297301 0.431354 -0.204619 -0.970743 -0.125653
0.454354 0.281831 0.470365 0.172808 0.982183 0.073844
0.472232 0.273982 0.159862 -0.570160 -0.804896 -0.164499
0.490459 0.257571 0.242004 0.010001 -0.893844 -0.448266
0.039446 0.272178 0.460789 0.068026 -0.987975 0.138842
0.440240 0.252093 0.460679 -0.991809 0.106390 0.070687
0.421902 0.025000 0.408991 0.000000 1.000000 0.000000
0.546838 0.229577 0.427686 0.815230 -0.578096 -0.034717
0.437945 0.283305 0.416466 0.066575 0.958651 -0.276689
0.473313 0.231758 0.524199 -0.651092 -0.705783 0.279194
0.131793 0.300193 0.467221 -0.265015 0.904330 -0.334594
0.062844 0.277561 0.482016 -0.008465 -0.915656 0.401873
0.487689 0.220223 0.516797 -0.236677 -0.938768 0.250398
0.444668 0.257557 0.390570 -0.989216 0.143786 -0.027873
0.495712 0.268425 0.226406 0.041490 -0.994526 -0.095898
0.379609 0.025000 0.399551 0.000000 1.000000 0.000000
0.473932 0.240731 0.567363 -0.785200 -0.544082 0.295696
0.449341 0.266840 0.405446 -0.899815 0.436204 0.007652
0.512766 0.215736 0.324037 0.311885 -0.918713 -0.242268
0.449865 0.234437 0.415267 -0.903656 -0.428255 -0.001935
0.228011 0.309396 0.489574 -0.176500 -0.984247 -0.010276
0.461559 0.249848 0.284415 -0.775139 -0.546246 -0.317450
0.429648 0.025000 0.465219 0.000000 1.000000 0.000000
0.929342 0.278472 0.460341 -0.146003 -0.973579 -0.175577
0.478597 0.273196 0.169033 -0.240867 -0.961017 -0.135758
0.456409 0.220694 0.438915 -0.698026 -0.715892 0.016051
0.504841 0.291728 0.544769 0.183904 0.971009 0.152712
0.499088 0.294809 0.579894 0.008226 0.983703 0.179613
0.418457 0.278307 0.484015 -0.151059 -0.984564 0.088401
0.507948 0.208578 0.337067 0.219484 -0.952614 -0.210600
0.924279 0.279638 0.462277 -0.145056 -0.978348 -0.147630
0.477448 0.235952 0.570622 -0.670819 -0.678954 0.298367
0.822984 0.311783 0.498228 0.305231 0.939192 0.157331
0.539541 0.215914 0.476180 0.594352 -0.802088 0.058309
0.504014 0.273154 0.660779 0.390775 0.852638 0.346846
0.495277 0.294498 0.521055 -0.097460 0.990413 0.097900
0.736978 0.311806 0.504111 -0.172316 0.982254 0.074056
0.299976 0.306953 0.467250 0.140373 0.988436 -0.057356
0.504853 0.300177 0.477252 0.136093 0.990408 0.023874
0.535036 0.214428 0.464106 0.543408 -0.838712 0.035628
0.463974 0.269496 0.274907 -0.864570 0.433490 -0.254176
0.375444 0.294657 0.444000 0.118140 0.984819 -0.127181
0.501381 0.288680 0.086649 -0.177314 0.983708 -0.029625
0.532539 0.287363 0.422048 0.540687 0.841188 -0.007745
0.533533 0.278418 0.107102 0.416971 -0.902080 -0.111298
0.877782 0.290346 0.474679 -0.147639 -0.988843 -0.019810
0.614439 0.282547 0.445602 0.176246 -0.984231 -0.015083
0.374412 0.025000 0.493293 0.000000 1.000000 0.000000
0.164796 0.302300 0.457812 0.187788 -0.951771 -0.242628
0.477203 0.291821 0.428958 -0.369220 0.929321 0.006282
0.501804 0.276490 0.635538 0.221293 0.932943 0.283982
0.626773 0.284550 0.496085 0.147954 -0.984943 0.089423
0.402324 0.025000 0.403731 0.000000 1.000000 0.000000
0.447213 0.265940 0.477002 -0.887820 0.452891 0.081635
0.476437 0.211689 0.418788 -0.394241 -0.918556 -0.028805
0.472486 0.235161 0.297182 -0.374382 -0.879353 -0.294239
0.463665 0.264791 0.253878 -0.831022 -0.389837 -0.396775
0.652676 0.298082 0.483285 -0.181153 0.975327 0.126175
0.602209 0.280560 0.409668 0.194882 -0.976821 -0.088549
0.554036 0.242831 0.425720 0.967731 -0.250374 -0.028439
0.479730 0.216448 0.327592 -0.257367 -0.941327 -0.218327
0.534406 0.217440 0.405703 0.578567 -0.812112 -0.075723
0.254958 0.308680 0.520252 0.003568 -0.732756 0.680482
0.626860 0.287905 0.496530 0.053339 -0.865972 0.497240
0.751778 0.314215 0.506229 -0.168053 0.984275 0.054416
0.446797 0.273676 0.464384 -0.156426 -0.985245 0.069447
0.329319 0.292848 0.418096 -0.206180 -0.969636 -0.131510
0.456128 0.220852 0.442914 -0.707349 -0.706463 0.023818
0.434937 0.025000 0.403981 0.000000 1.000000 0.000000
0.541262 0.222641 0.391300 0.688634 -0.718066 -0.100819
0.480546 0.278130 0.109856 -0.454340 -0.872417 -0.180175
0.466607 0.269853 0.237024 -0.810378 -0.384411 -0.442172
0.497543 0.278887 0.612736 -0.081434 0.964036 0.252989
0.490279 0.214407 0.510605 -0.201065 -0.957023 0.208998
0.536664 0.238808 0.305681 0.729638 -0.593286 -0.340060
0.471571 0.273703 0.545346 -0.873206 0.439251 0.211117
0.763563 0.306812 0.480122 0.187499 -0.981062 -0.048601
0.705244 0.306642 0.460152 -0.108565 0.981748 -0.156153
0.442036 0.246378 0.444123 -0.996756 -0.067302 0.044129
0.200333 0.309164 0.522490 0.114722 -0.973910 0.195800
0.963132 0.270693 0.465824 -0.124104 -0.989244 -0.077422
0.156488 0.303689 0.507351 -0.478163 0.254987 0.840441
0.466139 0.287864 0.490035 -0.490401 0.869593 0.057581
0.509484 0.223258 0.308077 0.280694 -0.917751 -0.280969
0.260879 0.304029 0.517767 -0.142092 -0.982418 0.121097
0.496408 0.271312 0.191953 0.041601 -0.992856 -0.111832
0.472341 0.279693 0.266207 -0.673236 0.698313 -0.243131
0.493906 0.263738 0.694297 -0.704854 -0.179483 0.686270
0.470992 0.025000 0.439326 0.000000 1.000000 0.000000
0.479860 0.286305 0.574502 -0.507304 0.853880 0.116323
0.484047 0.295143 0.447857 -0.238521 0.971029 0.014520
0.386183 0.292911 0.446239 0.123797 0.986497 -0.107230
0.541479 0.280306 0.361673 0.669893 0.740279 -0.056837
0.857063 0.303362 0.484136 0.282494 0.957303 0.061385
0.509143 0.230824 0.556556 0.236434 -0.914559 0.328148
0.510796 0.285660 0.097251 0.087125 0.991538 -0.096239
0.731938 0.310984 0.503537 -0.173641 0.981456 0.081198
0.844682 0.300097 0.458697 -0.111384 -0.771492 -0.626413
0.620913 0.284990 0.498873 0.128271 -0.974924 0.181851
0.548269 0.271785 0.415086 0.186418 -0.980786 -0.057509
0.547939 0.270937 0.422518 0.873037 0.486417 -0.034717
0.587969 0.278240 0.464100 0.162678 -0.986075 0.034527
0.456526 0.277631 0.340319 -0.782334 0.617870 -0.078676
0.774010 0.317818 0.496445 -0.131025 0.988528 -0.075136
0.532974 0.258865 0.579283 0.952156 -0.146245 0.268350
0.135736 0.294351 0.455500 0.182824 -0.973076 -0.140349
0.495795 0.277195 0.121036 -0.042781 -0.989196 -0.140220
0.291953 0.298958 0.481299 -0.174569 -0.984642 -0.002415
0.408231 0.025000 0.528192 0.000000 1.000000 0.000000
0.095530 0.285418 0.495362 -0.025702 -0.886392 0.462221
0.356399 0.288425 0.408482 -0.205945 -0.969934 -0.129672
0.484677 0.295094 0.426549 -0.247906 0.968783 -0.001076
0.033315 0.272107 0.447438 0.096899 -0.982030 -0.161951
0.546741 0.271492 0.385035 0.844679 0.531613 -0.062483
0.492519 0.203091 0.441413 -0.142962 -0.989725 0.002595
0.491594 0.206761 0.370382 -0.085552 -0.986693 -0.138267
0.317337 0.304073 0.451869 0.119055 0.984531 -0.128548
0.488985 0.301075 0.582735 -0.185034 -0.129369 -0.974180
0.089863 0.283781 0.458017 0.153049 -0.984388 -0.086930
0.221956 0.310384 0.495550 -0.171514 -0.985136 0.009520
0.398086 0.281623 0.434804 -0.183837 -0.982257 -0.037082
0.539771 0.236230 0.316850 0.779218 -0.559045 -0.283351
0.541183 0.250868 0.300220 0.878960 -0.313148 -0.359678
0.707486 0.297683 0.470636 0.174524 -0.984646 -0.003775
0.146523 0.297788 0.510074 -0.018147 -0.891098 0.453448
0.846736 0.300576 0.460714 0.002611 -0.421697 -0.906733
0.472934 0.278560 0.571489 -0.748897 0.636077 0.185900
0.471752 0.246694 0.532511 -0.862264 -0.393519 0.318817
0.567758 0.284313 0.423339 -0.140540 0.988229 -0.060430
0.496126 0.295889 0.581051 -0.931296 -0.285058 0.226781
0.449729 0.262116 0.502073 -0.940461 0.308842 0.141951
0.476219 0.214606 0.360951 -0.350490 -0.925765 -0.141827
0.812429 0.314410 0.495667 0.295613 0.948748 0.111761
0.587332 0.280612 0.390780 0.258384 -0.908431 -0.328619
0.543258 0.258882 0.291940 0.949536 -0.024319 -0.312713
0.702475 0.296878 0.437038 0.205150 -0.971066 -0.122247
0.532461 0.262932 0.561056 0.964643 0.039748 0.260544
0.498065 0.262685 0.231896 0.179084 -0.855634 -0.485613
0.493348 0.203963 0.413401 -0.099541 -0.993572 -0.053902
0.468665 0.288035 0.416257 -0.510254 0.860018 -0.003182
0.498994 0.283875 0.603710 0.019364 0.973960 0.225893
0.401965 0.290365 0.481120 0.181377 0.975891 0.121404
0.251979 0.305482 0.452123 -0.203550 -0.971356 -0.122618
0.325418 0.296304 0.429463 -0.274513 -0.881644 -0.383858
0.449116 0.261114 0.325722 -0.979602 0.151172 -0.132389
0.479884 0.234922 0.572606 -0.617151 -0.725440 0.304732
0.595323 0.279440 0.400018 0.199544 -0.973952 -0.107705
0.448182 0.244849 0.503003 -0.973817 -0.143021 0.176707
0.948589 0.277412 0.462979 0.221504 -0.259869 -0.939896
0.486655 0.260175 0.612405 -0.897207 -0.270255 0.349260
0.531708 0.263396 0.540248 0.961127 0.065196 0.268298
0.447827 0.239926 0.394015 -0.946980 -0.319563 -0.033280
0.317202 0.304160 0.481886 0.167419 0.984330 0.055356
0.381692 0.025000 0.554019 0.000000 1.000000 0.000000
0.476869 0.275392 0.169664 -0.749923 -0.629410 -0.203614
0.462107 0.285216 0.408736 -0.605926 0.795450 -0.010622
0.589082 0.278423 0.438449 0.177618 -0.983865 -0.021493
0.818750 0.312833 0.498398 0.304256 0.940367 0.152115
0.475361 0.270475 0.201749 -0.220525 -0.967698 -0.122182
0.403710 0.290050 0.433151 0.106174 0.980630 -0.164597
0.491118 0.298486 0.461511 -0.105737 0.994221 0.018555
0.481860 0.294771 0.486456 -0.238960 0.970031 0.044012
0.548546 0.281133 0.455924 -0.189719 0.965036 0.180865
0.764984 0.315687 0.518091 -0.179433 0.977173 0.113738
0.877930 0.298192 0.480373 0.280481 0.958241 0.055728
0.554040 0.250026 0.340384 0.990692 0.002876 -0.136093
0.492356 0.268597 0.224355 0.004276 -0.995000 -0.099786
0.508939 0.282510 0.579688 0.312981 0.032334 0.949209
0.511364 0.273217 0.169199 0.201704 -0.973463 -0.108098
0.663156 0.290470 0.476555 0.163584 -0.985925 0.034535
0.409122 0.289173 0.439470 0.117420 0.984947 -0.126852
0.617807 0.292432 0.458187 -0.165604 0.985016 0.048146
0.084597 0.282557 0.481225 0.065400 -0.976089 0.207298
0.532645 0.258629 0.565386 0.951488 -0.132593 0.277651
0.487818 0.302822 0.582672 -0.149780 -0.141266 -0.978575
0.494566 0.199993 0.485328 -0.144045 -0.986018 0.083779
0.464438 0.276693 0.291615 -0.770304 0.607238 -0.194662
0.504371 0.276418 0.130621 0.082230 -0.987912 -0.131411
0.489105 0.296721 0.404932 -0.193831 0.980842 -0.019477
0.404978 0.280497 0.428858 -0.185694 -0.981608 -0.044312
0.491818 0.290659 0.543163 -0.177759 0.977644 0.112309
0.559729 0.275497 0.380285 0.235369 -0.941200 -0.242373
0.500763 0.247843 0.257604 0.207733 -0.894472 -0.395938
0.516992 0.287622 0.572768 0.654764 0.735247 0.175199
0.174557 0.303254 0.495471 0.144490 -0.987656 0.060486
0.542916 0.220917 0.444220 0.682308 -0.731064 -0.001211
0.241661 0.307168 0.480495 -0.183239 -0.982353 -0.037491
0.829302 0.301500 0.480892 -0.169444 -0.983833 -0.057973
0.382641 0.025000 0.330458 0.000000 1.000000 0.000000
0.449194 0.233110 0.446161 -0.908261 -0.415872 0.045952
0.490041 0.247246 0.603399 -0.453959 -0.807191 0.377311
0.794649 0.309470 0.491146 -0.181710 -0.981943 -0.052628
0.833578 0.303899 0.462348 0.005727 -0.402048 -0.915601
0.377051 0.294422 0.485624 0.184454 0.972797 0.140155
0.300990 0.301697 0.443833 -0.348677 -0.448382 -0.823029
0.303328 0.305349 0.505288 0.209370 0.928242 0.307458
0.669389 0.291483 0.495158 0.153248 -0.985534 0.072369
0.549539 0.269037 0.448219 0.903066 0.429497 0.001892
0.848893 0.296998 0.461297 -0.175090 -0.965950 -0.190483
0.584630 0.287025 0.454020 -0.173975 0.980335 0.093142
0.359388 0.287949 0.472544 -0.170722 -0.985231 0.013183
0.682602 0.293647 0.420316 0.212995 -0.964557 -0.155768
0.902346 0.292143 0.475663 0.277329 0.959680 0.045865
0.556712 0.257141 0.486815 0.991845 0.104322 0.073212
0.475079 0.259975 0.595107 -0.940873 -0.169159 0.293503
0.319846 0.294398 0.432565 -0.200624 -0.973679 -0.108168
0.922544 0.282042 0.486833 -0.013484 -0.964134 0.265072
0.511684 0.286078 0.074073 0.051179 0.837599 -0.543883
0.213736 0.321720 0.518411 -0.286461 0.950827 0.117761
0.362846 0.296705 0.440793 0.110533 0.981946 -0.153510
0.449202 0.269618 0.475010 -0.843475 0.532081 0.073761
0.519648 0.293762 0.490731 0.382507 0.923109 0.039461
0.476915 0.274428 0.178985 -0.610616 -0.769315 -0.187892
0.219959 0.310708 0.525490 -0.140826 -0.982033 0.125615
0.332653 0.292313 0.498024 -0.150822 -0.984539 0.089085
0.469288 0.216305 0.392500 -0.485911 -0.870915 -0.073470
0.456438 0.258442 0.285348 -0.902651 -0.313186 -0.295188
0.210028 0.315374 0.464783 -0.261203 -0.907880 -0.327915
0.351110 0.289301 0.475224 -0.170959 -0.985205 0.012042
0.503989 0.285532 0.044186 -0.119885 -0.964632 -0.234760
0.537138 0.285643 0.453460 0.618364 0.785725 0.016209
0.546113 0.274034 0.415255 0.821985 0.568561 -0.032851
0.321113 0.297437 0.433342 -0.296720 -0.826172 -0.478955
0.428009 0.276742 0.453663 -0.166821 -0.985531 0.029986
0.847710 0.298121 0.455493 -0.167986 -0.904109 -0.392897
0.448045 0.282846 0.451510 0.143817 0.989066 -0.032647
0.698315 0.302014 0.437514 0.086726 0.761727 -0.642068
0.793176 0.309824 0.466511 -0.194318 -0.962116 -0.191241
0.639101 0.295886 0.471028 -0.172329 0.981718 0.080828
0.908724 0.283222 0.477832 -0.129224 -0.990633 0.044134
0.193697 0.307689 0.470458 0.194526 -0.975407 -0.103638
0.616085 0.292143 0.463366 -0.172468 0.981500 0.083142
0.519983 0.284259 0.277515 0.326672 0.929503 -0.171201
0.485500 0.205564 0.457102 -0.272525 -0.961409 0.037728
0.632771 0.285528 0.463541 0.167883 -0.985656 0.017256
0.523739 0.237956 0.548710 0.657473 -0.686422 0.310732
0.464300 0.215686 0.443795 -0.581254 -0.813482 0.019758
0.484278 0.305385 0.582643 -0.047287 -0.150633 -0.987458
0.445859 0.262246 0.451365 -0.931564 0.358238 0.062088
0.577172 0.285821 0.445845 -0.167282 0.984121 0.059345
0.557060 0.276377 0.386525 0.273142 -0.882706 -0.382393
0.528457 0.215721 0.385459 0.508501 -0.853082 -0.116954
0.538385 0.276978 0.303941 0.749206 0.648751 -0.133463
0.424137 0.286734 0.446788 0.131951 0.988326 -0.076167
0.449158 0.279571 0.402189 -0.024632 0.865855 -0.499688
0.369621 0.290262 0.498710 0.027832 -0.651241 0.758360
0.782109 0.319124 0.477629 -0.083315 0.969452 -0.230698
0.392385 0.285191 0.496262 -0.089078 -0.927565 0.362889
0.932768 0.277685 0.465751 -0.136204 -0.986540 -0.090488
0.486932 0.232295 0.535488 -0.409270 -0.845418 0.343170
0.547391 0.271622 0.414924 0.859277 0.510026 -0.038939
0.713279 0.298622 0.498253 0.156264 -0.985677 0.063420
0.574243 0.276007 0.461331 0.162803 -0.986091 0.033455
0.581859 0.286583 0.447563 -0.167442 0.984064 0.059837
0.552027 0.261132 0.375091 0.959385 0.266576 -0.092289
0.434253 0.025000 0.447900 0.000000 1.000000 0.000000
0.855864 0.295390 0.454176 -0.181266 -0.938674 -0.293316
0.456157 0.278001 0.397332 -0.073707 0.791225 -0.607067
0.400148 0.025000 0.376155 0.000000 1.000000 0.000000
0.202512 0.309667 0.521628 0.117521 -0.974890 0.189153
0.440426 0.274713 0.449360 -0.166625 -0.985531 0.031070
0.570270 0.275365 0.402445 0.195529 -0.976307 -0.092700
0.740305 0.303024 0.481077 0.177254 -0.984096 -0.011634
0.789216 0.313279 0.462220 0.268019 -0.898777 -0.346938
0.503271 0.269366 0.215167 0.122059 -0.988042 -0.094209
0.477786 0.277135 0.121875 -0.520008 -0.835064 -0.179612
0.751275 0.311842 0.460019 -0.017713 0.915985 -0.400821
0.523865 0.290956 0.397324 0.398256 0.916838 -0.028304
0.718480 0.307199 0.452699 -0.057934 0.952689 -0.298376
0.548890 0.241498 0.332241 0.951546 -0.248836 -0.180669
0.320054 0.296594 0.428326 -0.251836 -0.921435 -0.295864
0.104706 0.287183 0.475082 0.135525 -0.990774 0.000227
0.498876 0.253086 0.644964 -0.107798 -0.951452 0.288303
0.542185 0.283381 0.495018 0.706404 0.705918 0.051693
0.236083 0.308078 0.491759 -0.173047 -0.984907 0.003493
0.341909 0.290797 0.440881 -0.191934 -0.978805 -0.071433
0.464586 0.268623 0.522520 -0.920085 0.325057 0.218590
0.526752 0.274608 0.152586 0.357659 -0.928663 -0.098309
0.395232 0.282098 0.483905 -0.155124 -0.985187 0.073102
0.557456 0.282616 0.437532 -0.165296 0.984940 0.050690
0.158333 0.308102 0.477701 -0.245002 0.955207 -0.165993
0.573595 0.275902 0.464342 0.160962 -0.986142 0.040192
0.387497 0.292704 0.457681 0.142005 0.988877 -0.044233
0.518892 0.213863 0.336950 0.395451 -0.893416 -0.213136
0.386181 0.025000 0.474961 0.000000 1.000000 0.000000
0.451691 0.274408 0.476742 -0.774903 0.628530 0.066894
0.440399 0.274717 0.445082 -0.169104 -0.985361 0.021625
0.525728 0.286479 0.581574 -0.569154 -0.030714 0.821657
0.772696 0.317614 0.516787 -0.173017 0.982042 0.075222
0.618287 0.283170 0.495568 0.147319 -0.984865 0.091313
0.586056 0.287228 0.472278 -0.193581 0.960495 0.199940
0.162381 0.302784 0.512516 -0.149880 -0.743670 0.651529
0.545087 0.221817 0.478436 0.708521 -0.702761 0.064226
0.762465 0.306633 0.481579 0.185627 -0.981741 -0.041552
0.524052 0.291674 0.477034 0.444580 0.895222 0.030432
0.456924 0.226390 0.501292 -0.789052 -0.593322 0.159268
0.905151 0.285027 0.450987 -0.142277 -0.869942 -0.472185
0.370256 0.286161 0.399921 -0.207644 -0.968626 -0.136555
0.572635 0.284559 0.420393 -0.130883 0.987276 -0.090313
0.737717 0.311917 0.510324 -0.179217 0.977657 0.109856
0.494821 0.201988 0.441264 -0.102144 -0.994770 -0.000224
0.447307 0.249362 0.326833 -0.963858 -0.219392 -0.151148
0.471128 0.274706 0.253536 -0.763946 0.576100 -0.290681
0.434537 0.275679 0.469862 -0.155897 -0.985213 0.071074
0.598889 0.289340 0.461104 -0.176600 0.978574 0.105858
0.096512 0.285294 0.478937 0.116818 -0.991597 0.055575
0.572431 0.285020 0.462599 -0.188230 0.967173 0.170721
0.450099 0.279034 0.478559 0.209448 0.905826 0.368253
0.474378 0.213557 0.401446 -0.415990 -0.907433 -0.059301
0.626336 0.284483 0.440601 0.180343 -0.983139 -0.030226
0.455005 0.220876 0.466026 -0.741586 -0.667512 0.066916
0.517426 0.293566 0.391039 0.282855 0.958552 -0.034221
0.755827 0.305561 0.453490 0.209714 -0.968150 -0.136766
0.797755 0.308749 0.500807 -0.174370 -0.984659 0.006391
0.544139 0.275789 0.372118 0.763649 0.642705 -0.061399
0.572665 0.275754 0.407503 0.193056 -0.977700 -0.082654
0.474415 0.280606 0.579304 0.189100 0.044519 0.980948
0.544669 0.257555 0.514852 0.980811 0.013998 0.194456
0.291851 0.308278 0.470270 0.143512 0.988530 -0.047043
0.829415 0.307740 0.468851 0.253331 0.844752 -0.471400
0.521940 0.242020 0.587207 0.702380 -0.641464 0.308522
0.384571 0.283830 0.435569 -0.186190 -0.981394 -0.046895
0.495812 0.288286 0.070901 -0.398160 0.913547 -0.083067
0.327192 0.295749 0.427397 -0.263299 -0.903120 -0.339189
0.572886 0.285125 0.443101 -0.165723 0.984812 0.051784
0.451623 0.230035 0.429845 -0.856027 -0.516624 0.017844
0.881015 0.289595 0.484605 -0.139825 -0.989346 0.040541
0.471858 0.277553 0.529555 -0.798401 0.572740 0.185808
0.733937 0.301999 0.443216 0.211024 -0.966850 -0.143769
0.473714 0.253735 0.589231 -0.902963 -0.315225 0.292046
0.154979 0.298737 0.513216 0.059922 -0.948502 0.311053
0.423268 0.025000 0.444173 0.000000 1.000000 0.000000
0.509373 0.272744 0.174841 0.181117 -0.977570 -0.107486
0.478995 0.284688 0.576928 -0.539002 0.829455 0.146568
0.797297 0.308857 0.497335 -0.176729 -0.984163 -0.013813
0.784677 0.310242 0.505318 0.170646 -0.985207 0.015754
0.275036 0.311037 0.501422 0.192405 0.962037 0.193559
0.443841 0.259297 0.471188 -0.950587 0.298619 0.084914
0.394992 0.025000 0.389676 0.000000 1.000000 0.000000
0.473180 0.214367 0.396384 -0.431106 -0.899740 -0.067947
0.503049 0.286599 0.107060 -0.062549 0.997783 -0.022745
0.670686 0.301029 0.450770 -0.116460 0.984240 -0.133070
0.469741 0.272796 0.179426 -0.663936 -0.729705 -0.163463
0.444933 0.241609 0.496653 -0.978729 -0.150318 0.139624
0.473038 0.243523 0.550277 -0.821936 -0.478653 0.308728
0.491893 0.285298 0.106652 -0.413152 0.907767 -0.072562
0.460615 0.221432 0.369145 -0.589960 -0.799934 -0.109787
0.453070 0.277283 0.482735 -0.728018 0.682269 0.067075
0.549196 0.265919 0.363514 0.909645 0.404949 -0.092531
0.481547 0.295236 0.582982 0.214878 -0.609602 -0.763029
0.510224 0.268726 0.222804 0.198511 -0.976530 -0.083558
0.609275 0.291022 0.469352 -0.181979 0.974164 0.133745
0.367454 0.294961 0.491705 0.197017 0.954884 0.222220
0.543830 0.229754 0.364203 0.789978 -0.593158 -0.155238
0.463521 0.216037 0.443682 -0.591356 -0.806169 0.019733
0.292091 0.308240 0.472975 0.147699 0.988507 -0.032247
0.136514 0.295238 0.454301 0.179413 -0.964831 -0.192128
0.647735 0.287962 0.471002 0.165156 -0.985869 0.028048
0.542060 0.219208 0.445811 0.653785 -0.756678 0.001914
0.785358 0.319660 0.496667 -0.122348 0.987065 -0.103606
0.469762 0.225895 0.514101 -0.622351 -0.748928 0.227564
0.278574 0.310460 0.500550 0.191639 0.963126 0.188847
0.481746 0.276902 0.582770 0.325252 0.915212 -0.237905
0.622323 0.290437 0.421717 -0.046013 0.944216 -0.326096
0.549875 0.262027 0.327671 0.939061 0.317320 -0.132185
0.528633 0.248816 0.570128 0.851301 -0.430808 0.299484
0.500669 0.298249 0.510366 0.063076 0.995843 0.065714
0.691144 0.302228 0.504065 -0.205543 0.933513 0.293779
0.069804 0.280279 0.485895 -0.116988 -0.792556 0.598472
0.481553 0.266677 0.231909 -0.288741 -0.786255 -0.546288
0.537827 0.284292 0.349371 0.574386 0.816581 -0.057231
0.446557 0.025000 0.461349 0.000000 1.000000 0.000000
0.551439 0.242399 0.375688 0.964294 -0.241673 -0.108315
0.405193 0.280460 0.416965 -0.192099 -0.978858 -0.070249
0.192205 0.311505 0.466292 0.072339 -0.515211 -0.854005
0.493737 0.282462 0.144620 -0.144780 0.988650 -0.040133
0.479984 0.292009 0.502887 -0.364122 0.928101 0.077739
0.490840 0.293202 0.315480 -0.244386 0.963100 -0.112755
0.883896 0.293804 0.494576 0.545899 0.269826 0.793214
0.378106 0.025000 0.357908 0.000000 1.000000 0.000000
0.476966 0.215048 0.503651 -0.416667 -0.892453 0.172966
0.588722 0.278363 0.460509 0.164863 -0.985961 0.026492
0.497702 0.274501 0.153614 0.022788 -0.991637 -0.127034
0.473426 0.274580 0.170149 -0.755251 -0.628583 -0.185686
0.408339 0.279947 0.422120 -0.188686 -0.980424 -0.056272
0.376494 0.025000 0.436746 0.000000 1.000000 0.000000
0.547535 0.242795 0.326903 0.940863 -0.265692 -0.210200
0.472526 0.276129 0.134132 -0.712205 -0.677920 -0.182177
0.175563 0.303472 0.509209 0.122222 -0.982557 0.140158
0.240371 0.307376 0.526402 -0.136394 -0.980472 0.141673
0.379460 0.025000 0.450988 0.000000 1.000000 0.000000
0.480611 0.268026 0.602868 -0.926777 0.228683 0.297975
0.491015 0.208734 0.333091 -0.056098 -0.975796 -0.211364
0.442655 0.282669 0.415433 0.069650 0.960768 -0.268465
0.315316 0.295143 0.511930 -0.139071 -0.981421 0.132185
0.581099 0.282441 0.404154 0.098507 0.746718 -0.657806
0.185461 0.314788 0.491682 -0.258319 0.961569 -0.093038
0.762733 0.315986 0.491460 -0.129450 0.988230 -0.081509
0.792812 0.309878 0.515381 -0.167558 -0.982585 0.080313
0.736595 0.311745 0.493102 -0.153363 0.988170 -0.000365
0.376303 0.294541 0.481321 0.177195 0.978957 0.101223
0.714001 0.302296 0.437649 0.324847 -0.720454 -0.612716
0.237808 0.307798 0.462833 -0.200297 -0.973637 -0.109139
0.395026 0.291483 0.465052 0.154610 0.987975 0.001357
0.559045 0.273536 0.446791 0.169624 -0.985481 0.007419
0.086192 0.282926 0.486448 0.033466 -0.951029 0.307283
0.463448 0.286416 0.473428 -0.541201 0.839575 0.047062
0.528464 0.289434 0.448541 0.496044 0.868235 0.010428
0.097121 0.285433 0.477705 0.126390 -0.991696 0.023750
0.522651 0.271989 0.231876 0.719153 0.369858 -0.588238
0.445774 0.283224 0.464735 0.163242 0.985878 0.037361
0.499923 0.271129 0.194133 0.080989 -0.990894 -0.107559
0.504008 0.228513 0.577952 0.066492 -0.948008 0.311224
0.541203 0.279590 0.334355 0.662348 0.745020 -0.078994
0.509983 0.284479 0.579524 0.277656 0.013044 0.960592
0.459407 0.215260 0.490838 -0.660013 -0.744169 0.102934
0.478857 0.298289 0.583243 0.052007 -0.071083 -0.996114
0.092882 0.284466 0.468009 0.139624 -0.989713 -0.031192
0.250381 0.305744 0.456059 -0.201850 -0.972589 -0.115444
0.373972 0.285569 0.483448 -0.159110 -0.985559 0.057950
0.133297 0.295002 0.455123 0.170164 -0.959608 -0.224046
0.155435 0.298873 0.471886 0.170329 -0.983409 -0.062415
0.448096 0.263423 0.377608 -0.954938 0.293925 -0.041255
0.667427 0.291164 0.480649 0.161643 -0.985961 0.041852
0.312676 0.304905 0.493885 0.186822 0.969492 0.158691
0.426422 0.286203 0.423162 0.092242 0.974018 -0.206834
0.539404 0.216391 0.466614 0.600156 -0.798857 0.040508
0.374634 0.285461 0.483679 -0.158763 -0.985536 0.059272
0.870615 0.295529 0.459764 0.100900 -0.076708 -0.991935
0.229529 0.309148 0.495560 -0.170288 -0.985290 0.014365
0.549689 0.269747 0.470936 0.898997 0.436591 0.034524
0.596817 0.288969 0.482136 -0.199845 0.951060 0.235685
0.504606 0.203067 0.418307 0.087839 -0.994806 -0.051441
0.512698 0.265342 0.624799 0.935083 -0.131497 0.329132
0.539582 0.217492 0.448754 0.616007 -0.787709 0.007128
0.731580 0.310923 0.475299 -0.119928 0.985940 -0.116359
0.200175 0.309432 0.528099 0.079642 -0.953539 0.290553
0.160554 0.300017 0.511227 0.090890 -0.970516 0.223245
0.473465 0.264497 0.238076 -0.454975 -0.756197 -0.470281
0.476936 0.277429 0.588437 -0.705796 0.654636 0.270746
0.381719 0.025000 0.519956 0.000000 1.000000 0.000000
0.158442 0.299578 0.459063 0.190626 -0.971744 -0.139197
0.499088 0.201840 0.399166 0.015424 -0.996128 -0.086551
0.517592 0.277370 0.174692 0.995688 0.082172 -0.043051
0.524462 0.279972 0.259449 0.416088 0.887493 -0.198059
0.467480 0.216014 0.412298 -0.522439 -0.851848 -0.037573
0.533984 0.218620 0.381347 0.588711 -0.799065 -0.122126
0.492963 0.211976 0.508956 -0.160263 -0.967445 0.195874
0.515886 0.281077 0.596120 0.741270 0.583923 0.330987
0.464151 0.249737 0.277043 -0.725704 -0.597753 -0.340653
0.765167 0.316391 0.512977 -0.171337 0.982873 0.067850
0.849857 0.296759 0.496889 -0.148743 -0.986902 0.062451
0.422360 0.277655 0.405718 -0.194679 -0.977571 -0.080342
0.479617 0.278001 0.150513 -0.967889 -0.111451 -0.225320
0.460673 0.270325 0.293293 -0.871229 0.445344 -0.206467
0.670649 0.300589 0.446405 -0.104947 0.980195 -0.167941
0.525278 0.289868 0.365207 0.396344 0.916690 -0.050910
0.710316 0.300544 0.513095 0.104863 -0.949121 0.296941
0.804477 0.307191 0.518626 -0.158865 -0.980550 0.115252
0.523828 0.208542 0.484127 0.349836 -0.933448 0.079300
0.490854 0.297273 0.390533 -0.178156 0.983525 -0.030653
0.494013 0.239345 0.272916 0.048609 -0.928465 -0.368226
0.391664 0.025000 0.383672 0.000000 1.000000 0.000000
0.484473 0.291789 0.513120 -0.396283 0.912230 0.103899
0.268432 0.302797 0.482477 -0.177124 -0.984107 -0.012681
0.889721 0.291738 0.459569 0.193469 0.330753 -0.923673
0.296708 0.298957 0.429248 -0.219126 -0.959108 -0.179150
0.443260 0.242490 0.464036 -0.987815 -0.136419 0.074914
0.025913 0.269145 0.444732 0.130022 -0.986720 -0.097353
0.498933 0.232865 0.282803 0.144029 -0.930967 -0.335495
0.527507 0.246813 0.553511 0.820980 -0.477172 0.313528
0.515215 0.294709 0.404571 0.255811 0.966404 -0.024976
0.490052 0.223194 0.522120 -0.194269 -0.939922 0.280725
0.456343 0.252533 0.516923 -0.974319 -0.043469 0.220936
0.490060 0.234549 0.282526 -0.053373 -0.935990 -0.347957
0.587318 0.287424 0.478967 -0.199881 0.950812 0.236653
0.768583 0.307620 0.510249 0.158841 -0.985649 0.057146
