0.312853 0.275745 0.534134 -0.548470 -0.801381 0.238682
0.488023 0.209888 0.490541 0.060935 0.989865 -0.128274
0.447756 0.098392 0.348547 -0.912219 -0.315867 -0.260929
0.501201 0.189159 0.349509 0.027306 0.946125 -0.322650
0.433020 0.202329 0.522175 -0.716070 -0.697394 0.029755
0.758427 0.270035 0.369613 0.536876 -0.804490 0.254088
0.733208 0.281405 0.429807 0.490340 -0.843619 0.218803
0.146154 0.342328 0.379470 0.344515 0.833463 -0.432028
0.561219 0.072238 0.161308 0.116458 -0.975725 0.185467
0.516058 0.068636 0.522841 0.283552 -0.926134 0.248745
0.277196 0.248358 0.360181 0.502036 0.577526 -0.643757
0.312463 0.262747 0.448680 -0.486526 -0.835951 0.253926
0.114814 0.377635 0.475320 -0.510639 -0.824757 0.242949
0.970632 0.429753 0.475437 0.591693 -0.740496 0.318693
0.723507 0.259397 0.399496 0.546868 -0.771975 0.324023
0.858501 0.371278 0.505951 0.519344 -0.780489 0.348020
0.353222 0.278793 0.523871 0.512289 0.855921 -0.070421
0.251424 0.314665 0.510113 -0.497635 -0.796966 0.342352
0.630725 0.067467 0.117630 0.163676 -0.960961 0.223079
0.729688 0.272098 0.379001 -0.505410 0.627743 -0.592029
0.147536 0.352209 0.410571 0.373111 0.858552 -0.351677
0.563032 0.103148 0.478015 0.970420 -0.241181 -0.010810
0.536166 0.176229 0.365469 0.616972 0.718575 -0.320928
0.810756 0.293431 0.339675 -0.233399 0.630086 -0.740619
0.547401 0.071093 0.114976 0.133315 0.904766 -0.404507
0.430510 0.206599 0.516121 -0.696639 -0.717069 0.022501
0.570883 0.160268 0.321773 -0.469283 0.766918 -0.437732
0.827022 0.317809 0.391043 0.504597 -0.834603 0.220951
0.495346 0.092602 0.598376 -0.095530 -0.892712 0.440385
0.459444 0.186178 0.414944 -0.119220 0.955540 -0.269686
0.527422 0.103650 0.232769 0.139469 0.940961 -0.308450
0.527480 0.119347 0.246311 0.476916 0.798792 -0.366718
0.831652 0.366005 0.515678 -0.255239 0.863993 0.434015
0.487908 0.179141 0.680644 -0.399408 -0.746802 0.531752
0.509847 0.185088 0.723018 0.725245 0.428689 0.538744
0.783583 0.315024 0.449004 0.469844 -0.842558 0.263329
0.624391 0.234375 0.528708 0.576531 -0.806450 0.131342
0.950679 0.425273 0.482391 -0.368858 0.929034 -0.028969
0.946075 0.405855 0.450874 0.561002 -0.786831 0.257244
0.351718 0.260553 0.464991 0.501901 0.807993 -0.308613
0.133741 0.361272 0.415065 0.367443 0.841013 -0.397094
0.179382 0.341177 0.421648 0.385714 0.875701 -0.290470
0.039193 0.416447 0.431406 0.400129 0.868321 -0.293112
0.530699 0.112135 0.306989 0.285918 -0.943531 0.167333
0.355114 0.178135 0.322016 -0.544757 -0.301422 -0.782551
0.536981 0.121312 0.280822 0.359504 0.884490 -0.297378
0.141753 0.326089 0.354545 -0.597770 -0.571303 -0.562391
0.449978 0.178147 0.388066 0.311311 0.892860 -0.325401
0.586246 0.187519 0.363373 -0.334998 0.833007 -0.440313
0.613696 0.224189 0.415609 -0.409325 0.822903 -0.394061
0.847252 0.348016 0.446618 0.481169 -0.847700 0.223340
0.551260 0.188721 0.601753 0.960173 0.176913 0.216263
0.536651 0.138885 0.301825 0.753564 0.571955 -0.324050
0.414326 0.177473 0.343099 0.346231 0.824331 -0.447887
0.311662 0.223183 0.377824 -0.448081 -0.835451 0.318190
0.555135 0.099935 0.252866 0.176562 -0.950682 0.255010
0.522795 0.075995 0.179740 0.107920 -0.975480 0.191815
0.391397 0.076388 0.130504 -0.188960 0.927093 -0.323718
0.065593 0.412948 0.498884 -0.492779 -0.479821 0.725907
0.563534 0.096880 0.392953 0.970007 -0.180663 -0.162626
0.962921 0.428614 0.469103 -0.371841 0.915564 -0.153220
0.300272 0.271575 0.470520 -0.518262 -0.829435 0.208430
0.235823 0.333720 0.493226 0.398228 0.913833 -0.079514
0.367110 0.243446 0.511523 -0.538708 -0.835832 0.105728
0.699475 0.217243 0.357295 0.396939 -0.852910 0.339092
0.489670 0.163331 0.302233 -0.327827 0.850603 -0.411100
0.556741 0.198390 0.594967 0.811414 0.069332 0.580344
0.427495 0.099654 0.420268 -0.985542 -0.150944 -0.076958
0.553963 0.036452 0.459485 0.416510 -0.877708 0.236956
0.148102 0.321709 0.358635 -0.521427 -0.849678 0.078498
0.655792 0.211490 0.378953 0.340749 -0.852402 0.396611
0.146753 0.379409 0.502677 0.390151 0.920539 0.019730
0.401084 0.211597 0.404216 0.399419 0.836895 -0.374261
0.760076 0.302590 0.450210 0.470774 -0.836672 0.279914
0.294167 0.293289 0.527260 -0.537745 -0.780161 0.319654
0.414777 0.211241 0.535067 -0.607023 -0.788334 0.100265
0.085293 0.381796 0.438538 -0.517272 -0.827877 0.216910
0.074049 0.390109 0.409722 0.381793 0.862771 -0.331452
0.139797 0.342499 0.371861 0.334602 0.825090 -0.455268
0.694505 0.298897 0.559317 0.392412 -0.207996 0.895964
0.484722 0.092079 0.266691 -0.208288 -0.967013 0.146633
0.559375 0.142018 0.523589 0.998276 -0.025481 0.052871
0.117828 0.377693 0.482472 -0.516276 -0.820275 0.246188
0.824608 0.338401 0.409209 -0.376082 0.846802 -0.376149
0.816362 0.348468 0.453910 -0.415632 0.869145 -0.268024
0.169148 0.316009 0.374856 -0.502211 -0.850136 0.158280
0.895829 0.366058 0.420506 0.507231 -0.835434 0.211579
0.397607 0.089379 0.175922 -0.266581 0.927796 -0.261016
0.524174 0.124895 0.247525 0.476626 0.783204 -0.399274
0.450578 0.103595 0.331404 -0.913854 -0.283696 -0.290494
0.408557 0.190761 0.387833 -0.402928 -0.848956 0.341938
0.277060 0.263637 0.374985 0.513413 0.557775 -0.652146
0.369579 0.236509 0.530887 -0.571661 -0.811567 0.120679
0.443655 0.065878 0.135252 -0.068631 -0.984352 0.162300
0.305838 0.317494 0.548426 0.416628 0.872175 0.256385
0.123687 0.340297 0.381495 -0.510154 -0.844854 0.161133
0.619124 0.059964 0.095620 0.232311 -0.946094 0.225695
0.554900 0.161095 0.337920 -0.541084 0.744025 -0.391990
0.769257 0.289465 0.402849 0.489595 -0.833418 0.256341
0.875583 0.377252 0.492167 0.529235 -0.814617 0.237296
0.560057 0.135726 0.372562 0.955878 0.230129 -0.182585
0.360206 0.255627 0.567883 -0.621284 -0.521666 0.584697
0.477270 0.153806 0.296843 -0.624839 0.687880 -0.369319
0.445998 0.114457 0.548241 -0.922643 -0.331046 0.197835
0.461320 0.133521 0.295086 -0.844842 0.433234 -0.313928
0.401920 0.246891 0.529286 0.500878 0.859009 -0.105943
0.369415 0.249907 0.460291 0.488934 0.808497 -0.327530
0.562915 0.097841 0.209293 0.100283 0.940110 -0.325787
0.552610 0.063634 0.125424 0.093865 -0.980410 0.173163
0.601723 0.202847 0.381395 -0.342406 0.840787 -0.419327
0.680847 0.297714 0.518525 -0.449195 0.883041 -0.135874
0.597907 0.245200 0.502504 -0.443064 0.871856 -0.208713
0.199941 0.304503 0.356486 0.373451 0.735233 -0.565656
0.188128 0.311700 0.393005 -0.491101 -0.850760 0.187157
0.453537 0.068185 0.102850 -0.146652 0.909522 -0.388925
0.733233 0.280998 0.388880 -0.484870 0.719212 -0.497629
0.161404 0.370884 0.498448 0.439624 0.884206 -0.157831
0.948431 0.402935 0.416588 -0.381814 0.861008 -0.335980
0.325526 0.261647 0.474175 -0.520260 -0.836003 0.174436
0.470862 0.074869 0.125204 -0.128830 0.908409 -0.397738
0.200821 0.351365 0.505749 0.368025 0.927010 0.072183
0.436285 0.116465 0.498874 -0.990164 -0.126219 0.060365
0.551833 0.172086 0.369846 -0.411465 0.839137 -0.355733
0.968223 0.429371 0.456114 -0.010670 0.912255 -0.409484
0.293159 0.283498 0.419384 0.486239 0.758439 -0.433984
0.789847 0.301127 0.396867 0.502232 -0.833556 0.230102
0.491762 0.202510 0.407660 0.002293 0.973479 -0.228764
0.458943 0.188080 0.496753 -0.880792 -0.467553 -0.074823
0.483652 0.044915 0.469407 -0.126721 -0.987490 0.093837
0.445327 0.172027 0.522108 -0.999417 0.033873 0.004150
0.440719 0.154566 0.544438 -0.996531 0.065897 0.050825
0.506373 0.063608 0.086792 0.040136 0.900238 -0.433545
0.418358 0.079301 0.173468 -0.238841 -0.942374 0.234278
0.469267 0.135230 0.643872 -0.642444 -0.467944 0.606872
0.787252 0.327401 0.430148 -0.410145 0.854581 -0.318548
0.727644 0.260871 0.395699 0.547703 -0.776517 0.311518
0.469046 0.058764 0.106311 -0.050475 -0.987501 0.149311
0.483334 0.203219 0.699295 -0.763447 0.055878 0.643449
0.321438 0.261880 0.460054 -0.505046 -0.838030 0.206479
0.632379 0.248630 0.452350 -0.460784 0.810855 -0.360822
0.258583 0.306176 0.493148 -0.486239 -0.815349 0.314289
0.369258 0.267077 0.521547 0.515301 0.846098 -0.136316
0.170643 0.317921 0.382747 -0.499030 -0.852016 0.158235
0.397236 0.220889 0.560385 -0.664668 -0.686942 0.293814
0.820264 0.356725 0.477953 -0.424156 0.872732 -0.241725
0.282326 0.241395 0.376060 -0.525571 -0.773156 0.354971
0.142670 0.332569 0.386190 -0.501474 -0.850687 0.157657
0.459843 0.183783 0.647161 -0.932914 0.139707 0.331894
0.771842 0.326854 0.514635 0.490487 -0.748913 0.445592
0.424150 0.045660 0.047229 -0.392490 -0.580339 -0.713554
0.468157 0.125670 0.631103 -0.636193 -0.546394 0.544713
0.530209 0.129136 0.260396 0.646889 0.665258 -0.372783
0.275393 0.287963 0.407597 0.466090 0.773688 -0.429147
0.298068 0.236375 0.385446 -0.487558 -0.794875 0.361195
0.328222 0.230626 0.405876 -0.433005 -0.839022 0.329468
0.505629 0.051658 0.088807 -0.031545 -0.989220 0.142996
0.909661 0.367314 0.399424 0.508679 -0.835838 0.206447
0.632629 0.264671 0.497132 -0.479206 0.846260 -0.232820
0.407909 0.078265 0.139451 -0.121235 0.927970 -0.352384
0.750352 0.302847 0.467397 0.473925 -0.843732 0.252015
0.283950 0.310368 0.551115 -0.537153 -0.743086 0.399112
0.626123 0.182749 0.330717 -0.203569 0.808857 -0.551643
0.407676 0.209344 0.438674 -0.450044 -0.842437 0.296244
0.518700 0.095982 0.310724 0.460756 -0.885540 -0.059347
0.726892 0.259644 0.395274 0.549623 -0.773077 0.316648
0.589449 0.220082 0.481207 0.497773 -0.853277 0.155374
0.811112 0.307836 0.353224 -0.387494 0.794596 -0.467403
0.282955 0.239058 0.373825 -0.517230 -0.775123 0.362847
0.964786 0.430086 0.491046 -0.018432 0.534593 0.844908
0.452454 0.070233 0.499970 -0.748041 -0.543239 0.381216
0.273766 0.303583 0.444249 0.451879 0.849839 -0.271256
0.401997 0.091233 0.181462 -0.235841 0.932658 -0.272997
0.467431 0.089243 0.333472 -0.515430 -0.818820 -0.252717
0.751015 0.313164 0.437387 -0.409460 0.837982 -0.360733
0.480172 0.050578 0.040440 -0.035869 0.884366 -0.465414
0.743010 0.319362 0.475165 -0.430735 0.877702 -0.210014
0.683200 0.288890 0.483746 -0.473814 0.848437 -0.235912
0.030662 0.426606 0.471380 -0.553069 -0.785136 0.278704
0.464726 0.119635 0.321709 -0.992457 -0.116993 -0.036629
0.412992 0.219609 0.443584 0.430901 0.847745 -0.309277
0.050423 0.420613 0.485489 -0.561130 -0.756866 0.335093
0.820597 0.297534 0.349677 0.537093 -0.819615 0.199406
0.424510 0.237099 0.579228 0.351310 0.852797 0.386417
0.690779 0.288320 0.548932 0.494565 -0.446222 0.745849
0.464596 0.054000 0.086311 -0.050934 -0.989541 0.134961
0.880084 0.375284 0.437599 -0.399125 0.873799 -0.277802
0.431883 0.138779 0.429882 -0.983375 0.171818 -0.058762
0.962546 0.420883 0.442762 -0.378283 0.889796 -0.255275
0.497703 0.150501 0.665164 -0.106766 -0.593347 0.797835
0.439628 0.058298 0.103522 -0.067724 -0.988203 0.137362
0.248901 0.304195 0.412606 0.406593 0.819660 -0.403534
0.457554 0.111952 0.322695 -0.964130 -0.009807 -0.265249
0.560795 0.080803 0.451256 0.917163 -0.392827 -0.067079
0.140283 0.359951 0.466994 -0.497447 -0.835233 0.234379
0.618300 0.246323 0.582184 0.419913 -0.147049 0.895572
0.659280 0.209090 0.356567 -0.248855 0.797129 -0.550143
0.744133 0.270364 0.388949 0.523365 -0.804497 0.280845
0.531086 0.045323 0.035529 0.423488 -0.394866 -0.815315
0.560593 0.154950 0.570991 0.994229 -0.088106 0.061202
0.232595 0.322159 0.440409 0.409637 0.864206 -0.292141
0.569550 0.071007 0.116604 0.141408 0.911918 -0.385239
0.523878 0.105133 0.226343 0.202830 0.922974 -0.327076
0.061638 0.389456 0.415332 -0.514790 -0.842098 0.160814
0.909596 0.361402 0.385513 0.515039 -0.834218 0.197017
0.345157 0.242173 0.412502 0.427945 0.781897 -0.453322
0.610700 0.167869 0.309560 -0.239252 0.823018 -0.515170
0.612900 0.236235 0.503438 0.510773 -0.850747 0.123856
0.897883 0.400752 0.497739 -0.377247 0.926044 0.011326
0.786192 0.299150 0.398620 0.501333 -0.832688 0.235151
0.087405 0.367458 0.376406 0.302313 0.845319 -0.440503
0.358513 0.246328 0.476121 -0.512383 -0.844557 0.155523
0.526448 0.056229 0.096401 0.120821 -0.984118 0.130050
0.232145 0.308105 0.454667 -0.456293 -0.851716 0.257636
0.269451 0.247345 0.352194 0.499200 0.549458 -0.669997
0.467175 0.076234 0.523974 -0.380486 -0.838399 0.390280
0.498914 0.039237 0.432383 0.022469 -0.999296 -0.030040
0.402671 0.245910 0.504034 0.491771 0.844354 -0.212666
0.417897 0.054216 0.085841 -0.077806 -0.987615 0.136249
0.142261 0.368057 0.452161 0.407852 0.874327 -0.263078
0.887699 0.363598 0.428870 0.509818 -0.833205 0.214137
0.372941 0.178383 0.335513 -0.287352 -0.900732 0.325748
0.736721 0.311298 0.518606 0.507316 -0.783699 0.358394
0.465555 0.119439 0.266063 -0.347066 0.871398 -0.346713
0.795256 0.330708 0.486372 0.472352 -0.844207 0.253374
0.041824 0.418255 0.462401 -0.559619 -0.797609 0.225046
0.560646 0.202214 0.482376 0.743991 -0.661244 0.096095
0.568640 0.231019 0.545493 -0.494013 0.869451 -0.002581
0.379512 0.243312 0.580587 -0.564658 -0.325890 0.758259
0.734837 0.242650 0.353453 0.473722 -0.869054 0.142595
0.768827 0.318794 0.489975 0.473836 -0.816159 0.330702
0.542007 0.155444 0.346019 0.760746 0.574161 -0.302662
0.760487 0.286299 0.405127 0.479692 -0.839790 0.254260
0.681158 0.276165 0.438409 -0.471255 0.809693 -0.349737
0.327120 0.274900 0.455582 0.492640 0.818199 -0.296407
0.406243 0.057673 0.103728 -0.204558 -0.961456 0.183736
0.439183 0.072623 0.123028 -0.131768 0.922190 -0.363598
0.497287 0.215607 0.562988 0.041900 0.999066 -0.010552
0.394678 0.078207 0.136984 -0.188075 0.927288 -0.323675
0.282833 0.238317 0.372739 -0.515118 -0.775723 0.364566
0.533340 0.197636 0.475127 -0.214271 0.963352 -0.161372
0.319373 0.277345 0.446562 0.486711 0.816838 -0.309658
0.278569 0.295409 0.426060 0.450466 0.824325 -0.342882
0.859255 0.377722 0.485756 -0.422591 0.883767 -0.200928
0.442190 0.185201 0.545408 -0.926029 -0.374079 0.050345
0.860973 0.375151 0.470492 -0.422500 0.869221 -0.256806
0.552037 0.143547 0.618524 0.865302 -0.324504 0.382034
0.511034 0.108831 0.212483 0.223529 0.887383 -0.403220
0.552767 0.070818 0.494650 0.866769 -0.397447 0.301242
0.438437 0.204998 0.497622 -0.752663 -0.658316 -0.010839
0.690733 0.261821 0.440599 0.496342 -0.796274 0.345821
0.543962 0.090485 0.231024 0.208401 -0.942134 0.262589
0.060117 0.422068 0.490803 0.259801 0.833633 0.487401
0.449655 0.172890 0.448954 -0.980138 -0.178402 0.086619
0.431697 0.088766 0.435885 -0.961875 -0.263714 -0.072470
0.506451 0.161564 0.293864 0.085194 0.899530 -0.428471
0.233155 0.329996 0.535065 -0.504899 -0.748497 0.429917
0.498241 0.206700 0.416545 0.012577 0.976933 -0.213177
0.309882 0.259512 0.403411 0.526283 0.605307 -0.597185
0.344714 0.252851 0.498138 -0.532698 -0.834615 0.140183
0.506661 0.202291 0.398608 0.011856 0.968546 -0.248551
0.430512 0.098981 0.449764 -0.977842 -0.209178 -0.008294
0.128705 0.343815 0.361631 0.282355 0.800759 -0.528262
0.839357 0.318768 0.376220 0.505404 -0.835398 0.216048
0.569837 0.136816 0.413922 0.984312 0.141592 -0.105265
0.438843 0.140988 0.567878 -0.991989 -0.066638 0.107319
0.159550 0.361712 0.459688 0.412992 0.873271 -0.258523
0.613333 0.185270 0.341049 -0.283992 0.829701 -0.480566
0.690605 0.268620 0.461156 0.497610 -0.847588 0.184331
0.462507 0.192722 0.663215 -0.928870 -0.094393 0.358178
0.672768 0.277267 0.454748 -0.476345 0.823489 -0.308158
0.559109 0.217941 0.492210 -0.349572 0.918976 -0.182434
0.696434 0.302632 0.506183 -0.446271 0.880587 -0.159403
0.628760 0.243221 0.488455 0.500941 -0.855539 0.130810
0.400177 0.185987 0.352015 0.259439 0.837994 -0.480061
0.526052 0.182040 0.674923 0.684147 -0.517707 0.513733
0.589379 0.212080 0.575116 0.647129 -0.571921 0.504113
0.569365 0.126802 0.437107 0.996471 0.040899 -0.073300
0.425023 0.198658 0.405658 0.401755 0.848939 -0.343360
0.961740 0.410004 0.436476 0.556520 -0.781958 0.280762
0.551395 0.098907 0.215792 0.096048 0.941736 -0.322347
0.813743 0.358945 0.508290 -0.423965 0.899922 -0.101951
0.124177 0.369476 0.424720 0.381839 0.859188 -0.340582
0.594440 0.188591 0.360485 -0.291136 0.839728 -0.458364
0.539905 0.138905 0.637787 0.643680 -0.500466 0.578973
0.641497 0.233482 0.405536 -0.295389 0.804376 -0.515485
0.466641 0.194545 0.672405 -0.893339 -0.211829 0.396326
0.663826 0.256225 0.496584 0.525775 -0.831079 0.181297
0.450694 0.069770 0.151696 -0.066395 -0.982865 0.171952
0.553147 0.215905 0.516155 -0.405378 0.906654 -0.116821
0.538441 0.074258 0.517067 0.372852 -0.808320 0.455631
0.255926 0.310335 0.502680 -0.493343 -0.806211 0.326551
0.172841 0.333388 0.435034 -0.489909 -0.840924 0.229859
0.224754 0.339184 0.496678 0.389991 0.920208 -0.033524
0.464726 0.042698 0.455867 -0.235604 -0.963504 0.127082
0.546093 0.059204 0.487710 0.463267 -0.750630 0.471104
0.747480 0.298340 0.407136 -0.434714 0.801517 -0.410602
0.088935 0.373702 0.414325 -0.516345 -0.833539 0.196469
0.521480 0.199933 0.443719 -0.075961 0.974310 -0.212016
0.538566 0.050607 0.072352 0.110675 -0.985886 0.125618
0.459698 0.113801 0.605733 -0.705423 -0.606104 0.367445
0.630292 0.232316 0.539965 0.615045 -0.778331 0.126175
0.436180 0.223980 0.513354 0.445056 0.881274 -0.159003
0.922732 0.408843 0.499700 0.034210 0.431590 0.901421
0.543772 0.179790 0.392169 0.691385 0.661566 -0.290374
0.508029 0.248743 0.647765 0.166297 0.985740 -0.025711
0.555963 0.174290 0.591861 0.979572 0.060282 0.191846
0.494396 0.078308 0.552839 -0.099175 -0.932083 0.348405
0.475367 0.083866 0.211218 -0.058508 -0.975858 0.210423
0.457239 0.161448 0.648937 -0.823099 -0.254507 0.507676
0.346908 0.212094 0.364904 0.287615 0.787223 -0.545488
0.555609 0.187876 0.404529 -0.287179 0.902972 -0.319641
0.213254 0.311203 0.386523 0.374097 0.797870 -0.472710
0.432725 0.227721 0.535744 0.487382 0.869210 -0.083264
0.163850 0.364705 0.478574 0.435685 0.863430 -0.254298
0.552782 0.112743 0.259243 0.284039 0.918432 -0.275327
0.355661 0.199753 0.350736 0.266242 0.793486 -0.547262
0.497417 0.166754 0.671524 -0.119301 -0.564269 0.816926
0.732124 0.270176 0.404270 0.514458 -0.802664 0.301766
0.872093 0.350180 0.414968 0.503496 -0.836741 0.215306
0.920661 0.399297 0.446043 -0.404506 0.865788 -0.294593
0.451814 0.194157 0.503083 -0.829570 -0.554434 -0.066454
0.874687 0.362554 0.407942 -0.381850 0.857364 -0.345134
0.665550 0.222872 0.393253 0.352929 -0.853899 0.382488
0.512689 0.216807 0.705346 0.480531 0.260735 0.837321
0.605644 0.250008 0.497536 -0.472478 0.846548 -0.245195
0.493749 0.083428 0.223122 -0.127558 -0.976141 0.175721
0.600310 0.052594 0.082205 0.181624 -0.965435 0.186943
0.721152 0.281374 0.446483 0.489580 -0.844555 0.216884
0.559979 0.140514 0.532969 0.994486 -0.089679 0.054356
0.456911 0.086883 0.527499 -0.647614 -0.639280 0.414629
0.556541 0.063269 0.432388 0.756043 -0.569046 -0.323396
0.821422 0.319499 0.370648 -0.374500 0.808124 -0.454628
0.483661 0.075895 0.180039 -0.092730 -0.976642 0.193833
0.473937 0.227580 0.693296 -0.747360 0.167327 0.643005
0.588218 0.239524 0.522560 -0.469274 0.872130 -0.138459
0.577101 0.194247 0.419053 0.507762 -0.816124 0.275898
0.343916 0.259074 0.549570 -0.615533 -0.714948 0.331613
0.688596 0.298755 0.508345 -0.451802 0.877491 -0.160890
0.586721 0.085635 0.164989 0.124481 0.934932 -0.332276
0.535067 0.088534 0.229006 0.104771 -0.968948 0.223968
0.501407 0.072110 0.171783 -0.056632 -0.981341 0.183745
0.437886 0.051584 0.427378 -0.981011 -0.062495 -0.183608
0.321862 0.255775 0.444927 -0.470970 -0.837248 0.277853
0.476980 0.230221 0.694895 -0.619997 0.329033 0.712279
0.584327 0.236143 0.499690 -0.420945 0.883855 -0.203976
0.201688 0.346821 0.480632 0.429111 0.866889 -0.253708
0.581046 0.052845 0.052582 0.157739 0.839524 -0.519921
0.494493 0.120395 0.218471 -0.148206 0.878741 -0.453706
0.608573 0.078940 0.165926 0.192910 -0.958391 0.210412
0.189960 0.316574 0.371114 0.354872 0.785559 -0.506915
0.960768 0.413943 0.449253 0.573863 -0.781707 0.244162
0.724561 0.289585 0.467588 0.497190 -0.830948 0.249656
0.445535 0.174517 0.615813 -0.927451 0.211039 0.308702
0.552333 0.081901 0.510564 0.877525 -0.398741 0.266374
0.533673 0.184939 0.382303 0.563507 0.764923 -0.312013
0.938021 0.383283 0.395437 0.640228 -0.761386 0.101980
0.526834 0.092755 0.576895 0.455643 -0.815081 0.357816
0.526276 0.206049 0.688384 0.842022 -0.079236 0.533593
0.085280 0.365376 0.389327 -0.505862 -0.835313 0.215305
0.435179 0.093438 0.460429 -0.955112 -0.296243 0.000458
0.527269 0.080206 0.196359 0.141033 -0.970322 0.196428
0.548914 0.066673 0.493601 0.717558 -0.563978 0.408704
0.515545 0.082581 0.208515 0.087921 -0.974204 0.207836
0.442837 0.173386 0.587745 -0.987854 -0.007422 0.155204
0.221481 0.318803 0.473041 -0.458341 -0.840327 0.289437
0.320393 0.295276 0.508843 0.470280 0.867656 -0.161278
0.536134 0.048069 0.061743 0.115890 -0.986677 0.114182
0.509009 0.073256 0.340210 0.264268 -0.900562 -0.345182
0.399537 0.247871 0.514651 0.499000 0.849333 -0.172142
0.337248 0.221278 0.392684 -0.346739 -0.856593 0.382125
0.785024 0.293400 0.356870 -0.417710 0.759101 -0.499284
0.287929 0.261354 0.416133 -0.516085 -0.769769 0.375648
0.341605 0.282235 0.509631 0.504898 0.845611 -0.173265
0.487389 0.092140 0.184727 -0.076348 0.925298 -0.371476
0.422202 0.214601 0.512677 -0.632901 -0.773340 0.037160
0.504369 0.146772 0.261553 0.014097 0.883133 -0.468911
0.438847 0.139831 0.506303 -0.997528 0.058114 0.039506
0.367928 0.261191 0.575870 -0.163448 0.366451 0.915969
0.468010 0.233446 0.679275 -0.909967 0.224938 0.348371
0.331110 0.250622 0.445647 -0.465724 -0.839189 0.280827
0.427556 0.074344 0.129826 -0.114108 0.926188 -0.359382
0.446582 0.120019 0.574054 -0.894040 -0.375779 0.243889
0.635856 0.170433 0.315371 0.289733 -0.889618 0.353036
0.549703 0.074017 0.384964 0.829460 -0.511971 -0.223342
0.410935 0.085873 0.194211 -0.198864 -0.956138 0.215067
0.620529 0.265744 0.540162 -0.498659 0.866251 -0.030799
0.505075 0.246735 0.637974 0.144291 0.971339 -0.188893
0.243169 0.286175 0.409889 -0.505880 -0.825690 0.249642
0.542149 0.068335 0.387288 0.715887 -0.658433 -0.232316
0.414562 0.167969 0.323622 0.354393 0.813146 -0.461734
0.572658 0.212609 0.446006 -0.425862 0.842384 -0.330198
0.640773 0.263666 0.472384 -0.473867 0.833393 -0.284440
0.628823 0.070727 0.135568 0.257572 -0.919977 0.295465
0.548511 0.068339 0.105123 0.128450 0.902043 -0.412091
0.309124 0.297278 0.560256 -0.594289 -0.551018 0.585833
0.556512 0.173489 0.395056 0.600118 -0.754836 0.264728
0.961859 0.413589 0.446302 0.570027 -0.781218 0.254493
0.887306 0.365522 0.433921 0.510368 -0.833208 0.212809
0.088739 0.406586 0.483236 0.416553 0.898680 -0.137324
0.662243 0.190011 0.335443 0.434104 -0.821473 0.369778
0.405675 0.055695 0.094750 -0.180845 -0.968368 0.171926
0.387715 0.209890 0.409972 -0.408441 -0.845215 0.344657
0.229581 0.287695 0.394379 -0.510233 -0.825719 0.240521
0.238798 0.315193 0.489961 -0.478034 -0.822351 0.308581
0.415206 0.082808 0.184753 -0.217905 -0.949619 0.225257
0.680397 0.309884 0.551460 -0.489989 0.866732 0.093202
0.478792 0.085845 0.163251 -0.136847 0.914953 -0.379649
0.751881 0.300477 0.456190 0.468083 -0.836627 0.284523
0.507566 0.084714 0.571577 0.123260 -0.917486 0.378188
0.076135 0.398325 0.438285 0.394713 0.848862 -0.351617
0.169686 0.341256 0.406692 0.377454 0.858317 -0.347593
0.663314 0.294128 0.536933 -0.494230 0.869027 -0.022997
0.473852 0.049517 0.036431 -0.049700 0.883959 -0.464915
0.547674 0.127765 0.323765 0.901114 0.338138 -0.271396
0.433848 0.130770 0.466674 -0.998299 0.058131 -0.004431
0.430764 0.127841 0.437101 -0.996001 0.075598 -0.047622
0.568324 0.130070 0.442815 0.996341 0.052473 -0.067469
0.395334 0.072811 0.144252 -0.205079 -0.953514 0.220804
0.555925 0.107131 0.519827 0.938733 -0.323309 0.119381
0.610180 0.063704 0.088118 0.108229 0.918225 -0.380984
0.443931 0.128835 0.577252 -0.937132 -0.276573 0.212816
0.354510 0.224563 0.389077 0.303848 0.796830 -0.522243
0.328162 0.292657 0.564149 -0.162169 0.320626 0.933220
0.545990 0.073945 0.125164 0.137956 0.907655 -0.396396
0.562456 0.093618 0.395246 0.949542 -0.261788 -0.172732
0.728498 0.306382 0.516395 0.513828 -0.781944 0.352908
0.913049 0.401415 0.467465 -0.398594 0.890390 -0.219836
0.450849 0.070078 0.497662 -0.784254 -0.501056 0.365909
0.931326 0.408141 0.483637 0.571641 -0.768055 0.288648
0.554503 0.087854 0.377084 0.896151 -0.378201 -0.232116
0.527424 0.207263 0.536999 -0.062537 0.997719 -0.025427
0.560151 0.158342 0.390638 0.884218 -0.443997 0.145000
0.555664 0.165779 0.455243 0.995690 -0.017378 -0.091100
0.484605 0.051781 0.044820 -0.025607 0.885099 -0.464697
0.114118 0.375747 0.427564 0.394271 0.868569 -0.300232
0.372469 0.246847 0.573207 -0.608767 -0.451403 0.652409
0.210304 0.347174 0.504939 0.375273 0.926003 0.041088
0.861866 0.370629 0.498825 0.528087 -0.812729 0.246161
0.575821 0.097043 0.204884 0.159580 0.941530 -0.296742
0.461764 0.106749 0.243580 -0.096420 0.944418 -0.314291
0.283060 0.250710 0.390271 -0.515009 -0.775826 0.364498
0.699525 0.243395 0.377437 -0.494487 0.638682 -0.589549
0.756290 0.278198 0.359806 -0.460438 0.653115 -0.601197
0.501487 0.078649 0.338846 0.081880 -0.913293 -0.398989
0.781368 0.329504 0.443921 -0.413155 0.865132 -0.284340
0.499247 0.034399 0.451375 0.012582 -0.999096 0.040598
0.469162 0.100770 0.592782 -0.556622 -0.733706 0.389676
0.553573 0.171605 0.366323 -0.421928 0.830930 -0.362674
0.232979 0.319330 0.495138 -0.479569 -0.812995 0.330231
0.396872 0.059777 0.075867 -0.122444 0.916876 -0.379929
0.404748 0.223386 0.482109 -0.506625 -0.848921 0.150546
0.927420 0.402016 0.468990 0.552668 -0.803282 0.222026
0.467101 0.074411 0.123842 -0.135433 0.909464 -0.393108
0.421638 0.093051 0.223343 -0.294794 -0.935239 0.196019
0.600294 0.067807 0.103559 0.108502 0.920329 -0.375794
0.319965 0.261508 0.512696 -0.541032 -0.824314 0.166707
0.563314 0.109972 0.487731 0.980060 -0.198527 0.008290
0.157821 0.343354 0.396735 0.366358 0.852072 -0.373837
0.533536 0.071538 0.160339 0.111704 -0.976346 0.185125
0.538979 0.082743 0.527246 0.493292 -0.741280 0.455156
0.445295 0.175117 0.401139 -0.686884 -0.682003 0.251123
0.369701 0.236453 0.423598 0.454072 0.801620 -0.388876
0.570892 0.227647 0.517815 -0.430453 0.893348 -0.128995
0.439145 0.143456 0.553499 -0.996608 -0.011777 0.081451
0.450471 0.078034 0.185324 -0.127584 -0.970815 0.203077
0.724443 0.306562 0.523912 0.519875 -0.770975 0.367869
0.537946 0.208416 0.641520 0.972502 0.232841 -0.005016
0.454267 0.029533 0.443466 0.078877 -0.992325 -0.095239
0.408371 0.052477 0.058205 -0.376159 0.593974 -0.711125
0.516440 0.126538 0.647554 0.319053 -0.664602 0.675655
0.163289 0.354035 0.437781 0.386987 0.858047 -0.337633
0.112209 0.369636 0.407941 0.353158 0.836132 -0.419717
0.054164 0.400004 0.411992 0.380858 0.877765 -0.290646
0.257537 0.304807 0.424624 0.409255 0.832337 -0.373799
0.504321 0.189837 0.721468 0.349785 0.616020 0.705812
0.569968 0.122088 0.438857 0.997564 0.008021 -0.069300
0.952912 0.415763 0.442803 -0.385656 0.881988 -0.270864
0.160381 0.370533 0.513617 0.228356 0.843315 0.486491
0.294504 0.287654 0.510846 -0.532760 -0.794977 0.290135
0.547107 0.191718 0.476317 0.906446 -0.419074 0.052281
0.466670 0.094088 0.562843 -0.579765 -0.740647 0.339581
0.086743 0.381090 0.438466 -0.515996 -0.829492 0.213755
0.357079 0.218755 0.401784 -0.337500 -0.845404 0.413988
0.526874 0.169937 0.338629 0.535403 0.774978 -0.335787
0.649228 0.198406 0.358660 0.386081 -0.845828 0.368127
0.398025 0.167717 0.312582 0.267669 0.814270 -0.515091
0.426820 0.096398 0.237795 -0.334217 -0.921010 0.200097
0.390297 0.228161 0.563977 -0.661793 -0.634353 0.399533
0.744459 0.309552 0.435567 -0.417605 0.830176 -0.369343
0.264177 0.303574 0.494118 -0.493921 -0.806264 0.325546
0.559520 0.199602 0.468223 0.690139 -0.705688 0.160351
0.063192 0.401041 0.427584 0.387968 0.858223 -0.336056
0.600615 0.257197 0.571775 -0.415016 0.845452 0.336113
0.428868 0.223598 0.482395 0.426442 0.873767 -0.233834
0.488230 0.042722 0.430019 -0.106482 -0.993645 -0.036496
0.453572 0.164310 0.642008 -0.880230 -0.151321 0.449775
0.555433 0.064424 0.480733 0.907255 -0.338349 0.249818
0.411249 0.207501 0.547323 -0.632778 -0.764495 0.123042
0.531716 0.090051 0.182328 0.154588 0.925914 -0.344653
0.402980 0.249011 0.547278 0.483267 0.875101 0.025518
0.713150 0.302958 0.533275 0.532639 -0.755405 0.381654
0.577766 0.199693 0.563222 0.702305 -0.699522 0.132047
0.402832 0.226434 0.446826 0.440712 0.841726 -0.311882
0.324342 0.261946 0.476826 -0.521712 -0.834991 0.174946
0.671273 0.260586 0.471280 0.500615 -0.849010 0.169016
0.601156 0.062984 0.113502 0.238959 -0.942169 0.234981
0.283498 0.277169 0.442444 -0.507325 -0.820494 0.263460
0.427826 0.058200 0.070772 -0.128340 0.911628 -0.390465
0.432049 0.228180 0.535843 0.487487 0.869269 -0.082027
0.155892 0.333142 0.368687 0.330925 0.807828 -0.487752
0.911100 0.400693 0.499254 0.518770 -0.616361 0.592433
0.540100 0.079309 0.190671 0.099703 -0.973301 0.206749
0.584576 0.235002 0.503201 -0.384128 0.909504 -0.158896
0.440014 0.136692 0.525259 -0.997620 0.009098 0.068346
0.227244 0.320604 0.428451 0.400202 0.850753 -0.340672
0.544737 0.191511 0.493061 0.919770 -0.391688 -0.024561
0.368912 0.066505 0.098609 -0.794149 0.442659 -0.416390
0.915423 0.408206 0.489767 -0.376998 0.925514 -0.036006
0.497346 0.188778 0.723635 -0.160114 0.673728 0.721425
0.558510 0.048635 0.422755 0.725383 -0.274386 -0.631294
0.676523 0.293809 0.514627 -0.457376 0.875930 -0.153471
0.542784 0.056512 0.488588 0.237962 -0.841824 0.484464
0.654940 0.193454 0.346437 0.417400 -0.831043 0.367619
0.112888 0.387930 0.506521 -0.517766 -0.714835 0.470031
0.734660 0.315032 0.476892 -0.437155 0.873692 -0.213440
0.727920 0.306284 0.455164 -0.453912 0.847633 -0.274738
0.585818 0.219200 0.443906 -0.432463 0.832633 -0.345973
0.507230 0.088034 0.582239 0.114379 -0.909007 0.400778
0.393988 0.222840 0.461906 -0.478801 -0.845855 0.235113
0.289786 0.319736 0.531921 0.406700 0.909192 -0.089244
0.492623 0.233180 0.615637 -0.189125 0.875358 -0.444949
0.655836 0.203120 0.362681 0.358143 -0.846981 0.392883
0.579138 0.067537 0.141847 0.196526 -0.954362 0.224881
0.620209 0.239699 0.492391 0.501472 -0.856312 0.123516
0.746847 0.321568 0.538778 0.514863 -0.717560 0.469066
0.792653 0.333097 0.438110 -0.401071 0.863672 -0.305307
0.440032 0.062441 0.427017 -0.902318 -0.351185 -0.249982
0.371307 0.231510 0.539931 -0.593703 -0.793288 0.134948
0.926955 0.402489 0.472008 0.552805 -0.803412 0.221216
0.764256 0.289295 0.408872 0.483575 -0.835381 0.261333
0.617588 0.238597 0.493979 0.502071 -0.856234 0.121608
0.719892 0.298817 0.506079 0.517742 -0.789112 0.330521
0.825409 0.327603 0.417142 0.491130 -0.840263 0.229672
0.783783 0.327578 0.496412 0.473990 -0.781604 0.405499
0.472978 0.223210 0.690728 -0.845013 0.000823 0.534746
0.084293 0.382820 0.439681 -0.520806 -0.824064 0.222888
0.586233 0.211935 0.458317 0.501253 -0.838768 0.212633
0.933856 0.388887 0.426480 0.508594 -0.834184 0.213238
0.410644 0.186149 0.357394 0.318522 0.836974 -0.444993
0.356452 0.181830 0.321433 0.162784 0.769939 -0.617005
0.544594 0.196654 0.599177 0.920971 0.372334 0.114804
0.095382 0.368673 0.410039 -0.519693 -0.828123 0.210075
0.315617 0.238779 0.386100 0.456091 0.686239 -0.566619
0.557429 0.162204 0.525205 0.997809 0.065464 0.009524
0.242241 0.284818 0.404927 -0.510558 -0.825349 0.241102
0.919684 0.390643 0.424383 -0.386929 0.866214 -0.316164
0.268728 0.318614 0.490350 0.418685 0.892682 -0.166798
0.476300 0.045703 0.052974 -0.054894 -0.991100 0.121272
0.591903 0.101126 0.226475 0.738070 0.674635 0.010956
0.855931 0.369760 0.505974 0.518375 -0.788679 0.330564
0.631619 0.069132 0.132230 0.331147 -0.896453 0.294472
0.578504 0.085676 0.166655 0.097849 0.933716 -0.344384
0.276422 0.285708 0.456206 -0.499306 -0.823549 0.269185
0.448973 0.100109 0.254664 -0.238426 -0.942991 0.232208
0.689105 0.305117 0.525806 -0.433199 0.895438 -0.102610
0.611270 0.073157 0.143540 0.155020 -0.958567 0.238993
0.802132 0.325454 0.403491 -0.385130 0.826757 -0.410058
0.584558 0.205073 0.547884 0.658408 -0.752400 0.019837
0.411489 0.067228 0.102947 -0.107314 0.921716 -0.372724
0.566448 0.145736 0.435568 0.983245 0.162905 -0.081799
0.680546 0.260873 0.453860 0.506948 -0.813492 0.285017
0.520567 0.169358 0.328943 0.461987 0.819587 -0.338887
0.472962 0.172150 0.344242 -0.492095 0.792911 -0.359354
0.540749 0.054553 0.088899 0.104519 -0.984410 0.141465
0.723830 0.287743 0.462746 0.495489 -0.835022 0.239227
0.437874 0.048498 0.062602 -0.064617 -0.992597 0.102837
0.448303 0.081510 0.377214 -0.836871 -0.490231 -0.243557
0.263213 0.313845 0.527715 -0.514202 -0.773668 0.370182
0.271351 0.241538 0.348419 0.483942 0.532669 -0.694308
0.480148 0.056117 0.384981 -0.223674 -0.954280 -0.198293
0.372623 0.257852 0.489291 0.502129 0.828364 -0.248352
0.426587 0.172040 0.345263 0.374481 0.827036 -0.419256
0.466246 0.044216 0.450871 -0.295525 -0.954928 0.027897
0.882962 0.390374 0.506470 -0.099531 0.659723 0.744888
0.444779 0.138230 0.601907 -0.930244 -0.263327 0.255548
0.560293 0.056402 0.062828 0.117526 0.885167 -0.450185
0.599555 0.232101 0.587335 0.449758 -0.173097 0.876216
0.388559 0.079858 0.174243 -0.291151 -0.920378 0.261027
0.620579 0.080611 0.147234 0.339460 0.908304 -0.244440
0.225055 0.333764 0.534876 -0.500906 -0.745040 0.440465
0.390193 0.222898 0.554008 -0.645707 -0.732471 0.215750
0.818650 0.316850 0.400514 0.502958 -0.834345 0.225614
0.460102 0.121395 0.290505 -0.235113 0.932007 -0.275836
0.436566 0.118038 0.384855 -0.987432 0.070836 -0.141279
0.174684 0.310617 0.368281 -0.503261 -0.847054 0.170963
0.791784 0.331212 0.495897 0.470325 -0.771690 0.428122
0.309513 0.294611 0.557071 -0.596800 -0.587950 0.546027
0.568839 0.152027 0.314429 -0.126566 -0.991953 -0.003172
0.191069 0.331871 0.410480 0.380865 0.849728 -0.364560
0.660454 0.252951 0.463928 0.508636 -0.821376 0.258129
0.561285 0.145928 0.566370 0.991851 -0.096542 0.083133
0.449344 0.109338 0.561626 -0.856082 -0.452942 0.248931
0.763327 0.330356 0.480051 -0.420593 0.890921 -0.171353
0.104991 0.391762 0.501866 -0.525660 -0.753339 0.395173
0.407810 0.096374 0.207182 -0.388772 0.897735 -0.207192
0.404787 0.075130 0.128490 -0.123248 0.926092 -0.356599
0.533280 0.070140 0.510149 0.345212 -0.890081 0.297632
0.439283 0.113760 0.374065 -0.985292 0.048609 -0.163819
0.441575 0.167913 0.555800 -0.997560 -0.028567 0.063709
0.562709 0.053097 0.413387 0.954345 -0.003728 -0.298684
0.529352 0.202550 0.503287 -0.222508 0.970147 -0.096466
0.719685 0.287197 0.468016 0.501747 -0.828092 0.250027
0.443755 0.051365 0.044382 -0.120950 0.899619 -0.419592
0.428326 0.047186 0.056844 -0.069248 -0.992151 0.104117
0.738728 0.299239 0.418205 -0.437235 0.806860 -0.397244
0.442396 0.054434 0.055257 -0.132231 0.902825 -0.409173
0.530869 0.112532 0.619817 0.524069 -0.718034 0.458016
0.590499 0.201167 0.417128 0.466092 -0.832790 0.298695
0.261638 0.330504 0.526913 0.393702 0.918852 -0.026654
0.286570 0.254157 0.375578 0.515046 0.577785 -0.633161
0.559168 0.095393 0.482871 0.941031 -0.338238 0.007465
0.667066 0.228677 0.404754 0.398283 -0.839636 0.369299
0.497581 0.037100 0.442335 -0.011078 -0.999899 0.008865
0.915036 0.378439 0.393081 -0.361502 0.851496 -0.379831
0.387783 0.081125 0.145936 -0.227429 0.930908 -0.285809
0.713906 0.313126 0.506699 -0.428402 0.892921 -0.138432
0.136301 0.355687 0.406520 0.371229 0.855570 -0.360818
0.573466 0.102628 0.435015 0.991868 -0.110071 -0.063888
0.383442 0.079242 0.175420 -0.329571 -0.893646 0.304598
0.880270 0.352190 0.404419 0.495365 -0.843647 0.207058
0.924584 0.401360 0.445482 -0.403084 0.865710 -0.296764
0.478121 0.214437 0.592147 -0.459395 0.826933 -0.324250
0.545173 0.158969 0.361094 0.779989 0.557193 -0.284874
0.429515 0.193995 0.565464 -0.778974 -0.558687 0.284725
0.180192 0.306103 0.364086 -0.507819 -0.842237 0.180987
0.824527 0.362154 0.496035 -0.437159 0.878339 -0.193422
0.508198 0.052822 0.385900 0.139720 -0.963911 -0.226612
0.644922 0.272160 0.500612 -0.483195 0.847718 -0.218852
0.421393 0.227418 0.586037 -0.032843 0.571627 0.819856
0.611548 0.200745 0.371507 -0.315423 0.834797 -0.451246
0.505526 0.061478 0.348184 0.186280 -0.920143 -0.344438
0.646721 0.223372 0.408229 0.335423 -0.850574 0.404987
0.511934 0.081322 0.555802 0.199207 -0.916743 0.346264
0.831340 0.333075 0.385876 -0.376062 0.824257 -0.423294
0.554570 0.103495 0.521581 0.921003 -0.364139 0.138406
0.796795 0.324123 0.457278 0.459262 -0.853754 0.245321
0.709926 0.286323 0.492143 0.520429 -0.806924 0.279335
0.057145 0.407598 0.461458 -0.543033 -0.804462 0.240741
0.573098 0.208289 0.433584 -0.385300 0.859716 -0.335311
0.797105 0.339544 0.517531 0.477812 -0.699004 0.532060
0.413897 0.200404 0.393694 0.394904 0.841034 -0.369747
0.552420 0.136668 0.344694 0.900365 0.367119 -0.233597
0.453221 0.058402 0.104356 -0.060076 -0.988961 0.135449
0.892551 0.382719 0.476282 0.535961 -0.809457 0.239846
0.701509 0.312616 0.557204 0.113036 0.269065 0.956466
0.451755 0.110880 0.294168 -0.517571 -0.823117 0.233664
0.580815 0.207149 0.418764 -0.345395 0.870974 -0.349437
0.200890 0.301485 0.351973 0.376620 0.713875 -0.590373
0.602722 0.056159 0.093348 0.218266 -0.951841 0.215309
0.463381 0.193070 0.446870 -0.069658 0.978657 -0.193334
0.502649 0.088655 0.172143 0.058173 0.922369 -0.381905
0.100194 0.357418 0.384261 -0.565077 -0.815102 0.127659
0.403617 0.247780 0.542070 0.489094 0.872122 -0.013779
0.492675 0.090758 0.312297 -0.196187 -0.958468 -0.207001
0.461881 0.042731 0.435572 0.135452 -0.725479 -0.674783
0.745476 0.326812 0.540247 0.484431 -0.390348 0.782914
0.483228 0.051488 0.483781 -0.136269 -0.981108 0.137325
0.557539 0.165706 0.534752 0.999694 0.024727 0.000631
0.555791 0.113189 0.260955 0.356812 0.898679 -0.255072
0.625277 0.263753 0.521731 -0.491560 0.856882 -0.155311
0.202771 0.296426 0.344719 0.381373 0.677292 -0.629150
0.371252 0.266162 0.524050 0.513235 0.849821 -0.119977
0.438296 0.139048 0.501580 -0.997473 0.061713 0.035213
0.880181 0.366788 0.409712 -0.373404 0.855520 -0.358685
0.626558 0.218881 0.391229 -0.319565 0.806992 -0.496630
0.497177 0.093362 0.602662 -0.068230 -0.891842 0.447171
0.414454 0.076410 0.162470 -0.237380 -0.942149 0.236657
0.568991 0.202384 0.452619 0.556835 -0.797677 0.231615
0.481562 0.089848 0.334377 -0.413355 -0.862917 -0.290710
0.182000 0.302235 0.357845 -0.514351 -0.838596 0.179443
0.556660 0.122726 0.550289 0.956073 -0.251179 0.151109
0.120909 0.375430 0.479744 -0.511181 -0.823500 0.246051
0.444865 0.120523 0.557379 -0.934599 -0.294298 0.199782
0.531176 0.096443 0.331285 0.530376 -0.833923 -0.152560
0.576389 0.053405 0.053390 0.118506 0.886937 -0.446429
0.394632 0.232055 0.512164 -0.540878 -0.837882 0.073518
0.342149 0.196516 0.349869 -0.385290 -0.840978 0.379878
0.550063 0.033530 0.442590 0.039218 -0.971825 -0.232420
0.558326 0.149784 0.599872 0.972284 -0.123080 0.198784
0.800782 0.290308 0.341107 -0.309279 0.620506 -0.720638
0.665162 0.229586 0.408015 0.399963 -0.838244 0.370643
0.372363 0.061257 0.093806 -0.844929 -0.429652 -0.318580
0.519853 0.214218 0.589460 0.454059 0.865081 -0.213225
0.405023 0.164927 0.310184 0.302732 0.801520 -0.515674
0.649259 0.257247 0.561906 0.541771 -0.478932 0.690730
0.530478 0.086540 0.547048 0.510028 -0.800469 0.314835
0.535331 0.049021 0.065773 0.116062 -0.986395 0.116421
0.316944 0.243180 0.415462 -0.477814 -0.794026 0.375787
0.526933 0.069719 0.153182 0.108348 -0.978444 0.175809
0.323826 0.250651 0.405155 0.498252 0.703848 -0.506303
0.290001 0.257699 0.382516 0.525295 0.545763 -0.652846
0.381094 0.220982 0.399665 0.334043 0.807373 -0.486378
0.537078 0.189425 0.419195 0.206467 0.934188 -0.290971
0.485587 0.237762 0.691418 -0.237656 0.817385 0.524787
0.511319 0.212921 0.541822 -0.009126 0.999624 -0.025841
0.521215 0.155320 0.660363 0.456519 -0.515173 0.725388
0.364108 0.264803 0.497180 0.510561 0.830313 -0.223402
0.336980 0.217185 0.366984 0.283173 0.788239 -0.546345
0.355708 0.246606 0.546639 -0.611941 -0.750957 0.248177
0.085250 0.402525 0.462584 0.417334 0.869863 -0.263004
0.568323 0.146152 0.406151 0.982987 0.155853 -0.097195
0.440009 0.134115 0.371927 -0.962904 0.215485 -0.162424
0.499453 0.059835 0.117753 -0.077320 -0.985110 0.153555
0.962218 0.409838 0.430720 0.619255 -0.746628 0.243043
0.540405 0.122187 0.296492 0.483487 0.850892 -0.205485
0.312847 0.261856 0.446961 -0.482342 -0.835815 0.262222
0.615985 0.084016 0.164917 0.390200 0.896741 -0.208803
0.450880 0.199589 0.591037 -0.507171 0.747286 0.429349
0.957723 0.422995 0.478744 0.583653 -0.748359 0.315132
0.527340 0.142661 0.281201 0.603585 0.706100 -0.370281
0.526391 0.053342 0.403424 0.321562 -0.930467 -0.175581
0.386791 0.191527 0.354768 0.284327 0.829006 -0.481567
0.656894 0.292022 0.544986 -0.495181 0.868316 0.028691
0.874727 0.369506 0.468059 0.517234 -0.812426 0.269135
0.328773 0.301293 0.544377 0.448020 0.857895 0.251584
0.601164 0.084103 0.157908 0.184998 0.934907 -0.302860
0.646351 0.220167 0.381704 -0.275519 0.805038 -0.525360
0.468121 0.065915 0.136119 -0.054473 -0.984862 0.164561
0.920439 0.380606 0.420675 0.526218 -0.825508 0.204036
0.231501 0.332655 0.480561 0.402354 0.908201 -0.115244
0.331038 0.227614 0.402069 -0.402922 -0.848706 0.342567
0.917082 0.382292 0.404674 -0.387113 0.866721 -0.314546
0.421586 0.235859 0.541117 0.485503 0.873521 -0.035330
0.473857 0.048954 0.034506 -0.050363 0.883270 -0.466153
0.451286 0.175402 0.455516 -0.973251 -0.206463 0.100780
0.439476 0.134681 0.522985 -0.997592 0.001817 0.069335
0.674119 0.299650 0.533602 -0.468922 0.881225 -0.059616
0.387170 0.085895 0.172733 -0.384830 0.901717 -0.197007
0.557611 0.174211 0.553889 0.998584 -0.049202 -0.020243
0.560109 0.093306 0.474264 0.942158 -0.334520 -0.020835
0.579783 0.054023 0.055935 0.120376 0.889548 -0.440697
0.663530 0.214519 0.379661 0.346513 -0.854218 0.387609
0.430461 0.195823 0.406276 0.402685 0.851539 -0.335746
0.444049 0.078221 0.187401 -0.183522 -0.958375 0.218718
0.822960 0.308311 0.367708 0.514539 -0.832289 0.206263
0.459984 0.201370 0.659139 -0.984435 0.041510 0.170775
0.504687 0.211091 0.469436 -0.044424 0.988137 -0.147008
0.567357 0.197810 0.582788 0.807429 -0.421811 0.412472
0.486987 0.056187 0.060037 -0.015563 0.889883 -0.455924
0.555844 0.087903 0.178578 0.107625 0.931739 -0.346812
0.197894 0.302729 0.351032 0.372305 0.716246 -0.590238
0.559040 0.042593 0.459889 0.742710 -0.660481 0.110211
0.243971 0.293981 0.430008 -0.486535 -0.830531 0.271113
0.832658 0.334948 0.428870 0.469211 -0.853311 0.227381
0.529221 0.102373 0.602484 0.499121 -0.771724 0.394108
0.399408 0.198310 0.394366 -0.411675 -0.842980 0.346278
0.877917 0.371915 0.469034 0.518595 -0.809811 0.274345
0.300644 0.245541 0.378791 0.493148 0.638246 -0.591141
0.485938 0.211786 0.523676 -0.034100 0.997082 -0.068304
0.431104 0.125327 0.445518 -0.998421 0.043912 -0.035038
0.455615 0.092258 0.194090 -0.137183 0.935098 -0.326760
0.637210 0.215474 0.399124 0.328332 -0.848906 0.414195
0.478838 0.084178 0.554839 -0.338157 -0.872425 0.352881
0.534388 0.107782 0.248395 0.094128 0.946590 -0.308395
0.594455 0.094826 0.199715 0.470724 0.858969 -0.201475
0.529040 0.079507 0.535983 0.409657 -0.857240 0.311962
0.579826 0.054875 0.059029 0.121602 0.891005 -0.437404
0.530145 0.229166 0.685757 0.855401 0.186511 0.483221
0.347030 0.226665 0.387991 0.300741 0.788552 -0.536415
0.562973 0.097971 0.388832 0.974062 -0.153325 -0.166416
0.866318 0.374745 0.458581 -0.412174 0.870027 -0.270492
0.490915 0.239660 0.689875 -0.114896 0.880932 0.459084
0.111928 0.371254 0.452564 -0.507938 -0.831093 0.226459
0.715805 0.314515 0.548004 0.556316 -0.516406 0.651028
0.520168 0.244759 0.667489 0.354410 0.907709 0.224629
0.433539 0.208456 0.494482 -0.721991 -0.691541 0.022374
0.731381 0.296684 0.419978 -0.447593 0.807064 -0.385108
0.555358 0.165331 0.400376 0.877292 -0.449849 0.167316
0.292407 0.232882 0.359512 0.437986 0.609496 -0.660820
0.402024 0.088086 0.211206 -0.372699 -0.880439 0.293126
0.084274 0.370439 0.397534 -0.521086 -0.827380 0.209552
0.518362 0.170724 0.329183 0.429234 0.837957 -0.337024
0.758708 0.330511 0.489281 -0.417573 0.896851 -0.145914
0.469489 0.076878 0.528365 -0.385775 -0.854085 0.348879
0.076652 0.395212 0.460037 -0.523093 -0.817428 0.241214
0.180227 0.350704 0.517596 -0.491529 -0.797587 0.349649
0.541884 0.075362 0.174279 0.097257 -0.975010 0.199742
0.544345 0.182378 0.469683 0.979490 -0.201240 -0.010110
0.612176 0.198943 0.385887 0.376624 -0.859696 0.345075
0.468188 0.088008 0.547326 -0.525900 -0.784678 0.328190
0.515211 0.048231 0.032786 0.026436 0.883207 -0.468237
0.473769 0.079705 0.337210 -0.418820 -0.847566 -0.325916
0.456312 0.119629 0.306546 -0.929960 0.367527 0.009921
0.465490 0.110374 0.611557 -0.620505 -0.672346 0.403640
0.248580 0.321378 0.530070 -0.509224 -0.763868 0.396482
0.692304 0.244047 0.404866 0.468302 -0.807641 0.358342
0.430999 0.047860 0.059736 -0.068080 -0.992152 0.104875
0.518523 0.101275 0.612904 0.318773 -0.836716 0.445298
0.528530 0.202095 0.493837 -0.244326 0.962887 -0.114687
0.402823 0.054701 0.091011 -0.190454 -0.966323 0.173054
0.447273 0.168996 0.372893 -0.918321 -0.388771 0.074458
0.804835 0.311595 0.409165 0.487198 -0.837031 0.249034
0.460709 0.211815 0.567400 0.154199 0.987770 0.023100
0.562024 0.157310 0.341495 0.222097 -0.956109 0.191124
0.110910 0.388823 0.466032 0.416175 0.859442 -0.296914
0.253207 0.323770 0.542400 -0.530212 -0.703528 0.473206
0.565533 0.133842 0.394087 0.980347 0.135204 -0.143666
0.505346 0.076735 0.339216 0.191351 -0.912904 -0.360542
0.716653 0.315383 0.547392 0.549860 -0.438152 0.711110
0.725135 0.308210 0.528179 0.520599 -0.766236 0.376642
0.596646 0.244042 0.579108 -0.000303 0.469878 0.882731
0.440117 0.048984 0.039735 -0.250080 0.718108 -0.649447
0.143557 0.368847 0.505290 -0.505456 -0.799054 0.325619
0.507285 0.074822 0.339729 0.240167 -0.907737 -0.343997
0.631914 0.200041 0.374250 0.398302 -0.845438 0.355796
0.417129 0.065224 0.097524 -0.114251 0.920625 -0.373358
0.689516 0.300879 0.512898 -0.446350 0.883051 -0.144890
0.703060 0.290488 0.440079 -0.476039 0.816970 -0.325495
0.812159 0.346765 0.517991 0.467782 -0.670334 0.576048
0.920756 0.384505 0.436265 0.510422 -0.829702 0.225971
0.415827 0.077707 0.167194 -0.238409 -0.942492 0.234244
0.456108 0.062977 0.084381 -0.127026 0.904453 -0.407222
0.460644 0.125238 0.314916 -0.499936 0.850987 -0.160887
0.495037 0.079175 0.556212 -0.090087 -0.930543 0.354928
0.413026 0.215925 0.433702 0.421221 0.847267 -0.323592
0.326806 0.214687 0.357111 0.272798 0.763338 -0.585573
0.458136 0.074090 0.366196 -0.589043 -0.763009 -0.266169
0.348578 0.274455 0.499057 0.515719 0.831613 -0.206044
0.642631 0.229472 0.425400 0.433935 -0.827670 0.355896
0.315628 0.264007 0.413047 0.525032 0.626208 -0.576372
0.123663 0.355110 0.382511 0.351244 0.854057 -0.383685
0.303360 0.250594 0.386435 0.504327 0.650308 -0.568115
0.602578 0.092371 0.200500 0.494244 0.856315 -0.149822
0.554793 0.076063 0.177072 0.111188 -0.975080 0.191980
0.394649 0.069048 0.130971 -0.217403 -0.949485 0.226305
0.675145 0.222916 0.386809 0.377583 -0.850077 0.367151
0.427457 0.200526 0.539253 -0.678443 -0.729805 0.084258
0.752285 0.325245 0.478096 -0.422207 0.886310 -0.190255
0.558624 0.100175 0.493579 0.946656 -0.320303 0.035346
0.603469 0.168609 0.328145 0.329824 -0.890215 0.314218
0.437072 0.192039 0.581241 -0.827191 -0.080861 0.556072
0.752728 0.314431 0.501966 0.488390 -0.806884 0.332285
0.528867 0.197191 0.452017 -0.108000 0.971149 -0.212617
0.553528 0.056002 0.094126 0.106031 -0.982231 0.154851
0.485371 0.179646 0.345451 -0.237375 0.899083 -0.367835
0.278678 0.311380 0.545642 -0.531722 -0.750199 0.393031
0.554081 0.161321 0.339076 -0.545553 0.742226 -0.389195
0.407858 0.064039 0.091732 -0.110011 0.919734 -0.376811
0.442014 0.185720 0.396809 0.399865 0.854858 -0.330646
