0.514924 0.234878 0.057916 0.540999 0.008084 -0.840984
0.726740 0.278309 0.190297 0.071210 0.996554 0.042524
0.507626 0.153784 0.221326 0.064581 -0.978046 -0.198127
0.510553 0.134443 0.424232 -0.011398 -0.995221 -0.096980
0.431897 0.237237 0.178367 -0.660754 -0.748244 -0.059449
0.541400 0.135507 0.459311 0.034220 0.988392 0.148020
0.514639 0.238484 0.061826 0.273195 0.839760 -0.469220
0.059368 0.280057 0.138497 0.046007 0.993917 0.100066
0.216459 0.271970 0.280520 -0.066176 -0.941941 0.329194
0.142949 0.278307 0.105141 0.264149 0.721783 -0.639730
0.734600 0.269604 0.190938 -0.063377 -0.997922 0.011662
0.118425 0.273409 0.166717 0.045778 0.992775 0.110913
0.715048 0.270687 0.146670 -0.042495 -0.998091 -0.044809
0.496675 0.164075 0.358735 -0.006364 0.887550 0.460668
0.764747 0.273944 0.264667 0.034953 0.999020 0.027145
0.775470 0.273330 0.281144 0.026524 0.989445 0.142458
0.584359 0.249911 0.218128 0.506237 -0.858314 0.083794
0.387530 0.260937 0.202413 -0.290742 -0.954613 0.064681
0.316545 0.271259 0.177603 -0.028026 -0.999099 0.031861
0.482697 0.189688 0.318471 -0.241543 0.755920 0.608476
0.162699 0.275043 0.141602 -0.009448 0.993825 0.110553
0.489803 0.131946 0.482604 -0.000916 0.968957 0.247227
0.089349 0.270584 0.187200 -0.141762 -0.987564 -0.067980
0.256516 0.275049 0.254770 -0.062404 0.997661 0.027881
0.825275 0.265850 0.195941 -0.040820 -0.999092 0.012230
0.531930 0.255096 0.177143 0.217501 0.963725 -0.154686
0.241140 0.276172 0.180967 -0.064461 0.997014 0.042525
0.701064 0.283875 0.138684 0.016422 0.997693 0.065873
0.939753 0.277112 0.145499 0.165191 -0.985553 -0.037372
0.453137 0.035864 0.283583 0.412192 0.423590 0.806641
0.518612 0.231517 0.077106 0.714744 -0.678096 -0.171250
0.221421 0.268789 0.242495 0.018612 -0.998989 0.040912
0.496428 0.213986 0.027113 -0.672290 -0.218653 -0.707260
0.742337 0.269457 0.213022 -0.058890 -0.998131 0.016353
0.447533 0.079990 0.248857 0.694816 -0.009345 -0.719127
0.063624 0.277634 0.129775 -0.113424 -0.992136 -0.052921
0.401213 0.264292 0.198697 0.281596 0.956000 0.082264
0.532473 0.131629 0.455245 -0.024579 -0.997998 -0.058271
0.145030 0.265958 0.247980 0.041561 -0.997782 0.052007
0.202076 0.265959 0.151998 0.028412 -0.999589 0.003699
0.703369 0.283349 0.142609 0.027839 0.992644 0.117825
0.945419 0.276875 0.166556 0.338976 -0.940656 0.016175
0.387177 0.258921 0.161088 -0.278334 -0.960484 0.000712
0.942725 0.277038 0.154741 0.237749 -0.971217 -0.014621
0.941923 0.286910 0.071800 -0.189354 0.973260 -0.130038
0.654608 0.277984 0.170796 -0.139844 0.989150 0.045021
0.560570 0.129723 0.473137 -0.042626 -0.998119 -0.044057
0.854533 0.270256 0.194862 0.041130 0.997941 0.049213
0.218577 0.273827 0.230653 -0.044952 0.998913 0.012336
0.485426 0.183416 0.122168 -0.210086 -0.873267 -0.439623
0.783684 0.277065 0.145567 0.070381 0.991707 0.107530
0.314430 0.270825 0.163091 -0.032877 -0.999402 0.010755
0.555669 0.218195 0.181706 0.897788 -0.321628 -0.300887
0.497818 0.183699 0.119313 -0.019991 -0.904385 -0.426248
0.707849 0.272689 0.135009 -0.035776 -0.932412 -0.359621
0.855721 0.269472 0.249199 0.072865 0.997341 0.001579
0.487045 0.146674 0.261633 -0.198028 -0.974254 -0.107770
0.571881 0.136372 0.431715 0.186169 0.978931 0.083875
0.182308 0.274931 0.148171 -0.034203 0.994177 0.102192
0.115627 0.270488 0.198840 0.044802 0.995908 0.078490
0.537319 0.131650 0.482627 0.025060 0.964692 0.262187
0.055997 0.280184 0.102196 -0.111892 -0.989468 -0.091835
0.951010 0.285349 0.095115 -0.090500 0.989326 0.114212
0.432208 0.134897 0.449398 -0.119914 0.986256 0.113667
0.560568 0.256674 0.171950 -0.619989 0.605689 -0.498753
0.284736 0.270507 0.176149 0.053399 -0.998492 0.012697
0.897130 0.272723 0.135311 0.116746 -0.988361 -0.097536
0.542199 0.124046 0.269441 -0.867341 -0.119779 0.483086
0.258944 0.276168 0.218537 -0.067984 0.997283 0.028354
0.821449 0.275306 0.143836 0.034608 0.993442 0.108977
0.702382 0.274558 0.269852 -0.118600 -0.989896 0.077720
0.470576 0.251116 0.232831 -0.074729 0.953150 0.293121
0.546655 0.145132 0.399924 0.178415 0.964668 0.193867
0.455071 0.187593 0.193050 -0.887842 -0.424857 -0.176727
0.113717 0.268682 0.230124 0.011605 0.998509 0.053331
0.426797 0.263014 0.160888 0.253527 0.967256 0.011825
0.526366 0.240317 0.087164 0.538704 0.842259 0.019958
0.350076 0.271795 0.230538 -0.111673 -0.988585 0.101138
0.578113 0.245320 0.206283 0.595000 -0.802029 0.052200
0.613351 0.259344 0.184615 0.282155 -0.957990 0.051428
0.538030 0.255374 0.209696 -0.002168 0.994884 0.101003
0.064391 0.274777 0.186624 -0.751656 -0.624908 0.210959
0.531541 0.230688 0.098577 0.946821 0.314828 0.066430
0.452827 0.130687 0.463073 0.037561 -0.997975 -0.051333
0.604863 0.270059 0.148019 -0.249322 0.968406 0.005234
0.108522 0.266175 0.228069 -0.065367 -0.997466 -0.028099
0.685672 0.272245 0.208255 0.009614 -0.998926 0.045328
0.119473 0.268351 0.166113 -0.098300 -0.993843 -0.051122
0.586671 0.249289 0.186782 0.466364 -0.882634 0.058842
0.581810 0.257855 0.211939 -0.190763 0.972003 0.137184
0.495762 0.143676 0.277882 -0.120478 -0.992315 -0.028210
0.869736 0.272167 0.114417 0.065631 -0.984103 -0.165024
0.916303 0.272495 0.169273 0.212592 -0.976206 -0.042746
0.534270 0.153736 0.276059 0.341759 -0.873743 0.346083
0.142853 0.265546 0.240761 0.028634 -0.998817 0.039313
0.665447 0.282350 0.138512 -0.118706 0.992751 0.018845
0.269905 0.270797 0.256046 0.073935 -0.996878 0.027699
0.514767 0.138454 0.444472 0.012920 0.982389 0.186401
0.426527 0.242311 0.186261 -0.627899 -0.777878 0.025460
0.469168 0.183168 0.302668 -0.924681 0.264530 0.273840
0.438323 0.245164 0.168288 0.558759 -0.368685 -0.742873
0.431565 0.064663 0.229692 0.093841 0.978958 0.181206
0.562805 0.130221 0.461087 -0.042539 -0.997562 -0.055320
0.275780 0.279608 0.163218 -0.064838 0.994686 0.079968
0.256985 0.268707 0.163950 0.060061 -0.998190 0.003067
0.395674 0.259866 0.225728 -0.325279 -0.942515 0.076545
0.104941 0.273686 0.125840 -0.098090 -0.990785 -0.093398
0.536727 0.255132 0.211907 0.002487 0.992898 0.118942
0.952276 0.287677 0.075239 -0.105314 0.988401 0.109422
0.309606 0.279635 0.212562 -0.027303 0.999584 0.009332
0.115446 0.279939 0.112426 0.034301 0.991765 0.123391
0.464143 0.164157 0.301913 -0.999950 0.007479 0.006691
0.457566 0.147926 0.389066 -0.213681 0.949370 0.230298
0.504742 0.132417 0.479872 -0.005002 0.981615 0.190807
0.322592 0.280295 0.179307 0.040214 0.998698 0.031373
0.959970 0.281477 0.139350 -0.108052 0.989258 0.098456
0.907159 0.273046 0.184248 -0.051920 0.993594 0.100377
0.163453 0.270791 0.242640 -0.079987 0.996775 -0.006394
0.574004 0.239712 0.180516 0.671049 -0.740233 0.041812
0.853125 0.275519 0.139369 -0.007521 0.993802 0.110911
0.446501 0.137435 0.440185 -0.087518 0.986065 0.141476
0.438993 0.061719 0.259857 -0.538325 0.343426 0.769587
0.742632 0.270203 0.257775 -0.056006 -0.997961 0.030612
0.465377 0.151302 0.320698 -0.700800 -0.671610 -0.240457
0.837704 0.267324 0.251037 -0.064160 -0.995158 0.074462
0.782645 0.267200 0.186097 -0.034742 -0.999185 0.020567
0.560575 0.141092 0.406692 0.288062 0.953137 0.092470
0.115629 0.273931 0.163520 0.047640 0.992240 0.114850
0.491681 0.218964 0.031934 -0.893364 -0.281874 -0.349925
0.924219 0.274439 0.181215 0.122758 0.977865 0.169439
0.254663 0.277768 0.166874 -0.071627 0.995160 0.067270
0.464382 0.165921 0.295698 -0.995737 -0.046576 0.079615
0.367642 0.273113 0.257476 -0.143339 -0.949151 0.280296
0.556121 0.071020 0.259348 -0.567855 0.147330 0.809836
0.406954 0.129554 0.465550 -0.273842 0.951505 0.140177
0.440973 0.220551 0.212742 -0.938559 -0.344188 -0.025341
0.514099 0.184095 0.327237 0.094280 0.794647 0.599706
0.537570 0.167160 0.303070 0.984173 0.173788 0.034649
0.051577 0.281387 0.094738 -0.122043 -0.986884 -0.105670
0.916001 0.273351 0.187573 -0.038735 0.993949 0.102787
0.570701 0.132473 0.468655 0.088107 0.986913 0.135057
0.319643 0.277274 0.272025 0.099235 -0.984913 0.141772
0.133745 0.268819 0.229971 -0.036778 0.999225 0.014037
0.540619 0.144443 0.348826 0.335527 -0.908693 -0.248393
0.122358 0.276050 0.142913 0.042264 0.993590 0.104850
0.484031 0.186694 0.116101 -0.293645 -0.853274 -0.430926
0.492933 0.135026 0.419253 0.011133 -0.994787 -0.101368
0.235978 0.275350 0.197161 -0.058578 0.997826 0.030193
0.145481 0.266382 0.170351 -0.043268 -0.998572 -0.031320
0.593282 0.051488 0.243727 0.616196 -0.670736 0.412815
0.461543 0.180760 0.177607 -0.828509 -0.524812 -0.195308
0.585082 0.129396 0.456159 -0.051467 -0.996057 -0.072265
0.898169 0.282225 0.096937 -0.057566 0.995763 0.071712
0.559659 0.256531 0.172752 -0.599283 0.642732 -0.477238
0.863024 0.269385 0.209604 0.029043 0.998914 0.036434
0.217542 0.273337 0.123171 0.159107 -0.323066 -0.932906
0.051022 0.280231 0.142056 0.050061 0.993290 0.104249
0.199945 0.271614 0.275902 -0.023006 -0.969908 0.242383
0.890944 0.270494 0.201985 -0.046849 0.995961 0.076592
0.534396 0.178718 0.302593 0.942677 0.250219 0.220795
0.804182 0.267501 0.225026 -0.028613 -0.998820 0.039248
0.614577 0.271420 0.158907 -0.225497 0.969709 0.093893
0.887931 0.268240 0.176528 0.100662 -0.992925 -0.062991
0.452691 0.138723 0.379880 -0.079491 -0.978908 -0.188203
0.440918 0.139941 0.387913 -0.887536 0.115405 -0.446051
0.883654 0.274841 0.154631 -0.045037 0.992055 0.117463
0.175693 0.274887 0.146614 -0.029256 0.994095 0.104496
0.417390 0.265112 0.147379 0.419569 0.864349 -0.277240
0.209781 0.274826 0.167513 -0.053036 0.997257 0.051636
0.539573 0.159217 0.318078 0.990658 -0.030856 -0.132836
0.577085 0.134171 0.414028 0.402569 -0.835663 -0.373638
0.202667 0.268717 0.246711 0.014483 -0.998227 0.057742
0.487680 0.163552 0.177093 -0.157177 -0.954313 -0.254130
0.290346 0.274041 0.277658 0.125748 -0.987251 0.097589
0.947340 0.282163 0.120993 -0.068297 0.992497 0.101419
0.803938 0.266356 0.177721 -0.024046 -0.999596 0.015143
0.945678 0.284796 0.095976 -0.081486 0.990638 0.109527
0.064510 0.276775 0.146101 -0.155872 -0.987077 -0.037187
0.170075 0.271477 0.204062 -0.064321 0.997620 0.024849
0.960858 0.281459 0.122547 0.244464 -0.968527 -0.046833
0.540350 0.217793 0.140202 0.966243 0.152646 -0.207541
0.518453 0.173182 0.152860 0.155136 -0.907274 -0.390880
0.526686 0.249043 0.151752 0.595019 0.758568 -0.265570
0.524460 0.142238 0.344842 0.082488 -0.991038 -0.105068
0.855552 0.265000 0.187569 0.029860 -0.998754 -0.039985
0.920139 0.273124 0.193078 -0.035354 0.994316 0.100427
0.579016 0.246399 0.214578 0.582409 -0.811040 0.054902
0.111892 0.266863 0.259475 -0.040682 0.998726 0.029846
0.558306 0.132618 0.428556 -0.035849 -0.995770 -0.084605
0.332098 0.279975 0.171788 0.087001 0.995085 0.047288
0.494692 0.245319 0.084121 -0.083835 0.993705 -0.074317
0.556953 0.129559 0.481469 -0.037397 -0.999208 -0.013622
0.663185 0.281339 0.145958 -0.108715 0.989607 0.094125
0.487827 0.147142 0.257440 -0.167928 -0.975995 -0.138686
0.506813 0.227210 0.034710 0.335671 0.869703 -0.361860
0.712585 0.270703 0.173270 -0.043194 -0.998987 0.012635
0.165367 0.273680 0.156101 -0.017325 0.995884 0.088968
0.436623 0.099183 0.253432 -0.993310 -0.096973 -0.062697
0.169645 0.274955 0.143609 -0.019975 0.993954 0.107965
0.439264 0.140741 0.239265 -0.625841 -0.059294 -0.777694
0.321568 0.280291 0.181352 0.034966 0.999021 0.027088
0.908278 0.282719 0.085235 -0.334952 0.731303 -0.594141
0.165433 0.270958 0.242606 -0.078525 0.996888 -0.006934
0.532010 0.131712 0.482809 0.019710 0.968350 0.248816
0.429342 0.250588 0.242592 -0.220503 0.762362 0.608426
0.239218 0.268673 0.224968 0.037754 -0.999053 0.021620
0.248690 0.268992 0.223542 0.044896 -0.998842 0.017282
0.426015 0.131408 0.435690 0.034731 -0.995168 -0.091842
0.432089 0.112690 0.250405 -0.756118 -0.589906 -0.283364
0.120702 0.271471 0.184855 0.042142 0.994680 0.093999
0.116297 0.270571 0.197471 0.044174 0.995833 0.079782
0.663625 0.279286 0.227444 -0.093308 0.995420 -0.020776
0.444426 0.126213 0.277541 -0.436833 0.185037 0.880306
0.146807 0.273455 0.158797 0.006193 0.995286 0.096788
0.406438 0.260240 0.229628 0.388137 0.918444 0.076222
0.562249 0.131332 0.443589 -0.039549 -0.996579 -0.072572
0.565320 0.090552 0.251951 0.984346 -0.056815 -0.166839
0.257579 0.271640 0.286686 0.009876 -0.969974 0.243008
0.409977 0.262987 0.189106 0.230272 0.967049 0.108590
0.533218 0.153251 0.300279 0.703540 -0.698959 -0.128402
0.350411 0.277981 0.228300 0.129997 0.991129 -0.027638
0.413707 0.255806 0.241166 0.201738 0.915999 0.346768
0.622645 0.270926 0.220424 -0.307724 0.951472 -0.002624
0.841317 0.270788 0.256455 0.083987 0.996305 -0.017945
0.530969 0.171815 0.168818 0.608472 -0.755633 -0.242448
0.049402 0.279641 0.120387 -0.142741 -0.988185 -0.055820
0.564881 0.229020 0.222350 0.898594 -0.438622 0.011793
0.843349 0.268137 0.128221 0.051926 -0.978311 -0.200529
0.449392 0.123939 0.237329 -0.072355 -0.134027 -0.988333
0.305535 0.279926 0.194034 -0.028374 0.999203 0.028066
0.055554 0.279592 0.110447 -0.120002 -0.990105 -0.072746
0.436284 0.111420 0.271231 -0.834971 -0.088963 0.543055
0.817907 0.272812 0.258966 0.052589 0.998431 -0.019242
0.389135 0.269107 0.179170 0.241694 0.967584 0.073243
0.258627 0.276086 0.220442 -0.067381 0.997329 0.028207
0.460325 0.141251 0.423165 -0.085594 0.980569 0.176516
0.630290 0.276264 0.140471 -0.228917 0.955331 -0.186922
0.685728 0.282407 0.149517 -0.029346 0.994280 0.102698
0.430415 0.129226 0.472963 0.051321 -0.997833 -0.041180
0.431717 0.115182 0.263278 -0.960246 -0.016071 0.278692
0.424864 0.243572 0.162250 -0.449898 -0.884808 -0.121272
0.298280 0.277053 0.129981 0.014497 -0.476942 -0.878815
0.755267 0.269634 0.252261 -0.035974 -0.998877 0.030832
0.250409 0.269396 0.240770 0.043100 -0.998768 0.024576
0.860737 0.270606 0.185892 0.003266 0.997153 0.075341
0.548941 0.147517 0.359728 0.949846 0.161207 -0.267965
0.479639 0.210799 0.292500 -0.348162 0.700668 0.622775
0.252245 0.270192 0.270791 0.028570 -0.998514 0.046401
0.256116 0.268708 0.171339 0.058322 -0.998269 0.007552
0.440074 0.133551 0.416567 0.027446 -0.994487 -0.101209
0.545555 0.200493 0.275747 0.868914 -0.023596 0.494400
0.222012 0.266763 0.157550 0.042839 -0.999062 0.006279
0.433118 0.110205 0.261632 -0.755240 -0.655046 0.022948
0.620918 0.260524 0.150859 0.265966 -0.960375 -0.083314
0.557033 0.097744 0.263958 0.219701 -0.806004 0.549626
0.455509 0.185668 0.268783 -0.939410 -0.127495 0.318204
0.519567 0.244769 0.106037 0.370305 0.915871 -0.155097
0.188348 0.276790 0.133630 -0.041879 0.991456 0.123535
0.182687 0.265947 0.173956 0.009714 -0.999949 0.002817
0.547627 0.168668 0.266582 0.867213 0.180808 0.463950
0.499663 0.147145 0.406231 -0.001354 0.967507 0.252842
0.709363 0.271361 0.197595 -0.053340 -0.998309 0.023091
0.327369 0.280366 0.168136 0.066125 0.996306 0.054789
0.450426 0.248079 0.174149 0.190504 0.492698 -0.849092
0.751226 0.274277 0.268069 0.046129 0.998098 0.040909
0.465503 0.154802 0.276184 -0.429907 -0.679954 0.594005
0.223866 0.275826 0.164158 -0.063476 0.996051 0.062076
0.477008 0.251236 0.233231 -0.028231 0.959647 0.279787
0.648295 0.278645 0.268767 -0.088675 -0.835829 0.541781
0.541876 0.145979 0.399844 0.145891 0.964441 0.220384
0.655242 0.277889 0.211355 -0.129700 0.991452 -0.014193
0.739056 0.275552 0.249176 0.072800 0.996875 0.030669
0.624264 0.271619 0.258355 0.191101 -0.884559 0.425483
0.420429 0.264556 0.158594 0.218751 0.974110 0.057075
0.446159 0.258328 0.188862 0.255277 0.966128 -0.037813
0.526896 0.174646 0.155245 0.412842 -0.847105 -0.334626
0.867691 0.265163 0.234003 -0.005646 -0.999640 0.026235
0.761535 0.274016 0.265488 0.038548 0.998755 0.031662
0.559178 0.046325 0.255569 0.147308 -0.979013 -0.140833
0.101814 0.268209 0.239346 0.012428 0.996845 0.078389
0.250400 0.268275 0.154208 0.062150 -0.997996 -0.011913
0.533974 0.166734 0.203241 0.641874 -0.734240 -0.221108
0.879366 0.267605 0.264252 0.068198 0.997584 -0.013237
0.518012 0.138348 0.444854 0.017468 0.983537 0.179861
0.515591 0.140643 0.357231 0.018224 -0.996203 -0.085137
0.138984 0.272652 0.167553 0.019185 0.995189 0.096073
0.155324 0.266334 0.245480 0.055483 -0.996940 0.055068
0.544547 0.131153 0.457082 -0.033879 -0.997791 -0.057152
0.753829 0.269903 0.262731 -0.029531 -0.998988 0.033927
0.191559 0.273489 0.179507 -0.039643 0.998376 0.040904
0.800684 0.273375 0.202573 0.050796 0.998408 0.024528
0.450545 0.129762 0.484378 0.032521 -0.992693 0.116202
0.533994 0.207092 0.285187 0.600478 0.448406 0.662086
0.654579 0.275808 0.131138 -0.109319 -0.090565 -0.989872
0.487797 0.146248 0.263541 -0.204645 -0.973716 -0.099985
0.829255 0.265647 0.192132 -0.037005 -0.999285 0.007690
0.348943 0.277587 0.192092 0.133143 0.991056 0.009019
0.483696 0.132682 0.478388 -0.002654 0.984807 0.173632
0.172042 0.265375 0.148084 -0.013345 -0.999713 -0.019897
0.563352 0.244709 0.168965 -0.450116 -0.359077 -0.817594
0.472544 0.227664 0.086231 -0.594542 -0.214372 -0.774961
0.682353 0.280147 0.241255 0.019739 0.999765 -0.009014
0.905630 0.271816 0.157095 0.147465 -0.986262 -0.074443
0.540294 0.254188 0.185817 0.201440 0.967510 -0.152793
0.561647 0.150842 0.260902 0.756709 0.459289 0.465236
0.237917 0.270422 0.274090 -0.004046 -0.996688 0.081223
0.498300 0.147602 0.248038 -0.036364 -0.977523 -0.207671
0.464612 0.226823 0.137850 -0.935067 0.309942 -0.172008
0.192495 0.269455 0.258884 0.016444 -0.994712 0.101381
0.155822 0.268383 0.265852 0.058180 -0.981712 0.181266
0.236965 0.267479 0.149538 0.056208 -0.998231 -0.019392
0.513307 0.153573 0.224883 0.090150 -0.973681 -0.209327
0.838469 0.275858 0.111270 -0.279541 0.193962 -0.940338
0.443525 0.159542 0.255609 -0.805214 0.454068 0.381383
0.496532 0.227950 0.035553 -0.271900 0.900124 -0.340362
0.080303 0.276160 0.126236 -0.105099 -0.992054 -0.069159
0.502062 0.255574 0.164388 0.000481 0.994605 -0.103735
0.517124 0.130653 0.480427 -0.013236 -0.999767 -0.017033
0.528541 0.241034 0.124764 0.794917 0.585148 -0.160338
0.954327 0.279323 0.155437 0.379073 -0.924882 0.029952
0.435425 0.257549 0.202561 0.046643 0.990239 0.131343
0.885121 0.281285 0.097164 -0.158794 0.964990 -0.208753
0.166501 0.276423 0.130699 -0.009338 0.992967 0.118022
0.614027 0.267765 0.242624 -0.370296 0.928587 -0.024620
0.936840 0.281339 0.123210 -0.058951 0.992849 0.103811
0.045618 0.285438 0.073133 -0.168616 -0.973577 -0.153999
0.068788 0.274449 0.177584 -0.305976 -0.952033 0.003441
0.552970 0.128122 0.236892 0.091724 -0.148082 -0.984712
0.546059 0.184074 0.270527 0.931611 -0.112074 0.345746
0.628436 0.272988 0.236374 -0.291645 0.956148 -0.026901
0.206878 0.273347 0.263272 -0.027793 0.999614 0.000007
0.493658 0.154340 0.219012 -0.068889 -0.977374 -0.199988
0.534541 0.151188 0.384978 0.162983 0.946966 0.276931
0.740784 0.269036 0.156845 -0.065278 -0.997792 -0.012243
0.551351 0.199147 0.188847 0.926324 -0.327182 -0.186754
0.834874 0.267590 0.252131 -0.060642 -0.995109 0.077975
0.871267 0.268743 0.226357 0.028414 0.999293 0.024602
0.389539 0.260411 0.204046 -0.297783 -0.952541 0.063169
0.386821 0.261130 0.201966 -0.288280 -0.955317 0.065294
0.313309 0.277395 0.279151 0.143990 -0.974042 0.174668
0.753433 0.274791 0.251225 0.053327 0.998304 0.023363
0.233064 0.279624 0.135326 -0.074196 0.991083 0.110678
0.517718 0.176402 0.144454 0.109091 -0.983856 -0.141871
0.906083 0.282029 0.101457 -0.038200 0.991859 0.121473
0.071049 0.285101 0.081208 0.062191 0.994645 0.082546
0.492942 0.242205 0.255145 -0.005761 0.879626 0.475630
0.503272 0.224532 0.279823 0.005447 0.775207 0.631684
0.419903 0.246299 0.167026 -0.482658 -0.875752 0.010007
0.515071 0.253188 0.135933 0.274589 0.942308 -0.191459
0.444771 0.137104 0.390949 -0.095477 -0.973326 -0.208614
0.701511 0.274886 0.131715 -0.016941 -0.728746 -0.684575
0.770227 0.273578 0.277567 0.015591 0.999119 0.038955
0.238598 0.275268 0.206055 -0.058057 0.997915 0.028196
0.588319 0.132263 0.447850 0.185134 0.980758 0.061958
0.535247 0.132482 0.441331 -0.028654 -0.996836 -0.074148
0.229321 0.269156 0.248285 0.017134 -0.999044 0.040229
0.751656 0.276663 0.184241 0.069230 0.996740 0.041439
0.557067 0.214271 0.251535 0.943549 -0.179194 0.278576
0.800757 0.267717 0.228018 -0.026122 -0.998848 0.040241
0.644166 0.276260 0.176536 -0.169185 0.985071 0.031794
0.552397 0.215721 0.175474 0.888809 -0.245366 -0.387058
0.774569 0.269660 0.260855 -0.005854 -0.998312 0.057782
0.479565 0.150048 0.242000 0.089995 -0.977416 -0.191205
0.522731 0.148406 0.276393 0.358950 -0.933355 -0.001908
0.422841 0.264058 0.158609 0.232828 0.971834 0.036467
0.288533 0.281689 0.151250 -0.048082 0.992724 0.110393
0.507046 0.242843 0.253979 0.002524 0.888017 0.459804
0.469034 0.166714 0.343146 -0.533412 0.780954 0.324935
0.497404 0.213154 0.026585 -0.606813 -0.194154 -0.770767
0.402387 0.255460 0.190446 -0.347961 -0.936195 0.049620
0.753623 0.280531 0.138275 0.080833 0.988015 0.131504
0.447917 0.181675 0.230490 -0.994502 -0.024195 -0.101883
0.817470 0.267373 0.228815 -0.040055 -0.997904 0.050816
0.707754 0.273310 0.261067 -0.098104 -0.993797 0.052369
0.618662 0.269711 0.257643 0.158080 -0.766894 0.622001
0.570225 0.114579 0.249053 0.843053 -0.255788 -0.473112
0.096680 0.278543 0.133620 0.054953 0.993319 0.101477
0.522645 0.182363 0.127357 0.349315 -0.830246 -0.434363
0.509205 0.161441 0.183779 0.060164 -0.971180 -0.230628
0.959852 0.288821 0.074546 -0.134532 0.985545 0.102965
0.502562 0.139466 0.439804 -0.002123 0.978404 0.206692
0.486035 0.197146 0.089643 -0.481352 -0.831171 -0.278308
0.731586 0.269737 0.182383 -0.063844 -0.997916 0.009316
0.137025 0.264668 0.211907 -0.017328 -0.999832 -0.005935
0.555918 0.258066 0.194472 -0.147006 0.987834 0.050717
0.182359 0.272477 0.196615 -0.053538 0.998087 0.030934
0.791599 0.269655 0.260749 -0.003441 -0.997117 0.075801
0.070751 0.272541 0.195963 -0.209362 -0.976732 -0.046511
0.632366 0.274145 0.237215 -0.266704 0.963374 -0.027902
0.809550 0.266158 0.174163 -0.018997 -0.999757 0.011192
0.510827 0.180947 0.331675 0.043443 0.805324 0.591240
0.472234 0.230795 0.267151 -0.243125 0.728201 0.640791
0.125615 0.265534 0.257906 0.023952 -0.997885 0.060424
0.561102 0.135857 0.448184 0.090826 0.987829 0.126272
0.558738 0.215694 0.241455 0.961446 -0.214871 0.171615
0.829485 0.270152 0.269725 -0.047674 -0.983720 0.173270
0.538662 0.141035 0.237245 -0.687250 -0.431188 -0.584607
0.463852 0.133430 0.428108 0.033507 -0.995631 -0.087154
0.445913 0.252515 0.172567 0.537508 0.375880 -0.754851
0.433025 0.136223 0.437570 -0.153467 0.982928 0.101489
0.471985 0.215916 0.094371 -0.922407 -0.311238 -0.228685
0.246663 0.275093 0.228613 -0.057097 0.998046 0.025389
0.483553 0.253115 0.144072 -0.370917 0.928664 -0.002162
0.565216 0.130287 0.458124 -0.042642 -0.997403 -0.058035
0.788680 0.278539 0.132007 0.059906 0.993046 0.101345
0.346691 0.279428 0.155167 0.136851 0.986341 0.091674
0.566749 0.124724 0.268440 0.834811 0.151792 0.529197
0.206879 0.269339 0.256466 0.009011 -0.997665 0.067708
0.636206 0.275795 0.160750 -0.185945 0.978849 0.085317
0.219908 0.274240 0.207257 -0.049666 0.998491 0.023412
0.486306 0.139233 0.440603 -0.020363 0.981677 0.189462
0.423925 0.062432 0.216019 -0.652994 0.641469 -0.402637
0.296242 0.271109 0.177713 0.035069 -0.999258 0.015926
0.560797 0.220068 0.235632 0.949303 -0.298334 0.099099
0.377964 0.264935 0.218272 -0.258930 -0.961858 0.088231
0.560135 0.142191 0.391488 0.475554 0.879487 -0.018718
0.890576 0.273289 0.123058 0.096253 -0.989939 -0.103716
0.432937 0.053570 0.237575 -0.540726 -0.840565 -0.032661
0.051665 0.280630 0.102365 -0.122290 -0.988417 -0.089869
0.472067 0.194476 0.120315 -0.809444 -0.454773 -0.371458
0.106616 0.275177 0.157858 0.056396 0.991741 0.115195
0.396544 0.266286 0.190070 0.266652 0.960887 0.074778
0.843480 0.277577 0.123407 -0.000370 0.992176 0.124849
0.509938 0.145004 0.264807 0.163436 -0.980530 -0.108860
0.074751 0.284494 0.085909 0.050688 0.992967 0.106996
0.636234 0.274861 0.171053 -0.189481 0.980610 0.049998
0.601001 0.263753 0.205144 -0.305083 0.949488 0.073462
0.611776 0.267813 0.194771 -0.296111 0.954100 0.044845
0.122118 0.265470 0.258293 0.012209 -0.997662 0.067249
0.468784 0.255764 0.208625 -0.021641 0.994902 0.098493
0.460760 0.214301 0.143425 -0.971896 0.092549 -0.216454
0.585513 0.246706 0.156759 0.428384 -0.897430 -0.105384
0.448911 0.070979 0.255710 0.899184 0.118490 0.421222
0.518416 0.207999 0.073163 0.806287 -0.378292 -0.454748
0.508114 0.244487 0.077910 0.099806 0.982571 -0.156823
0.671162 0.281201 0.156085 -0.076797 0.993104 0.088582
0.532775 0.138909 0.375991 0.003979 -0.993186 -0.116468
0.056237 0.282319 0.116063 0.057871 0.993170 0.101313
0.103201 0.271027 0.156003 -0.138921 -0.987550 -0.073802
0.470346 0.206994 0.287172 -0.613518 0.488159 0.620722
0.387334 0.268491 0.248454 0.387120 0.920324 -0.056052
0.912115 0.270243 0.220051 -0.048224 0.995493 0.081663
0.514299 0.256556 0.176197 0.012230 0.998896 -0.045348
0.179481 0.265876 0.174112 0.007220 -0.999974 0.000541
0.803127 0.266760 0.197675 -0.032139 -0.999325 0.017790
0.366826 0.265946 0.198348 -0.203873 -0.976480 0.070156
0.620238 0.270054 0.218868 -0.318608 0.947886 0.001179
0.263734 0.275329 0.258395 -0.071535 0.996919 0.032183
0.781323 0.267075 0.177479 -0.037083 -0.999145 0.018293
0.655863 0.278160 0.170799 -0.136940 0.989573 0.044641
0.515617 0.221065 0.283195 0.137020 0.752678 0.643973
0.448557 0.196589 0.206176 -0.925303 -0.345888 -0.155485
0.571138 0.137890 0.410040 0.352977 0.935325 -0.023973
0.326543 0.279767 0.205943 0.043039 0.999063 0.004633
0.530206 0.222350 0.088342 0.836415 -0.190519 -0.513919
0.033243 0.286216 0.086304 -0.256140 -0.959338 -0.118589
0.319917 0.280147 0.241844 -0.020365 0.999753 -0.008875
0.557382 0.203935 0.223785 0.970815 -0.239763 -0.005639
0.386701 0.259411 0.146891 -0.271458 -0.945267 -0.181055
0.517042 0.234348 0.266881 0.083168 0.800690 0.593278
0.478371 0.254285 0.164825 -0.233716 0.948123 -0.215500
0.435930 0.062846 0.257028 -0.648238 0.435367 0.624695
0.435238 0.130053 0.242935 -0.716594 -0.027702 -0.696940
0.904193 0.268975 0.193731 0.122860 -0.990192 -0.066522
0.433180 0.250856 0.240232 -0.008603 0.928614 0.370947
0.483732 0.226363 0.276233 -0.165069 0.749735 0.640819
0.200165 0.275418 0.149456 -0.050581 0.994080 0.096161
0.301000 0.283940 0.138212 -0.017332 0.997973 0.061234
0.603786 0.269171 0.155407 -0.236170 0.968811 0.075021
0.350592 0.278060 0.230682 0.129208 0.991162 -0.030039
0.524480 0.144376 0.414405 0.059876 0.973351 0.221365
0.489925 0.253457 0.222962 -0.000820 0.983471 0.181064
0.504782 0.244016 0.074136 0.049135 0.974798 -0.217613
0.202239 0.267690 0.226823 0.027346 -0.998873 0.038786
0.508578 0.253653 0.150851 0.026303 0.998862 -0.039788
0.168502 0.265804 0.216381 0.051881 -0.998113 0.032859
0.449756 0.234376 0.258031 -0.297317 0.515509 0.803650
0.767102 0.268290 0.210271 -0.038973 -0.999054 0.019283
0.371471 0.262796 0.154491 -0.225480 -0.974092 -0.017437
0.205671 0.272645 0.121009 0.167278 -0.471568 -0.865819
0.942133 0.284270 0.099044 -0.079239 0.990988 0.108002
0.332975 0.279564 0.217667 0.067512 0.997677 -0.009094
0.459619 0.248525 0.169441 -0.399309 0.706214 -0.584648
0.650691 0.278650 0.156025 -0.144197 0.985983 0.083937
0.719114 0.271606 0.238836 -0.083488 -0.996166 0.026150
0.474510 0.134116 0.423960 0.026769 -0.995193 -0.094206
0.503609 0.162569 0.179214 0.016472 -0.963705 -0.266461
0.130493 0.264818 0.212287 -0.042467 -0.998932 -0.018205
0.636619 0.267731 0.216142 0.207317 -0.973900 0.092401
0.364853 0.274854 0.191954 0.199466 0.979878 0.007179
0.100949 0.276134 0.152858 0.058496 0.991808 0.113558
0.427261 0.259051 0.194004 0.105075 0.985844 0.130655
0.444483 0.130132 0.467098 0.042233 -0.997871 -0.049699
0.154752 0.270212 0.254648 -0.080505 0.996710 -0.009352
0.225044 0.274027 0.240470 -0.039689 0.999125 0.013171
0.183247 0.272945 0.274852 -0.074592 0.977699 0.196318
0.668509 0.279235 0.203762 -0.073755 0.997273 0.002528
0.476975 0.197803 0.305097 -0.576429 0.619622 0.532727
0.538529 0.152734 0.321977 0.809735 -0.535746 -0.239384
0.875652 0.267999 0.158582 0.095152 -0.994142 -0.051253
0.372811 0.273091 0.190234 0.229839 0.972965 0.022668
0.466419 0.229748 0.133787 -0.925253 0.341337 -0.165519
0.417149 0.248480 0.186028 -0.476102 -0.878420 0.041303
0.535545 0.192468 0.134358 0.869015 -0.368828 -0.329817
0.898003 0.273229 0.176036 -0.060103 0.992913 0.102527
0.463917 0.183372 0.163228 -0.830962 -0.501356 -0.241129
0.663986 0.278777 0.198833 -0.094750 0.995491 0.004586
0.834944 0.271452 0.260237 0.083951 0.995976 -0.031360
0.759408 0.268968 0.234676 -0.034547 -0.999099 0.024667
0.733116 0.270373 0.235514 -0.073476 -0.997117 0.018951
0.636127 0.275838 0.160137 -0.185919 0.978735 0.086674
0.954627 0.283468 0.112573 -0.077092 0.991145 0.108116
0.774567 0.273739 0.267392 0.020630 0.999611 0.018776
0.895302 0.267065 0.255048 0.021752 0.998644 0.047292
0.112554 0.269903 0.209323 0.042447 0.996763 0.068275
0.470219 0.238499 0.134296 -0.855032 0.495375 -0.153378
0.331564 0.273126 0.226620 -0.059367 -0.995556 0.073100
0.916783 0.268689 0.217645 0.117579 -0.990825 -0.066642
0.541960 0.142450 0.358824 0.196117 -0.956513 -0.215918
0.470092 0.139137 0.374258 -0.009442 -0.992958 -0.118086
0.453329 0.210714 0.169977 -0.926010 -0.146852 -0.347765
0.860660 0.265592 0.183916 0.052638 -0.997300 -0.051200
0.372911 0.275213 0.153255 0.191521 0.977273 0.090867
0.352424 0.277838 0.132685 0.210626 0.539869 -0.814971
0.572705 0.240198 0.203483 0.706758 -0.706430 0.038084
0.265332 0.269755 0.212995 0.062478 -0.997915 0.016202
0.741250 0.274130 0.279941 0.061757 0.995483 0.072105
0.601252 0.267623 0.164062 -0.228104 0.969406 0.090669
0.115557 0.267299 0.263821 -0.347557 0.714376 0.607347
0.351120 0.277725 0.167767 0.145909 0.987646 0.057151
0.610808 0.267185 0.202674 -0.312576 0.949145 0.037685
0.821626 0.277905 0.121891 0.002569 0.999938 -0.010839
0.203865 0.272864 0.279468 -0.170696 -0.281989 0.944111
0.531404 0.174112 0.163570 0.625444 -0.731336 -0.271969
0.225310 0.275138 0.183715 -0.058732 0.997593 0.036866
0.288416 0.276659 0.284862 -0.107861 0.989609 0.095077
0.545537 0.147034 0.392108 0.205642 0.953911 0.218551
0.120047 0.273598 0.164169 0.043512 0.992567 0.113652
0.647029 0.271765 0.235292 0.138584 -0.983334 0.117678
0.676845 0.280155 0.181545 -0.053549 0.998175 0.027901
0.313189 0.279859 0.259041 -0.063788 0.997897 -0.011528
0.624790 0.267104 0.237706 0.263621 -0.955006 0.135894
0.437347 0.153703 0.243132 -0.931648 0.304918 -0.197629
0.468200 0.135146 0.411926 0.036803 -0.994503 -0.098023
0.170831 0.265318 0.152842 -0.010675 -0.999897 -0.009565
0.462021 0.138835 0.236968 0.617246 -0.388525 -0.684146
0.760109 0.268374 0.135806 -0.074368 -0.985166 -0.154654
0.127908 0.270276 0.194490 0.030231 0.996520 0.077683
0.684061 0.280298 0.261026 0.053736 0.998362 -0.019632
0.444051 0.248828 0.243292 0.139783 0.902892 0.406505
0.291475 0.274599 0.283233 0.135544 -0.982151 0.130410
0.514204 0.244966 0.095916 0.207635 0.974286 -0.087489
0.561964 0.149886 0.238290 0.771635 0.036188 -0.635036
0.548655 0.047348 0.272195 -0.897114 0.418245 0.142325
0.745052 0.275822 0.226088 0.066603 0.997386 0.028022
0.075304 0.272802 0.201851 0.033500 0.994395 0.100280
0.458062 0.231498 0.161564 -0.812253 0.262627 -0.520838
0.558878 0.218578 0.245678 0.947377 -0.230515 0.222127
0.067553 0.281803 0.115855 0.052682 0.993285 0.103003
0.551511 0.210173 0.265371 0.900279 -0.036233 0.433803
0.265747 0.269864 0.216669 0.063736 -0.997816 0.017337
0.441107 0.152100 0.237241 -0.748829 0.012903 -0.662637
0.829925 0.265643 0.198903 -0.044235 -0.998926 0.013785
0.432704 0.059473 0.245018 -0.896387 0.377763 -0.231917
0.538051 0.149862 0.327241 0.662490 -0.705011 -0.253112
0.951941 0.282775 0.090722 0.161113 -0.978961 -0.125210
0.463624 0.154517 0.369893 -0.319427 0.912161 0.256767
0.514666 0.196890 0.087343 0.413735 -0.874514 -0.253078
0.306724 0.271496 0.182404 0.009241 -0.999677 0.023684
0.445880 0.225173 0.256455 -0.839771 -0.062921 0.539283
0.401053 0.259736 0.244858 -0.370735 -0.918758 0.135793
0.441517 0.141016 0.406717 -0.291308 0.952401 0.089839
0.528805 0.214999 0.089832 0.884120 -0.335566 -0.325156
0.737820 0.275799 0.243420 0.075628 0.996695 0.029667
0.890512 0.273914 0.116361 0.092208 -0.989882 -0.107846
0.720587 0.278431 0.198517 0.068376 0.997129 0.032533
0.957967 0.285337 0.100168 -0.105989 0.987073 0.120226
0.447016 0.123129 0.278833 -0.082865 0.122850 0.988960
0.182806 0.265754 0.167102 0.011954 -0.999910 0.006096
0.256217 0.277493 0.174388 -0.070452 0.996055 0.053948
0.201862 0.266604 0.186166 0.027879 -0.999452 0.017858
0.555112 0.086776 0.257315 -0.680633 -0.098676 0.725949
0.516086 0.142237 0.339575 0.068602 -0.993756 -0.087997
0.517903 0.199168 0.085110 0.598501 -0.755042 -0.267782
0.415784 0.132343 0.450071 -0.172182 0.982554 0.070286
0.551125 0.129907 0.477574 -0.036867 -0.998693 -0.035404
0.161321 0.267654 0.257494 0.068059 -0.992218 0.104266
0.468345 0.227134 0.269513 -0.235236 0.683738 0.690772
0.183831 0.272457 0.243245 -0.057475 0.998277 -0.011832
0.547888 0.219961 0.163840 0.884423 0.027803 -0.465856
0.238746 0.277795 0.154018 -0.072697 0.992674 0.096511
0.080022 0.280213 0.125676 0.054052 0.993301 0.102132
0.618649 0.260357 0.174204 0.264644 -0.963217 0.046655
0.518696 0.256526 0.174934 0.034207 0.997716 -0.058248
0.457201 0.255802 0.208038 0.061473 0.994356 0.086471
0.701013 0.279231 0.225153 0.060728 0.998063 0.013509
0.202186 0.269001 0.251849 0.015163 -0.997819 0.064237
0.242427 0.271361 0.283815 -0.023047 -0.977499 0.209677
0.710565 0.272069 0.231700 -0.072869 -0.996832 0.031882
0.477351 0.184647 0.125327 -0.476907 -0.763582 -0.435318
0.452404 0.256225 0.211154 0.083942 0.989296 0.119363
0.466572 0.133817 0.471150 -0.019860 0.986346 0.163483
0.252000 0.268481 0.174169 0.056173 -0.998374 0.009700
0.506213 0.210731 0.058752 0.816657 0.512584 -0.265195
0.042513 0.280410 0.135418 -0.278481 -0.960327 -0.014833
0.560929 0.046669 0.255140 0.104668 -0.984791 -0.138678
0.133169 0.268919 0.219290 -0.021520 0.999356 0.028713
0.496863 0.137601 0.448976 0.007084 0.981707 0.190265
0.695611 0.273390 0.133728 -0.001870 -0.878617 -0.477524
0.504418 0.142637 0.425293 0.006924 0.975038 0.221930
0.455280 0.134886 0.409144 0.038582 -0.994283 -0.099563
0.407241 0.129425 0.449742 -0.156471 -0.975779 -0.152879
0.033841 0.287792 0.087572 0.123176 0.983881 0.129638
0.427858 0.243094 0.223663 -0.705818 -0.704389 0.075216
0.792267 0.267388 0.208918 -0.033048 -0.999159 0.024260
0.928706 0.275040 0.177754 0.624068 0.701334 0.344484
0.099651 0.272968 0.140228 -0.125417 -0.988150 -0.088484
0.636945 0.271378 0.247411 0.191489 -0.967479 0.165276
0.496637 0.228157 0.036014 -0.260475 0.907635 -0.329167
0.562228 0.129485 0.477430 -0.042232 -0.998469 -0.035727
0.130716 0.267016 0.172589 -0.071401 -0.996190 -0.050080
0.805376 0.266161 0.171337 -0.023849 -0.999586 0.016107
0.414763 0.265573 0.159490 0.204721 0.974929 0.087195
0.134953 0.266941 0.168701 -0.064299 -0.997108 -0.040520
0.565855 0.065705 0.253429 0.866233 0.429376 0.255493
0.716452 0.278033 0.227355 0.075472 0.996975 0.018565
0.159714 0.265429 0.220182 0.046880 -0.998404 0.031504
0.459219 0.149745 0.230920 0.038454 -0.514373 -0.856704
0.525054 0.254180 0.165430 0.244690 0.944545 -0.219003
0.585221 0.132544 0.449844 0.170675 0.982537 0.074106
0.040009 0.281464 0.119132 -0.237691 -0.970373 -0.043339
0.463835 0.140581 0.365940 -0.079417 -0.984002 -0.159478
0.738417 0.277149 0.197945 0.073705 0.996620 0.036266
0.837318 0.271339 0.195475 0.062308 0.997344 0.037713
0.198996 0.272971 0.218516 -0.051573 0.998604 0.011424
0.835026 0.265503 0.183116 -0.017436 -0.999848 -0.000629
0.639040 0.275601 0.224787 -0.218919 0.975322 -0.028662
0.468202 0.241604 0.252142 -0.153197 0.822081 0.548373
0.465526 0.252226 0.173808 -0.336572 0.889481 -0.309101
0.442208 0.220072 0.195530 -0.884676 -0.436944 -0.162569
0.826696 0.265812 0.198245 -0.042154 -0.999011 0.014174
0.501183 0.246122 0.094666 0.000255 0.996229 -0.086758
0.436380 0.108414 0.271060 -0.832656 -0.312149 0.457434
0.463809 0.164087 0.317453 -0.955385 0.293878 -0.029570
0.789377 0.268823 0.127009 -0.065378 -0.899422 -0.432164
0.398724 0.259800 0.238549 -0.348417 -0.932399 0.096115
0.224449 0.274312 0.124231 0.152121 -0.124068 -0.980544
0.720016 0.273978 0.287474 -0.125795 -0.955675 0.266198
0.572464 0.240883 0.221458 0.731967 -0.679562 0.049193
0.911249 0.268956 0.204932 0.122528 -0.990079 -0.068785
0.551720 0.249697 0.237697 -0.252996 0.885160 0.390492
0.480602 0.192237 0.108478 -0.509980 -0.757235 -0.408062
0.435952 0.107497 0.265981 -0.726403 -0.678499 0.109441
0.455022 0.149270 0.380411 -0.366455 0.916617 0.159760
0.790707 0.267359 0.205467 -0.032536 -0.999246 0.021174
0.311521 0.279863 0.273429 -0.094440 0.995477 0.010360
0.847189 0.270574 0.271978 0.102476 0.989399 0.102904
0.788552 0.266455 0.139688 -0.041346 -0.997474 -0.057757
0.538341 0.130902 0.465894 -0.028385 -0.998309 -0.050733
0.478966 0.243690 0.110605 -0.583196 0.796137 -0.161393
0.561605 0.135871 0.447718 0.093425 0.987711 0.125291
0.174223 0.267728 0.247322 0.051161 -0.996245 0.069851
0.118729 0.268387 0.166904 -0.098649 -0.993786 -0.051555
0.415677 0.056354 0.246117 -0.036988 0.975910 0.215017
0.476106 0.150848 0.238187 0.157287 -0.949708 -0.270767
0.483839 0.163073 0.182018 -0.252313 -0.940365 -0.228149
0.448362 0.066018 0.244880 0.366814 0.773897 -0.516267
0.535004 0.145588 0.404930 0.107201 0.970051 0.217965
0.467920 0.171965 0.324587 -0.849400 0.506295 0.148945
0.628988 0.274391 0.160032 -0.201650 0.975405 0.089012
0.511868 0.239903 0.063460 0.175476 0.906808 -0.383285
0.546340 0.148137 0.386871 0.249297 0.943900 0.216572
0.546481 0.134400 0.414279 -0.038577 -0.994596 -0.096385
0.886586 0.273920 0.163563 -0.047606 0.992239 0.114876
0.404537 0.129415 0.460976 -0.375007 0.922424 0.092215
0.112942 0.278975 0.092592 0.292735 -0.495057 -0.818062
0.868892 0.267124 0.166599 0.068908 -0.996849 -0.039283
0.867672 0.278912 0.116170 -0.021728 0.991773 0.126148
0.028001 0.287455 0.088108 -0.351722 -0.925485 -0.140600
0.555477 0.129660 0.480121 -0.037358 -0.998977 -0.025490
0.488316 0.191881 0.102486 -0.242688 -0.905966 -0.346883
0.145174 0.274951 0.145510 0.011164 0.995182 0.097405
0.398548 0.265006 0.199067 0.292948 0.953511 0.070702
0.215948 0.273759 0.225949 -0.046794 0.998819 0.013069
0.190246 0.266251 0.183629 0.020454 -0.999732 0.010848
0.935132 0.273603 0.197910 0.339204 0.912158 0.230020
0.896167 0.275047 0.110990 0.085316 -0.989254 -0.118737
0.295897 0.278069 0.274000 -0.107569 0.993775 0.028997
0.249749 0.273953 0.274247 -0.038878 0.998275 0.043993
0.048037 0.286751 0.080920 0.102135 0.988753 0.109256
0.199725 0.273125 0.244255 -0.036400 0.999326 -0.004759
0.220854 0.275307 0.172393 -0.059671 0.996999 0.049328
0.731070 0.270153 0.213030 -0.064283 -0.997770 0.017982
0.825204 0.271903 0.238083 0.067750 0.997667 -0.008368
0.487625 0.141520 0.346435 -0.041980 -0.995444 -0.085612
0.463486 0.240844 0.252348 -0.021636 0.830846 0.556082
0.637003 0.268036 0.218399 0.206176 -0.973872 0.095213
0.543144 0.094925 0.257821 -0.837805 -0.539791 0.081905
0.698786 0.271015 0.167148 -0.008133 -0.999879 0.013255
0.857404 0.267552 0.139761 0.094547 -0.987451 -0.126498
0.466094 0.165968 0.212208 -0.594152 -0.730593 -0.336477
0.306492 0.272244 0.211663 0.029955 -0.998825 0.038083
0.461318 0.139901 0.431304 -0.069382 0.983317 0.168149
0.413141 0.249514 0.154414 -0.400537 -0.914492 -0.057225
0.640661 0.276363 0.238629 -0.209761 0.977074 -0.036416
0.069735 0.274138 0.179531 -0.289181 -0.957260 -0.005224
0.335916 0.269337 0.145318 -0.111955 -0.988997 -0.096699
0.932000 0.271971 0.203131 0.174091 -0.982529 -0.065795
0.684370 0.270922 0.171071 0.039041 -0.998877 0.026856
0.565268 0.132081 0.473832 0.067081 0.986402 0.150037
0.658174 0.268894 0.184058 0.130723 -0.990271 0.047705
0.079101 0.279800 0.130273 0.054443 0.993208 0.102825
0.506466 0.254624 0.137062 0.051355 0.984238 -0.169226
0.444197 0.099708 0.266789 -0.446256 -0.802242 0.396564
0.530547 0.136332 0.455606 0.021948 0.987717 0.154705
0.646116 0.277256 0.229537 -0.169114 0.985039 -0.033144
0.335691 0.270917 0.202799 -0.086883 -0.994510 0.058326
0.511866 0.256088 0.202070 -0.000613 0.997275 0.073775
0.082995 0.278069 0.146176 0.046206 0.992892 0.109679
0.947845 0.282039 0.122563 -0.069560 0.992501 0.100517
0.545379 0.152083 0.367877 0.510305 0.849559 0.133559
0.502991 0.213710 0.064693 0.091347 0.978019 -0.187441
0.705315 0.282534 0.148385 0.035427 0.993261 0.110355
0.731493 0.271787 0.280353 -0.085921 -0.993487 0.074836
0.174814 0.274074 0.155100 -0.026105 0.995761 0.088190
0.867373 0.267303 0.157663 0.080323 -0.995999 -0.039182
0.378923 0.272221 0.251499 0.328899 0.941160 -0.077742
0.874334 0.267123 0.174352 0.076161 -0.995576 -0.055019
0.536296 0.135984 0.246227 -0.908924 -0.335440 -0.247663
0.637499 0.267589 0.213279 0.202035 -0.975403 0.088149
0.213622 0.273854 0.209755 -0.051019 0.998498 0.019991
0.323549 0.277053 0.267438 0.071294 -0.987221 0.142521
0.409800 0.250978 0.160059 -0.402390 -0.915463 -0.003050
0.468929 0.146393 0.239745 0.600941 -0.675115 -0.427890
0.611160 0.266850 0.215319 -0.325849 0.944991 0.028524
0.529190 0.237350 0.259595 0.179434 0.785660 0.592066
0.865880 0.268838 0.269185 0.133810 0.971278 0.196759
0.508382 0.139450 0.371729 0.000454 -0.996186 -0.087253
0.866084 0.264948 0.229369 -0.006765 -0.999587 0.027940
0.448023 0.116118 0.238351 -0.107591 -0.104999 -0.988635
0.038706 0.284887 0.085963 -0.212607 -0.968448 -0.130027
0.457713 0.099040 0.244183 0.643533 -0.431350 -0.632299
0.689979 0.279876 0.275709 0.092593 0.995638 0.011440
0.695260 0.271080 0.170801 0.000370 -0.999768 0.021552
0.465803 0.161492 0.351624 -0.524065 0.808117 0.268892
0.574545 0.046169 0.250929 -0.204266 -0.938756 -0.277510
0.948045 0.285891 0.067868 0.029715 -0.922320 -0.385283
0.551150 0.146440 0.367020 0.894484 0.389939 -0.218737
0.350876 0.278654 0.249635 0.139303 0.989180 -0.046020
0.738749 0.270220 0.251739 -0.062650 -0.997718 0.025180
0.522125 0.172735 0.341328 0.209586 0.835651 0.507702
0.084558 0.282909 0.096155 0.040324 0.992602 0.114526
0.253070 0.273398 0.286030 -0.045562 0.985990 0.160460
0.798855 0.265924 0.144388 -0.029589 -0.999474 -0.013301
0.534533 0.197429 0.127201 0.887612 -0.317603 -0.333577
0.508512 0.139805 0.367893 0.004507 -0.996554 -0.082824
0.409320 0.131051 0.453596 -0.216052 0.974776 0.055971
0.482644 0.220747 0.060728 -0.963157 0.098462 -0.250266
0.559257 0.101963 0.271816 0.591182 -0.793113 0.146545
0.532196 0.217310 0.101725 0.968645 -0.185277 -0.165527
0.469249 0.148179 0.267457 0.388887 -0.772284 0.502339
0.898402 0.271778 0.146298 0.133628 -0.986090 -0.098848
0.418096 0.250477 0.224242 -0.508318 -0.852568 0.121413
0.426536 0.258416 0.199121 0.108755 0.984936 0.134439
0.533116 0.233056 0.263258 0.205683 0.738723 0.641859
0.463702 0.163715 0.286645 -0.954056 -0.247681 0.168614
0.612557 0.263816 0.243973 0.325716 -0.933811 0.148004
0.336784 0.280181 0.160886 0.105940 0.991269 0.078498
0.343670 0.278247 0.189178 0.121979 0.992450 0.012821
0.485830 0.135414 0.461909 0.003176 0.986519 0.163619
0.770680 0.267728 0.190099 -0.040152 -0.999010 0.019140
0.450657 0.138464 0.435777 -0.083369 0.984914 0.151638
0.529704 0.135593 0.409028 -0.033685 -0.994533 -0.098837
0.248762 0.268828 0.208623 0.049266 -0.998641 0.016993
0.431134 0.239206 0.215924 -0.743384 -0.668012 0.033776
0.111150 0.275602 0.151932 0.049998 0.992050 0.115489
0.840076 0.267021 0.248988 -0.062367 -0.995769 0.067491
0.813693 0.272562 0.209467 0.054296 0.998419 0.014519
0.547486 0.184686 0.266129 0.946314 -0.135007 0.293707
0.697419 0.279271 0.244320 0.068500 0.997621 0.007742
0.355785 0.277368 0.231105 0.166356 0.985468 -0.034331
0.414109 0.263800 0.175411 0.198143 0.973483 0.114323
0.074875 0.280928 0.081598 -0.039950 -0.976445 -0.212034
0.537156 0.221343 0.127587 0.964467 0.182868 -0.190688
0.545842 0.132547 0.275194 -0.528827 0.015669 0.848585
0.230556 0.267185 0.146790 0.052790 -0.998002 -0.034701
0.824879 0.272070 0.253972 0.064525 0.997771 -0.017004
0.092760 0.270748 0.178560 -0.140695 -0.987805 -0.066674
0.534535 0.131967 0.481418 0.021205 0.979401 0.200808
0.510815 0.165912 0.168176 0.053871 -0.939000 -0.339671
0.141251 0.264797 0.220662 0.011087 -0.999762 0.018800
0.228555 0.279364 0.134251 -0.070959 0.993315 0.091049
0.532373 0.132200 0.480408 0.017511 0.981308 0.191647
0.781287 0.278898 0.125579 -0.029758 0.858262 -0.512348
0.553739 0.249990 0.238481 -0.221792 0.900378 0.374337
0.731301 0.279928 0.158058 0.068405 0.993193 0.094276
0.516674 0.227172 0.077684 0.815715 0.578451 -0.001658
0.220982 0.269887 0.263969 -0.000692 -0.997316 0.073220
0.739753 0.282238 0.131853 0.059343 0.974615 -0.215880
0.562186 0.123478 0.239942 0.486132 -0.095937 -0.868603
0.373775 0.268735 0.243567 -0.241695 -0.958134 0.153503
0.431469 0.130434 0.254000 -0.992749 0.119233 -0.015261
0.922848 0.272793 0.198581 -0.042684 0.994362 0.097066
0.066827 0.279595 0.139215 0.047384 0.993755 0.101027
0.917217 0.269204 0.233294 -0.033346 0.994775 0.096496
0.373253 0.262881 0.172700 -0.228062 -0.972748 0.041822
0.379505 0.270932 0.207764 0.288297 0.957480 0.010774
0.094776 0.276956 0.101070 -0.074659 -0.989017 -0.127556
0.727069 0.275198 0.284347 0.093615 0.992651 0.076681
0.192401 0.265874 0.164574 0.021804 -0.999642 0.015488
0.822718 0.266321 0.213169 -0.045195 -0.998454 0.032364
0.512467 0.214591 0.064688 -0.072786 -0.997153 0.019696
0.793780 0.267334 0.208797 -0.033132 -0.999152 0.024463
0.471366 0.179625 0.148635 -0.580613 -0.771457 -0.260273
0.270240 0.270812 0.135742 0.076143 -0.964677 -0.252192
0.518814 0.232545 0.063421 0.679162 -0.512178 -0.525750
0.571105 0.048182 0.258762 0.336391 -0.475287 0.812984
0.216129 0.272679 0.123104 0.157059 -0.438695 -0.884805
0.329650 0.272003 0.209991 -0.062751 -0.996295 0.058814
0.400978 0.262504 0.234728 0.395464 0.918020 0.029127
0.501657 0.233354 0.268654 0.000093 0.812885 0.582424
0.240429 0.267897 0.140997 0.062895 -0.996029 -0.063012
0.378698 0.264783 0.218677 -0.263331 -0.960607 0.088834
0.727287 0.279240 0.166805 0.065379 0.995558 0.067754
0.482628 0.131579 0.461252 0.014948 -0.998613 -0.050488
0.493944 0.137161 0.399035 0.010336 -0.995461 -0.094607
0.704539 0.271149 0.146096 -0.018698 -0.997532 -0.067679
0.822047 0.266056 0.197323 -0.039163 -0.999124 0.014760
0.714227 0.280727 0.159679 0.054185 0.994507 0.089557
0.432637 0.110732 0.260134 -0.751691 -0.659500 -0.004397
0.560979 0.228994 0.181555 0.627059 -0.625724 -0.463969
0.502814 0.253945 0.152781 0.001834 0.995299 -0.096828
0.063869 0.276097 0.172865 -0.469586 -0.878809 0.084756
0.543208 0.255387 0.207686 -0.095720 0.993725 0.057855
0.339440 0.281264 0.146480 0.110338 0.989448 0.093909
0.858116 0.269632 0.207585 0.045080 0.998454 0.032528
0.664786 0.275580 0.255439 0.032539 -0.990759 0.131671
0.537143 0.253243 0.176776 0.298460 0.920014 -0.253960
0.114527 0.268079 0.178916 -0.099277 -0.993001 -0.063983
0.536584 0.226331 0.131075 0.941291 0.289330 -0.173950
0.836547 0.266375 0.232213 -0.058086 -0.997282 0.045324
0.806446 0.269007 0.124137 -0.041474 -0.906862 -0.419381
0.805250 0.272920 0.214689 0.052546 0.998535 0.012930
0.118427 0.271060 0.136279 -0.111853 -0.986962 -0.115737
0.309501 0.271094 0.171025 -0.007508 -0.999692 0.023667
0.504785 0.147311 0.249949 0.046533 -0.978662 -0.200139
0.455714 0.253703 0.188905 0.126368 0.952482 -0.277144
0.092560 0.271173 0.173763 -0.145571 -0.987130 -0.066204
0.458362 0.147813 0.232001 0.090635 -0.474808 -0.875410
0.198503 0.271488 0.274936 -0.014303 -0.979381 0.201513
0.485358 0.185007 0.118887 -0.234849 -0.868602 -0.436322
