0.251268 0.068960 0.055603 0.227639 -0.174960 0.957898
0.610751 0.408420 0.051213 0.481472 -0.856618 0.185447
0.212200 0.082445 0.070654 -0.746677 0.660835 0.075965
0.250964 0.169774 0.058212 0.209750 -0.129427 0.969151
0.825208 0.584827 0.056836 -0.318431 0.794121 0.517661
0.329748 0.185256 0.061469 -0.007658 0.002250 0.999968
0.435427 0.307500 0.058212 0.203336 -0.376459 0.903844
0.373305 0.297336 0.058212 -0.067070 -0.007950 -0.997717
0.118142 0.054478 0.058212 -0.144807 -0.255699 0.955850
0.277278 0.124746 0.061469 0.127832 -0.090701 0.987640
0.138979 0.175592 0.062291 -0.552683 0.833391 -0.001431
0.284919 0.168217 0.058212 -0.018197 0.003302 -0.999829
0.920031 0.603021 0.058212 0.014155 0.037573 0.999194
0.738527 0.497920 0.061479 0.054948 -0.111083 0.992291
0.127974 0.293232 0.025000 -0.000562 0.177072 -0.984198
0.365648 0.413796 0.029541 -0.088294 0.895935 -0.435320
0.348722 0.302865 0.047217 -0.498685 0.842639 -0.203157
0.272921 0.163575 0.061469 -0.013165 0.003123 0.999908
0.239620 0.225451 0.025000 0.141247 -0.100364 -0.984874
0.378399 0.205048 0.058212 0.022971 0.120487 -0.992449
0.296517 0.243857 0.061469 -0.003166 0.009044 0.999954
0.517248 0.384073 0.058212 -0.086237 0.068021 0.993950
0.059712 0.211764 0.058212 -0.329154 -0.123532 0.936161
0.260485 0.243762 0.058212 0.034982 -0.001062 0.999387
0.124509 0.297445 0.058212 0.003755 0.180957 0.983484
0.253518 0.155030 0.058212 0.168546 -0.093872 0.981214
0.355222 0.293671 0.061479 -0.087265 0.059859 0.994385
0.349938 0.355960 0.045122 0.826687 -0.242031 0.507947
0.401070 0.323135 0.042910 -0.119604 0.097235 -0.988049
0.145874 0.138369 0.064105 -0.204571 -0.147727 0.967640
0.279058 0.135302 0.058212 0.137590 -0.116073 -0.983665
0.360185 0.300720 0.061744 -0.838629 -0.439435 0.321868
0.067207 0.141084 0.058212 -0.340475 -0.202945 0.918090
0.222270 0.098502 0.061629 -0.029525 -0.888533 -0.457861
0.047187 0.154210 0.025000 -0.461275 -0.206996 -0.862773
0.265129 0.341322 0.035567 -0.738238 0.539985 -0.404253
0.387670 0.299459 0.061479 -0.075964 -0.016956 0.996966
0.386034 0.317366 0.058212 -0.078973 0.050697 -0.995587
0.359270 0.304232 0.058212 -0.084117 0.059568 -0.994674
0.654371 0.442327 0.058212 0.018669 -0.080989 -0.996540
0.262599 0.217685 0.025000 0.116032 -0.174157 -0.977858
0.245645 0.148582 0.080908 0.196601 -0.305752 -0.931592
0.217860 0.094995 0.025000 0.121362 -0.146336 -0.981762
0.138562 0.135426 0.053738 -0.217744 -0.278297 -0.935488
0.252859 0.223941 0.061469 -0.010426 0.011702 0.999877
0.605981 0.445150 0.067647 0.493419 -0.866943 0.070334
0.181282 0.072107 0.058212 0.062447 -0.178349 0.981984
0.027029 0.226846 0.025000 -0.822666 0.219849 -0.524297
0.395289 0.304950 0.042910 -0.084649 0.039325 -0.995634
0.540873 0.367137 0.051267 0.478478 -0.852370 0.211006
0.106416 0.298764 0.050678 0.015228 0.259642 0.965585
0.792031 0.544134 0.063282 -0.732533 -0.246788 0.634422
0.813440 0.571769 0.058212 -0.214418 0.492826 0.843296
0.150249 0.075584 0.058212 -0.021999 -0.206193 0.978264
0.299385 0.276320 0.025000 0.209783 -0.014091 -0.977646
0.116995 0.269728 0.058212 0.047114 0.080458 0.995644
0.216153 0.131497 0.025000 0.119235 -0.051865 -0.991510
0.944153 0.614429 0.042910 -0.142908 0.216607 -0.965743
0.261902 0.190794 0.061469 -0.011423 0.002576 0.999931
0.117148 0.155817 0.058212 -0.074410 -0.130028 0.988714
0.608697 0.407997 0.061479 0.042073 -0.173182 0.983991
0.515313 0.386055 0.058212 -0.059420 0.031582 -0.997733
0.187412 0.175394 0.058212 -0.021405 0.021240 -0.999545
0.137423 0.028695 0.050615 -0.200687 -0.464440 0.862566
0.263107 0.278467 0.061090 -0.039193 0.126349 0.991211
0.264816 0.179935 0.058212 0.019533 0.003380 -0.999803
0.405827 0.321094 0.042910 -0.095423 0.058078 -0.993741
0.255447 0.297916 0.058212 -0.079649 0.345179 0.935151
0.310804 0.163165 0.025000 0.194877 -0.247863 -0.948992
0.519855 0.380082 0.061479 -0.051076 -0.015216 0.998579
0.203885 0.074546 0.058212 0.101551 -0.171954 0.979857
0.698029 0.478303 0.061479 0.020995 -0.078180 0.996718
0.043252 0.183225 0.058212 -0.419647 -0.173615 0.890929
0.680991 0.449916 0.057497 0.268002 -0.482353 0.833973
0.301230 0.179057 0.058212 0.157589 -0.236605 0.958741
0.487831 0.338259 0.058212 0.209678 -0.386147 0.898291
0.118639 0.286082 0.025000 0.012295 0.117763 -0.992966
0.336203 0.206323 0.058212 0.027402 0.022246 0.999377
0.241489 0.205941 0.025000 0.170673 -0.117351 -0.978315
0.368729 0.287075 0.058212 -0.068939 0.002253 0.997618
0.285647 0.216223 0.058212 -0.004587 0.008944 -0.999950
0.539557 0.381635 0.058897 -0.818009 -0.523423 -0.238513
0.272269 0.288472 0.025000 0.000163 0.257180 -0.966364
0.502206 0.371335 0.069310 0.494156 -0.854968 0.157606
0.651075 0.438041 0.058212 0.025346 -0.093356 -0.995310
0.358781 0.290975 0.058212 0.108415 0.038458 0.993361
0.762791 0.518420 0.058212 0.057342 -0.118355 0.991314
0.339544 0.289238 0.025000 0.114913 -0.027221 -0.993003
0.388570 0.277365 0.058212 0.451360 -0.541074 0.709587
0.336516 0.341377 0.025000 0.175988 0.240532 -0.954554
0.112348 0.275117 0.058212 0.041095 0.086427 0.995410
0.668760 0.477486 0.058212 -0.099986 0.127057 0.986843
0.669277 0.478594 0.058212 -0.047281 0.057625 -0.997218
0.743289 0.489847 0.064908 0.506489 -0.860855 -0.048961
0.438043 0.325781 0.042910 -0.087102 0.054814 -0.994690
0.134528 0.178472 0.061589 -0.609579 -0.792541 -0.017086
0.812131 0.528620 0.058212 0.239617 -0.424744 0.873027
0.219820 0.072242 0.071198 0.447767 -0.883679 0.136442
0.184756 0.152715 0.058212 0.071091 -0.106601 0.991757
0.025060 0.196507 0.038873 -0.988210 -0.014165 -0.152448
0.099935 0.134139 0.058212 -0.164200 -0.172033 0.971310
0.030539 0.236457 0.055532 -0.858817 0.369605 0.354719
0.176550 0.119892 0.072374 0.839026 -0.499206 0.216398
0.338984 0.297386 0.060832 -0.154510 0.204441 0.966608
0.047911 0.207519 0.025000 -0.407099 -0.154241 -0.900266
0.164434 0.269148 0.025000 0.024578 0.119073 -0.992581
0.310401 0.275023 0.061469 0.029459 0.053169 0.998151
0.025023 0.212183 0.044562 -0.982242 0.021987 0.186324
0.205491 0.062608 0.061469 0.062637 -0.079137 0.994894
0.248307 0.271108 0.058212 -0.010394 0.036117 -0.999294
0.173361 0.161833 0.058212 -0.050788 -0.004234 -0.998700
0.696832 0.483373 0.065857 -0.497955 0.865134 0.059869
0.247399 0.064342 0.049374 0.344512 -0.334540 0.877151
0.216249 0.079064 0.075505 -0.175623 0.451870 0.874626
0.081962 0.209887 0.058212 -0.214181 -0.103886 0.971254
0.401868 0.322801 0.042910 -0.111545 0.083792 -0.990221
0.232090 0.130259 0.061469 -0.086998 -0.031026 0.995725
0.354628 0.411479 0.026391 -0.245235 0.805043 -0.540153
0.401131 0.214268 0.059671 -0.375915 0.884677 -0.275744
0.579865 0.415846 0.042910 -0.113359 0.133858 -0.984496
0.172627 0.265523 0.058212 0.035463 0.071301 0.996824
0.311304 0.279142 0.058212 0.144652 -0.024950 0.989168
0.739606 0.507891 0.061479 0.022249 -0.053196 0.998336
0.879028 0.601318 0.057737 -0.198733 0.514426 0.834189
0.225363 0.309116 0.039310 -0.211130 0.960738 -0.180019
0.227617 0.179060 0.025000 0.073747 0.023199 -0.997007
0.270096 0.142861 0.058212 0.247958 -0.160593 0.955367
0.186086 0.229818 0.058212 -0.013833 0.035907 -0.999259
0.131383 0.269570 0.025000 0.018325 0.102487 -0.994565
0.352320 0.282841 0.061357 0.866154 0.498607 0.034167
0.034483 0.245331 0.057032 -0.839055 0.383907 0.385489
0.803394 0.535102 0.058212 0.132381 -0.243310 0.960872
0.225157 0.128917 0.058212 0.166840 -0.068936 0.983571
0.862788 0.585002 0.060355 -0.976149 -0.161571 -0.145013
0.207633 0.247649 0.061469 -0.009687 0.041895 0.999075
0.558236 0.387969 0.068307 -0.505583 0.862376 0.026342
0.334156 0.198981 0.061469 0.011320 0.027320 0.999563
0.352246 0.243967 0.039077 0.895308 -0.370248 -0.247670
0.194973 0.195554 0.025000 0.040899 0.056841 -0.997545
0.374189 0.213439 0.055535 0.055324 0.888429 0.455668
0.029622 0.168569 0.042863 -0.922450 -0.360088 0.139365
0.098739 0.080800 0.058212 -0.283646 -0.243356 0.927536
0.334838 0.338376 0.058212 0.025002 0.235799 0.971480
0.526197 0.398509 0.058212 -0.130936 0.162870 0.977921
0.221097 0.075509 0.025000 0.138326 -0.165368 -0.976483
0.203276 0.137857 0.081366 -0.286581 0.795915 -0.533283
0.318995 0.252759 0.061469 0.000481 0.007365 0.999973
0.262198 0.209346 0.025000 0.143400 -0.166030 -0.975639
0.341670 0.350536 0.058212 0.090320 0.148756 0.984741
0.524368 0.358946 0.042910 0.259849 -0.467955 -0.844687
0.305679 0.155757 0.058212 0.244823 -0.209523 0.946658
0.124566 0.164143 0.025000 -0.056050 -0.117154 -0.991531
0.078119 0.115648 0.058212 -0.332675 -0.227614 0.915161
0.302267 0.162136 0.058212 0.236294 -0.202834 0.950276
0.252322 0.198814 0.073157 -0.507665 0.858936 0.067117
0.786649 0.520344 0.058212 0.055011 -0.072513 -0.995849
0.206113 0.283119 0.058212 0.037553 0.025712 0.998964
0.282424 0.362841 0.028645 -0.567517 0.495358 -0.657682
0.201002 0.031391 0.037131 0.278716 -0.617488 -0.735544
0.936978 0.605700 0.042910 0.003600 0.033457 -0.999434
0.305356 0.324800 0.058212 -0.185107 0.307275 0.933444
0.200316 0.305136 0.030581 -0.029396 0.767426 -0.640464
0.626635 0.441039 0.058212 -0.037907 -0.004025 -0.999273
0.236566 0.242855 0.061139 0.503433 0.453678 -0.735344
0.232814 0.213171 0.058212 0.161551 -0.093574 0.982418
0.137771 0.127524 0.025000 -0.041554 -0.150900 -0.987675
0.737132 0.484876 0.061479 0.097254 -0.185873 0.977749
0.273942 0.352275 0.051068 -0.549033 0.536355 0.641003
0.276577 0.355470 0.035744 -0.647087 0.624091 -0.437937
0.026768 0.176766 0.038535 -0.948077 -0.240193 -0.208464
0.534055 0.399334 0.058212 -0.060039 0.043928 -0.997229
0.822927 0.604410 0.047038 -0.396980 0.341910 -0.851765
0.612436 0.444697 0.058212 -0.096228 0.108021 0.989480
0.834957 0.550175 0.058212 0.136570 -0.230001 0.963560
0.554243 0.382924 0.058212 -0.007748 -0.089147 -0.995988
0.798031 0.556992 0.058212 -0.133222 0.245763 0.960131
0.101978 0.297696 0.058212 0.013116 0.131246 0.991263
0.725204 0.485318 0.058212 0.034217 -0.070147 -0.996950
0.245485 0.314206 0.025000 0.006495 0.067964 -0.997667
0.059187 0.167223 0.025000 -0.380674 -0.174396 -0.908115
0.377960 0.273787 0.042910 0.276398 -0.495624 -0.823384
0.230189 0.102395 0.064424 0.864089 -0.497558 0.076067
0.051435 0.204824 0.058212 -0.360300 -0.139123 0.922404
0.285909 0.367110 0.056830 -0.560173 0.507281 0.654883
0.184744 0.128105 0.025000 0.080173 -0.125410 -0.988860
0.210381 0.044289 0.058212 0.103186 -0.212220 0.971759
0.092732 0.226777 0.025000 -0.119071 -0.068878 -0.990494
0.533980 0.383142 0.058212 -0.043048 -0.029843 -0.998627
0.562075 0.419792 0.042910 -0.158710 0.203744 -0.966074
0.225884 0.114397 0.065068 0.349391 0.919802 0.178579
0.773565 0.521559 0.042910 0.035357 -0.085605 -0.995702
0.224488 0.205599 0.058212 0.153217 -0.083186 0.984685
0.238145 0.164295 0.061469 -0.016300 0.000541 0.999867
0.870761 0.578260 0.063066 -0.505697 0.862349 0.025003
0.391190 0.389935 0.032300 0.303146 -0.862116 -0.406028
0.717085 0.471239 0.049063 0.453829 -0.825031 -0.336694
0.462487 0.323293 0.069157 0.509055 -0.860734 -0.000222
0.330370 0.277961 0.042910 -0.084233 0.020587 -0.996233
0.851281 0.547775 0.058212 0.254067 -0.430057 0.866314
0.290315 0.238369 0.025000 0.028859 0.036824 -0.998905
0.610174 0.416734 0.059096 -0.814967 -0.537207 -0.217341
0.547556 0.371928 0.042910 0.257825 -0.465741 -0.846529
0.333776 0.312484 0.025000 0.053591 0.074868 -0.995752
0.132889 0.192181 0.053551 0.006516 0.205381 -0.978660
0.085794 0.095738 0.058212 -0.357526 -0.252591 0.899096
0.205135 0.273135 0.058212 0.040035 -0.011040 0.999137
0.186009 0.118286 0.062234 0.173833 -0.132938 0.975761
0.153167 0.171058 0.064105 0.242630 0.191838 0.950962
0.293724 0.338970 0.058212 -0.330196 0.349626 0.876774
0.061025 0.103746 0.057610 -0.421549 -0.259811 0.868789
0.760108 0.533806 0.060478 0.795826 0.531619 -0.289901
0.244352 0.238619 0.058212 0.081648 -0.155611 0.984438
0.093310 0.147647 0.058212 -0.244007 -0.168111 0.955091
0.228481 0.181270 0.058212 0.065484 0.013271 0.997765
0.199545 0.069398 0.061469 0.046516 -0.051236 0.997603
0.284604 0.176431 0.083285 -0.446120 0.843227 0.299910
0.084706 0.091755 0.025000 -0.335037 -0.239272 -0.911317
0.245527 0.168328 0.058212 -0.000345 0.010566 -0.999944
0.242848 0.111172 0.058212 0.195326 -0.095076 0.976119
0.390066 0.293448 0.058212 0.545417 -0.360811 0.756529
0.349610 0.247503 0.058994 0.757753 -0.131742 -0.639104
0.162369 0.277570 0.058212 0.027953 0.094211 0.995160
0.559631 0.391803 0.058212 -0.024794 -0.059092 -0.997945
0.548375 0.398380 0.058212 -0.048895 0.002740 -0.998800
0.347067 0.348526 0.056029 0.238579 0.077694 0.968010
0.267756 0.344714 0.032319 -0.603831 0.499870 -0.620902
0.652356 0.433719 0.061479 0.062321 -0.180076 0.981676
0.293956 0.370248 0.025000 -0.479566 0.476565 -0.736819
0.700737 0.461581 0.059084 0.142405 -0.292987 -0.945452
0.094683 0.114921 0.025000 -0.257861 -0.202613 -0.944699
0.828805 0.522222 0.054252 0.395924 -0.835450 0.381139
0.189701 0.137339 0.058212 0.079134 -0.122759 0.989277
0.717034 0.489021 0.058212 0.078336 -0.155611 0.984708
0.090672 0.098678 0.058212 -0.337616 -0.239559 0.910290
0.326112 0.177305 0.025000 0.061794 -0.212153 -0.975281
0.287886 0.306359 0.058212 0.028002 0.066542 0.997391
0.178163 0.099797 0.058212 0.051606 -0.163776 0.985147
0.276538 0.282965 0.061469 -0.071013 0.122643 0.989907
0.394926 0.306829 0.061479 -0.075727 -0.000604 0.997128
0.270395 0.276223 0.025000 0.018342 0.350252 -0.936476
0.288747 0.166745 0.025000 0.215020 -0.174753 -0.960847
0.236863 0.176750 0.061469 -0.015763 0.003497 0.999870
0.739492 0.505489 0.060949 0.863403 0.502947 -0.039750
0.685468 0.483194 0.058212 -0.095288 0.122281 0.987911
0.877979 0.600997 0.048765 -0.316620 0.762905 -0.563674
0.385003 0.276773 0.061479 -0.063542 -0.133243 0.989044
0.322723 0.210334 0.058212 0.023268 0.012449 -0.999652
0.289139 0.130185 0.041931 0.867167 -0.495482 0.050186
0.229566 0.168862 0.061469 -0.017282 0.002892 0.999847
0.175074 0.199035 0.061469 -0.025873 0.003716 0.999658
0.311173 0.340247 0.025000 -0.156689 0.286417 -0.945206
0.840262 0.572944 0.060785 0.197235 -0.972368 -0.124893
0.412166 0.323216 0.061479 -0.074673 0.032011 0.996694
0.164669 0.201725 0.025000 0.084092 -0.005532 -0.996443
0.205816 0.088796 0.061469 -0.035440 0.003338 0.999366
0.088485 0.213287 0.025000 -0.180717 -0.085681 -0.979796
0.134951 0.033136 0.058212 -0.132565 -0.280005 0.950802
0.079216 0.246921 0.025000 -0.180280 -0.060090 -0.981778
0.096737 0.054948 0.029779 -0.419453 -0.350555 -0.837359
0.274211 0.189989 0.025000 0.186639 -0.151752 -0.970637
0.306323 0.267076 0.058212 0.019721 0.061953 -0.997884
0.165340 0.075782 0.058212 0.000611 -0.199420 0.979914
0.088424 0.197914 0.058212 -0.216536 -0.111994 0.969829
0.385299 0.388060 0.057617 0.361866 -0.693263 0.623249
0.679668 0.459873 0.061479 0.039488 -0.122524 0.991680
0.198848 0.030417 0.039037 0.345897 -0.776495 -0.526698
0.238073 0.227916 0.062936 -0.377633 -0.894775 -0.238268
0.777028 0.543807 0.049471 -0.467419 0.757902 -0.455087
0.130277 0.168732 0.064105 -0.067290 0.038749 0.996981
0.045089 0.263296 0.058212 -0.754241 0.557875 0.346259
0.300875 0.335931 0.058212 -0.235719 0.282135 0.929966
0.531537 0.373053 0.058212 0.127551 -0.244549 0.961211
0.708211 0.501127 0.061479 -0.018120 0.021056 0.999614
0.179705 0.228292 0.025000 0.022093 0.123066 -0.992153
0.361267 0.413128 0.052690 -0.109263 0.865391 0.489040
0.945797 0.615581 0.058768 -0.097571 0.972109 -0.213269
0.165398 0.139352 0.057551 0.437475 0.098561 -0.893813
0.416032 0.301309 0.042910 0.114814 -0.249607 -0.961516
0.359987 0.188990 0.058212 0.038796 -0.172977 -0.984162
0.540546 0.381967 0.058212 -0.034659 -0.052873 -0.998000
0.207722 0.034448 0.030723 0.150051 -0.316597 -0.936617
0.239020 0.254352 0.061469 -0.016071 0.039758 0.999080
0.211637 0.241127 0.058212 -0.011214 0.039954 -0.999139
0.640112 0.464543 0.058212 -0.053188 0.068469 -0.996234
0.692069 0.487286 0.065355 -0.495743 0.867688 -0.036832
0.571535 0.428208 0.051620 -0.478086 0.812932 -0.332528
0.832626 0.528723 0.058212 0.286523 -0.559488 0.777739
0.390062 0.397400 0.058212 0.353651 -0.389807 0.850283
0.733297 0.502159 0.042910 0.004136 -0.027829 -0.999604
0.172790 0.118520 0.053421 0.532196 -0.689542 -0.491222
0.384587 0.274808 0.054697 0.341997 -0.621848 0.704516
0.112299 0.180915 0.056016 -0.428005 -0.134594 -0.893698
0.060029 0.122605 0.058212 -0.412192 -0.230579 0.881437
0.707556 0.501425 0.058212 -0.103454 0.142100 0.984431
0.089702 0.064195 0.047883 -0.656268 -0.488755 0.574831
0.292295 0.374049 0.044879 -0.670587 0.725223 0.156091
0.262701 0.250268 0.025000 0.032100 0.024795 -0.999177
0.291666 0.173407 0.058212 -0.009616 0.010978 -0.999894
0.151972 0.049168 0.058212 -0.013186 -0.224270 0.974438
0.759976 0.496578 0.047310 0.360485 -0.664802 -0.654286
0.628451 0.457412 0.058212 -0.053981 0.065952 -0.996362
0.644021 0.446409 0.058212 0.065989 -0.136037 0.988504
0.808661 0.563199 0.042910 -0.189151 0.334698 -0.923146
0.187947 0.204338 0.058212 -0.017895 0.030196 -0.999384
0.434272 0.331487 0.058212 -0.077597 0.033473 0.996423
0.255593 0.254833 0.061469 -0.007982 0.018355 0.999800
0.244340 0.210575 0.061139 -0.289164 -0.223768 -0.930759
0.166045 0.059278 0.025000 -0.007875 -0.210752 -0.977508
0.308786 0.385764 0.025000 -0.356267 0.510392 -0.782671
0.583310 0.415664 0.061479 -0.037959 -0.031535 0.998782
0.366194 0.206598 0.058212 0.019710 -0.064047 -0.997752
0.083060 0.182947 0.058212 -0.249390 -0.139861 0.958250
0.344062 0.273678 0.058212 0.142974 -0.030299 0.989263
0.700221 0.498173 0.065903 0.495941 -0.868232 0.014663
0.663146 0.468768 0.042910 -0.124416 0.174226 -0.976814
0.216132 0.190943 0.058212 0.053848 0.058174 0.996853
0.166071 0.081172 0.025000 0.027536 -0.182225 -0.982871
0.295753 0.250920 0.058212 0.000006 0.272821 0.962065
0.680254 0.484940 0.042910 -0.141068 0.203288 -0.968903
0.699741 0.500329 0.045026 -0.254492 0.424666 -0.868846
0.309509 0.204377 0.058212 0.033509 -0.038872 0.998682
0.311790 0.284800 0.058212 0.025470 0.055325 -0.998143
0.036228 0.153653 0.041628 -0.911316 -0.410257 0.034542
0.206191 0.092471 0.025000 0.119626 -0.153955 -0.980810
0.373128 0.272215 0.042910 0.173425 -0.347165 -0.921629
0.553112 0.377347 0.058212 0.007867 -0.114658 -0.993374
0.216888 0.140179 0.062659 0.458343 -0.858618 -0.229557
0.180973 0.220614 0.058212 -0.015442 0.025042 -0.999567
0.327981 0.268688 0.058710 -0.578468 -0.352968 -0.735383
0.318588 0.291668 0.025000 0.099381 -0.022812 -0.994788
0.197262 0.051985 0.058212 -0.123223 -0.033312 -0.991820
0.064407 0.197266 0.058212 -0.340863 -0.136890 0.930093
0.080698 0.274251 0.025000 -0.146626 -0.017958 -0.989029
0.267465 0.229447 0.061469 -0.008075 0.010547 0.999912
0.147448 0.148740 0.062509 -0.748818 -0.600968 -0.279481
0.215455 0.076089 0.058212 0.069608 -0.054211 -0.996100
0.213524 0.082518 0.058212 0.055401 -0.043031 -0.997536
0.371241 0.198037 0.058212 0.240443 -0.040182 0.969831
0.234491 0.110637 0.025000 0.159040 -0.084091 -0.983684
0.192459 0.063629 0.061469 -0.062450 -0.001883 0.998046
0.191397 0.048339 0.025000 0.086193 -0.207232 -0.974487
0.389629 0.410840 0.058212 0.218516 0.702658 0.677143
0.220826 0.077209 0.025000 0.136502 -0.163725 -0.977017
0.371261 0.266935 0.050196 0.486623 -0.872663 0.040709
0.215822 0.182322 0.058212 -0.019119 0.012516 -0.999739
0.337811 0.279955 0.062210 0.854006 0.490150 0.174432
0.170141 0.180753 0.074251 -0.497596 0.866086 0.047883
0.162894 0.184106 0.058212 -0.065332 -0.012711 -0.997783
0.320657 0.203881 0.058212 0.021109 0.015334 -0.999660
0.818729 0.566560 0.058212 -0.127171 0.249763 0.959920
0.372701 0.178807 0.028736 0.302422 -0.796998 -0.522815
0.312821 0.275379 0.058212 0.106190 0.072773 -0.991679
0.195729 0.060382 0.058212 -0.051171 -0.008983 -0.998650
0.528170 0.374259 0.058212 -0.036736 -0.055785 -0.997767
0.914110 0.597013 0.058212 0.052299 -0.033073 0.998084
0.570337 0.427534 0.050300 -0.430881 0.733373 -0.525837
0.237156 0.152142 0.025000 0.050816 0.047466 -0.997579
0.339804 0.285421 0.058212 -0.078324 0.023926 -0.996641
0.667460 0.471717 0.061479 -0.024011 -0.004454 0.999702
0.506142 0.379625 0.058212 -0.086855 0.067238 0.993949
0.299053 0.303790 0.025000 0.060090 0.025360 -0.997871
0.352077 0.174103 0.037349 0.343287 -0.895783 -0.282358
0.369483 0.310825 0.058212 0.255866 0.265369 0.929576
0.674916 0.477660 0.042910 -0.136445 0.194949 -0.971276
0.184231 0.071861 0.058212 0.065755 -0.180283 0.981415
0.100637 0.088507 0.025000 -0.214819 -0.235027 -0.947953
0.235698 0.199309 0.025000 0.179780 -0.088813 -0.979689
0.044536 0.135380 0.030092 -0.616364 -0.285085 -0.734045
0.243743 0.276252 0.058212 -0.015214 0.373468 0.927518
0.218281 0.084396 0.061847 -0.267500 -0.893879 -0.359756
0.132008 0.035270 0.025000 -0.122558 -0.265023 -0.956422
0.197989 0.127174 0.025000 0.086556 -0.120750 -0.988902
0.443791 0.333755 0.058212 -0.055242 -0.023158 -0.998204
0.232662 0.223730 0.061469 -0.013181 0.015003 0.999801
0.227254 0.164022 0.058212 -0.019225 0.008996 -0.999775
0.771968 0.540960 0.048714 -0.400210 0.651736 -0.644262
0.125345 0.301411 0.051438 -0.001779 0.318533 0.947910
0.194589 0.299380 0.058212 -0.031236 0.493404 0.869239
0.813067 0.542855 0.058212 0.099219 -0.179038 0.978826
0.181539 0.261978 0.059896 -0.164444 0.779751 0.604108
0.421304 0.341375 0.069067 -0.490327 0.868936 -0.067309
0.474569 0.369097 0.042910 -0.155955 0.177309 -0.971720
0.245472 0.269043 0.025000 0.007757 0.204031 -0.978934
0.295027 0.278118 0.061469 -0.033334 0.088649 0.995505
0.315996 0.292917 0.061469 0.004484 0.042407 0.999090
0.897738 0.587126 0.061899 0.338677 -0.576918 -0.743279
0.609428 0.407638 0.057873 0.250703 -0.453966 0.855022
0.193948 0.278253 0.058212 0.050629 -0.043372 0.997775
0.131985 0.174221 0.058212 -0.025716 -0.095301 0.995116
0.813040 0.595952 0.047314 0.873826 0.471674 -0.118120
0.112422 0.056103 0.025000 -0.157918 -0.269202 -0.950048
0.827992 0.572540 0.042910 -0.189596 0.349544 -0.917536
0.237698 0.185276 0.025000 0.179706 -0.100412 -0.978582
0.159385 0.139864 0.057551 0.003844 -0.272483 -0.962153
0.051197 0.244751 0.025000 -0.496938 0.004761 -0.867773
0.228479 0.131841 0.025000 0.178327 -0.082997 -0.980465
0.134599 0.184492 0.025000 -0.018566 -0.086662 -0.996065
0.178723 0.040872 0.025000 0.031463 -0.221237 -0.974712
0.239205 0.073819 0.058212 0.118687 -0.086291 -0.989175
0.192090 0.212278 0.073698 0.486396 -0.861941 0.143099
0.676221 0.468657 0.061479 -0.000525 -0.054712 0.998502
0.931954 0.613695 0.058212 -0.039424 0.137289 0.989746
0.864935 0.581845 0.059844 -0.450970 -0.887476 -0.094934
0.213087 0.163345 0.061469 -0.019888 0.004355 0.999793
0.307257 0.373291 0.025000 -0.265321 0.407356 -0.873880
0.843546 0.532076 0.058212 0.294409 -0.583884 0.756573
0.267125 0.252366 0.061469 -0.006583 0.015876 0.999852
0.179365 0.202638 0.061469 -0.017434 0.010121 0.999797
0.580341 0.397239 0.042910 0.200417 -0.366274 -0.908668
0.307161 0.161835 0.058212 0.164469 -0.228338 -0.959589
0.287707 0.226071 0.061469 -0.005554 0.006413 0.999964
0.374375 0.287123 0.042910 -0.075748 0.020342 -0.996920
0.254288 0.209734 0.058212 0.171916 -0.133221 0.976062
0.118834 0.169595 0.063296 -0.242284 -0.034122 0.969605
0.148113 0.175051 0.064105 0.223458 0.200131 0.953947
0.362348 0.302551 0.025000 0.203816 0.400083 -0.893528
0.392564 0.215382 0.054641 -0.172883 0.745317 0.643906
0.131648 0.159507 0.053551 -0.167139 -0.119045 -0.978720
0.034691 0.157668 0.025000 -0.531676 -0.238383 -0.812708
0.043776 0.142952 0.058212 -0.496309 -0.224431 0.838635
0.078183 0.291692 0.054170 -0.407079 0.912814 0.032507
0.356578 0.179270 0.058925 0.081257 -0.392400 -0.916198
0.373272 0.283940 0.058212 0.324345 -0.122119 0.938023
0.263759 0.325115 0.058212 -0.318745 0.383940 0.866598
0.135422 0.281798 0.058212 0.010216 0.163919 0.986421
0.092637 0.162417 0.025000 -0.211066 -0.146804 -0.966385
0.354104 0.362968 0.027544 0.508643 -0.265831 -0.818911
0.252454 0.224019 0.061469 -0.010476 0.011787 0.999876
0.745404 0.494032 0.061479 0.086148 -0.161101 0.983171
0.264187 0.269303 0.061469 -0.005845 0.020259 0.999778
0.172377 0.161438 0.074112 0.506071 -0.862173 0.023461
0.889792 0.619313 0.046787 0.819762 0.146542 -0.553639
0.227114 0.309568 0.045581 -0.205320 0.905683 0.370921
0.125684 0.092318 0.025000 -0.099905 -0.199975 -0.974694
0.169639 0.174850 0.025000 0.044546 -0.079514 -0.995838
0.766007 0.537607 0.050046 -0.501074 0.815851 -0.288638
0.328271 0.189180 0.025000 0.032346 -0.076329 -0.996558
0.669390 0.446815 0.058212 0.036926 -0.102680 -0.994029
0.351615 0.195293 0.025000 0.228304 -0.372088 -0.899682
0.141726 0.155529 0.058212 -0.005626 -0.108519 0.994078
0.761979 0.518209 0.058212 0.054390 -0.113282 0.992073
0.235805 0.074612 0.058212 0.111698 -0.079605 -0.990549
0.144118 0.113739 0.025000 -0.034597 -0.162594 -0.986086
0.108796 0.043490 0.037543 -0.461984 -0.688574 -0.558960
0.091678 0.176760 0.025000 -0.200318 -0.129669 -0.971112
0.486803 0.346024 0.042910 0.197647 -0.355488 -0.913545
0.749434 0.490350 0.056382 0.310739 -0.554958 0.771662
0.506687 0.360786 0.061479 -0.049126 -0.077229 0.995802
0.188656 0.259618 0.058212 0.073177 -0.019569 0.997127
0.410645 0.211481 0.058212 0.176239 0.060029 0.982515
0.208780 0.068285 0.025000 0.120410 -0.171459 -0.977805
0.220454 0.165191 0.058212 0.056809 0.043358 0.997443
0.796832 0.576132 0.043351 -0.349869 0.654184 -0.670549
0.128199 0.131322 0.058212 -0.045955 -0.147482 0.987997
0.576906 0.391155 0.058212 0.214955 -0.393210 0.893969
0.505627 0.381564 0.058212 -0.088347 0.070380 0.993600
0.072492 0.234650 0.058212 -0.247839 -0.079993 0.965493
0.489026 0.375208 0.058212 -0.113572 0.119264 0.986346
0.390333 0.324606 0.058823 -0.842615 -0.469338 -0.264049
0.326588 0.240923 0.062341 0.905300 0.129739 -0.404475
0.638453 0.439523 0.058212 -0.007100 -0.047662 -0.998838
0.138763 0.158470 0.053551 -0.096499 -0.057190 -0.993689
0.654913 0.468978 0.058212 -0.098766 0.121728 0.987637
0.046501 0.136324 0.025000 -0.476600 -0.221969 -0.850636
0.164292 0.302299 0.047062 0.059173 0.320008 0.945565
0.263414 0.243340 0.058212 0.034456 0.003421 0.999400
0.118544 0.197048 0.058212 -0.065390 -0.088346 0.993941
0.078416 0.079445 0.043144 -0.795621 -0.581099 0.171206
0.730309 0.517525 0.047672 -0.328838 0.545067 -0.771212
0.720296 0.501647 0.058212 -0.029527 0.029935 -0.999116
0.415040 0.295151 0.070368 0.509222 -0.858874 0.055034
0.356720 0.290253 0.042910 -0.085716 0.030115 -0.995864
0.620649 0.429217 0.042910 0.109415 -0.207761 -0.972041
0.810823 0.553773 0.058212 -0.034312 0.053109 0.997999
0.513894 0.395782 0.044886 -0.414489 0.695363 -0.587086
0.496282 0.366250 0.058212 -0.081144 0.052837 0.995301
0.416649 0.311695 0.058212 -0.070272 0.014000 0.997430
0.180065 0.115582 0.058212 0.058299 -0.142423 0.988087
0.229353 0.310111 0.039783 -0.223202 0.961899 -0.157894
0.379927 0.312841 0.058212 -0.130959 0.133357 0.982378
0.461530 0.326398 0.058212 0.173436 -0.324783 0.929751
0.219453 0.090640 0.058212 0.054159 -0.041988 -0.997649
0.397839 0.412802 0.043320 0.292947 0.951608 0.092868
0.233888 0.276543 0.025000 -0.024024 0.442882 -0.896258
0.157193 0.127265 0.053551 -0.050924 -0.166418 -0.984739
0.246089 0.130065 0.061469 -0.024203 -0.004392 0.999697
0.211765 0.145651 0.058212 0.151334 -0.050665 0.987183
0.244003 0.072470 0.061117 0.160764 -0.130071 0.978385
0.548640 0.373059 0.042910 0.253961 -0.458980 -0.851376
0.231130 0.108396 0.063909 0.970306 0.241823 -0.005296
0.300274 0.237385 0.061469 -0.003090 0.006932 0.999971
0.722589 0.506850 0.042910 -0.135233 0.207232 -0.968900
0.088252 0.280204 0.058212 -0.098842 -0.005004 0.995091
0.365922 0.322747 0.058212 0.122446 0.656418 0.744394
0.157707 0.129030 0.025000 0.024433 -0.136737 -0.990306
0.316107 0.271412 0.058212 0.007523 0.055035 -0.998456
0.298912 0.380062 0.046320 -0.574391 0.756285 0.313223
0.201521 0.282916 0.058212 0.038579 0.015691 0.999132
0.199992 0.240295 0.058212 0.079586 -0.024154 0.996535
0.177505 0.122081 0.069960 0.964998 -0.210126 0.156927
0.257621 0.149558 0.058212 0.185665 -0.107699 0.976693
0.131450 0.268379 0.025000 0.019346 0.098337 -0.994965
0.405533 0.393289 0.039593 0.474237 -0.875807 -0.089782
0.411408 0.223767 0.052361 -0.310213 0.840956 0.443352
0.302753 0.257024 0.058212 0.002359 0.012067 -0.999924
0.313302 0.225882 0.058212 0.027798 0.043942 0.998647
0.241026 0.236303 0.064011 0.773467 0.513821 0.371128
0.442904 0.354546 0.042910 -0.356237 0.555501 -0.751342
0.201819 0.031760 0.028381 0.123689 -0.271962 -0.954326
0.905741 0.615964 0.051149 0.046148 -0.499883 0.864863
0.354771 0.297975 0.042910 -0.134765 0.111548 -0.984579
0.342837 0.317955 0.025000 0.043781 0.101811 -0.993840
0.103129 0.054203 0.058212 -0.257517 -0.267703 0.928451
0.195020 0.045714 0.025000 0.089542 -0.209102 -0.973786
0.319611 0.234082 0.061139 -0.037810 -0.058937 -0.997545
0.404311 0.317452 0.042910 -0.092768 0.053780 -0.994234
0.214182 0.185972 0.072476 0.505778 -0.862487 -0.017473
0.420613 0.220861 0.061469 0.028318 0.077774 0.996569
0.378126 0.313850 0.058212 0.410862 0.183217 0.893098
0.794175 0.539493 0.058212 0.033115 -0.075818 0.996572
0.225218 0.181980 0.058212 -0.017675 0.011432 -0.999778
0.181058 0.227955 0.061469 -0.013228 0.027021 0.999547
0.309963 0.197575 0.058212 0.034920 -0.061615 0.997489
0.944483 0.581086 0.053228 -0.536774 -0.843609 0.014036
0.369461 0.185607 0.025000 0.280104 -0.555847 -0.782672
0.212134 0.065652 0.025000 0.130180 -0.173056 -0.976271
0.353261 0.383091 0.058212 0.275958 0.004098 0.961161
0.336760 0.171225 0.057296 0.048889 -0.194839 0.979616
0.219260 0.307547 0.031924 -0.121879 0.637201 -0.761000
0.317047 0.185913 0.058212 -0.009794 0.005033 -0.999939
0.286647 0.196297 0.025000 0.136562 -0.220466 -0.965787
0.561325 0.412090 0.042910 -0.120039 0.138400 -0.983075
0.288924 0.129801 0.036328 0.635779 -0.361366 -0.682056
0.170457 0.069954 0.025000 0.035014 -0.192083 -0.980754
0.248740 0.189082 0.061469 -0.013324 0.004365 0.999902
0.287035 0.185852 0.061469 0.009850 0.008157 0.999918
0.363767 0.385770 0.058212 0.267705 -0.127224 0.955064
0.385673 0.282592 0.042910 0.030033 -0.129810 -0.991084
0.547323 0.383589 0.042910 0.158927 -0.290809 -0.943489
0.198345 0.172334 0.061139 -0.096554 -0.138431 -0.985654
0.752137 0.527382 0.064142 0.500036 -0.864756 -0.046491
0.191233 0.230425 0.025000 0.045200 0.080278 -0.995747
0.287862 0.249837 0.025000 0.026553 0.076650 -0.996704
0.302686 0.215779 0.025000 0.031626 -0.025975 -0.999162
0.366184 0.194180 0.025000 0.324362 -0.210312 -0.922257
0.176243 0.125614 0.053421 0.925978 0.193889 -0.323993
0.662795 0.441840 0.058212 0.222848 -0.404801 0.886834
0.597261 0.428213 0.058212 -0.090231 0.091907 0.991671
0.291489 0.134199 0.034068 0.512912 -0.323081 -0.795324
0.048997 0.268552 0.049809 -0.702819 0.705253 0.093074
0.946538 0.608376 0.042910 -0.100954 0.224344 -0.969267
0.555475 0.404851 0.061479 -0.045545 0.002004 0.998960
0.384782 0.277899 0.058212 -0.037742 -0.126004 -0.991311
0.378303 0.321873 0.058212 0.446315 0.675039 0.587474
0.184365 0.263794 0.058212 0.050766 0.002058 0.998708
0.351965 0.296036 0.061479 -0.089377 0.083664 0.992478
0.294992 0.317442 0.058212 0.004224 0.109172 0.994014
0.876808 0.595921 0.042910 -0.188621 0.383048 -0.904266
0.144569 0.142957 0.064105 -0.170423 -0.112958 0.978875
0.257410 0.265541 0.061469 -0.007017 0.020517 0.999765
0.360566 0.260617 0.050840 0.479351 -0.861832 0.165732
0.051556 0.167125 0.025000 -0.425466 -0.185402 -0.885779
0.231215 0.295529 0.025000 0.004742 0.356762 -0.934183
0.270343 0.347991 0.033899 -0.592988 0.558108 -0.580414
0.312159 0.234128 0.072327 0.508564 -0.857042 0.082714
0.310898 0.164525 0.058212 0.189552 -0.238596 0.952440
0.156304 0.274022 0.058212 0.017333 0.145772 0.989166
0.340945 0.335111 0.025000 0.110228 0.203163 -0.972921
0.848504 0.585442 0.058212 -0.175917 0.420006 0.890308
0.363356 0.205627 0.025000 0.423449 0.339437 -0.839925
0.109844 0.162135 0.025000 -0.111592 -0.129241 -0.985314
0.770897 0.540358 0.060069 -0.146927 0.343375 0.927635
0.187363 0.026678 0.025000 0.063520 -0.229580 -0.971215
0.373252 0.301081 0.058212 -0.076879 0.020365 0.996832
0.416680 0.323729 0.058212 -0.064000 0.000914 -0.997950
0.291351 0.239607 0.058212 0.029337 0.047183 0.998455
0.149893 0.027430 0.025000 -0.018766 -0.258755 -0.965761
0.265547 0.315853 0.025000 0.014917 0.068371 -0.997548
0.331447 0.175330 0.058212 0.035326 -0.095337 0.994818
0.972642 0.610227 0.046102 0.703230 0.379440 -0.601243
0.839020 0.552734 0.063821 -0.505418 0.862569 0.022962
0.971714 0.611779 0.045393 0.636311 0.397479 -0.661150
0.136487 0.222714 0.058212 -0.278937 0.055285 -0.958717
0.882272 0.547151 0.046486 0.475966 -0.798010 -0.369645
0.325757 0.172352 0.025000 0.125987 -0.297823 -0.946271
0.862007 0.585751 0.059700 -0.297117 0.269454 0.916032
0.322848 0.305802 0.025000 0.065634 0.041757 -0.996970
0.055008 0.152579 0.025000 -0.417199 -0.195869 -0.887457
0.497252 0.358035 0.059593 0.848798 0.495934 -0.183280
0.742290 0.506315 0.058212 0.003461 -0.012028 -0.999922
0.035497 0.155261 0.038037 -0.877540 -0.394801 -0.272130
0.204975 0.199497 0.058212 0.041805 0.093455 0.994745
0.758914 0.513070 0.058212 0.089627 -0.174074 0.980645
0.206313 0.156039 0.058212 0.151810 -0.044984 0.987386
0.729019 0.478290 0.046487 0.333331 -0.612967 -0.716353
0.415008 0.225593 0.027416 -0.355427 0.857905 -0.371041
0.169038 0.155712 0.058212 0.046074 -0.100061 0.993914
0.790353 0.551548 0.058212 -0.114328 0.186013 0.975873
0.286267 0.196315 0.058212 0.141029 -0.219832 0.965290
0.348994 0.368886 0.025000 0.373344 -0.125572 -0.919155
0.116393 0.231016 0.025000 -0.052397 -0.042503 -0.997721
0.205019 0.298354 0.058212 -0.026271 0.541692 0.840166
0.195977 0.029121 0.045406 0.286966 -0.664440 0.690051
0.695919 0.458735 0.044045 0.250867 -0.462727 -0.850264
0.354965 0.401069 0.025000 -0.114046 0.525652 -0.843020
0.069341 0.256630 0.058212 -0.221358 -0.055032 0.973639
0.335618 0.282139 0.062929 -0.346591 -0.155121 0.925101
0.697555 0.474758 0.042910 0.080771 -0.161703 -0.983528
0.367062 0.215268 0.052577 0.435811 0.569460 0.696982
0.344743 0.204337 0.025000 0.025068 0.018795 -0.999509
0.368716 0.286722 0.062929 -0.465754 -0.263496 0.844774
0.225671 0.168303 0.058212 0.052502 0.063477 0.996601
0.213362 0.074078 0.061469 0.064583 -0.049940 0.996662
0.077744 0.085170 0.025000 -0.369567 -0.268942 -0.889433
0.245296 0.062315 0.031939 0.272916 -0.276764 -0.921368
0.922323 0.602200 0.059953 0.980332 0.127666 -0.150501
0.220075 0.141557 0.025000 0.168668 -0.074248 -0.982873
0.298761 0.243910 0.061469 -0.002858 0.008684 0.999958
0.491394 0.360343 0.042910 -0.098762 0.087068 -0.991295
0.182937 0.229966 0.061469 -0.013792 0.034464 0.999311
0.939210 0.610340 0.042910 -0.036232 0.117566 -0.992404
0.960026 0.582317 0.042910 0.407282 -0.751034 -0.519683
0.282121 0.362460 0.054144 -0.550925 0.490653 0.675086
0.806599 0.537344 0.042910 0.054769 -0.115225 -0.991828
0.329583 0.292098 0.049777 -0.505645 0.858727 -0.083132
0.370119 0.266260 0.057107 0.252841 -0.464544 0.848687
0.125825 0.213389 0.025000 -0.036459 -0.057028 -0.997707
0.115958 0.095732 0.058212 -0.135602 -0.213358 0.967518
0.169459 0.214504 0.061469 -0.030352 0.001511 0.999538
0.063233 0.265143 0.025000 -0.362801 0.013864 -0.931764
0.126226 0.034072 0.045173 -0.379756 -0.748214 0.544023
0.312653 0.197368 0.058212 0.034406 -0.056896 0.997787
0.888966 0.614707 0.051149 0.430141 -0.176401 0.885360
0.452060 0.359843 0.061479 -0.071512 0.099825 0.992432
0.224141 0.100257 0.063758 0.219078 -0.841489 -0.493864
0.862052 0.585142 0.059700 -0.135199 0.136588 0.981359
0.253959 0.271133 0.025000 -0.009629 0.339738 -0.940471
0.219057 0.101540 0.058212 -0.027842 -0.001397 -0.999611
0.446863 0.347653 0.069490 0.496177 -0.868125 0.012946
0.500696 0.350975 0.058212 0.163126 -0.306261 0.937867
0.240252 0.115391 0.058212 0.194229 -0.092063 0.976627
0.345931 0.322364 0.061469 0.172703 0.075375 0.982086
0.190017 0.208178 0.025000 0.033041 0.085719 -0.995771
0.052002 0.119428 0.033994 -0.711936 -0.360997 -0.602352
0.395841 0.390995 0.035564 0.294175 -0.919915 -0.259262
0.449225 0.323170 0.058212 -0.040030 -0.085471 -0.995536
0.940892 0.604445 0.058212 -0.059596 -0.144363 0.987728
0.253880 0.324280 0.054586 -0.428037 0.485894 0.762031
0.649410 0.443156 0.061479 0.021450 -0.110753 0.993616
0.430780 0.221081 0.037395 0.959316 -0.239149 -0.150069
0.788648 0.513517 0.053550 0.407189 -0.737812 0.538359
0.172474 0.134830 0.058212 0.049784 -0.120169 0.991504
0.161212 0.025211 0.040634 -0.010311 -0.977514 -0.210619
0.599819 0.401961 0.048508 0.459032 -0.821467 -0.338351
0.156377 0.198266 0.061469 -0.057776 -0.019635 0.998137
0.066046 0.212707 0.058212 -0.312913 -0.116459 0.942615
0.154476 0.136568 0.063261 -0.711064 -0.685377 -0.156988
0.347089 0.262174 0.058767 -0.686241 -0.486064 -0.541124
0.931996 0.586615 0.043970 0.167773 -0.423621 -0.890167
0.587194 0.401995 0.058212 0.171775 -0.319135 0.932012
0.171489 0.130030 0.075775 0.421531 0.066518 0.904371
0.025242 0.188304 0.025947 -0.713275 -0.049416 -0.699140
0.331730 0.235383 0.025000 0.089868 0.216305 -0.972181
0.168793 0.186272 0.058212 0.007471 -0.029213 0.999545
0.127906 0.283602 0.025000 0.008131 0.141662 -0.989882
0.225547 0.309164 0.044036 -0.206828 0.940363 0.270074
0.240465 0.178816 0.025000 0.182179 -0.103377 -0.977816
0.963001 0.621250 0.057664 0.322309 0.517682 0.792541
0.058520 0.107596 0.028746 -0.506835 -0.312533 -0.803394
0.358359 0.281680 0.058212 -0.068607 -0.000379 0.997644
0.073770 0.101220 0.058212 -0.350662 -0.246000 0.903615
0.552941 0.384694 0.042910 0.177670 -0.324351 -0.929102
0.310513 0.263869 0.064317 0.277014 0.129164 0.952145
0.742988 0.514000 0.061479 0.009204 -0.028160 0.999561
0.677864 0.453455 0.042910 0.179267 -0.334672 -0.925126
0.124787 0.301333 0.033698 -0.010366 0.398617 -0.917059
0.185769 0.134307 0.061469 -0.028810 -0.002872 0.999581
0.726276 0.492001 0.058212 0.105428 -0.202033 0.973688
0.120380 0.037060 0.036796 -0.354096 -0.675475 -0.646800
0.778057 0.508055 0.042910 0.184982 -0.350247 -0.918210
0.212604 0.137688 0.066263 -0.855871 0.377739 0.353266
0.796524 0.519445 0.058212 0.246061 -0.441497 0.862864
0.897727 0.607048 0.054380 -0.278270 0.715345 0.640974
0.407203 0.217154 0.058212 -0.300729 0.676892 0.671848
0.185166 0.303903 0.039695 -0.059785 0.967660 -0.245070
0.147667 0.185242 0.064105 0.324843 0.287015 0.901166
0.715669 0.482005 0.058212 0.142956 -0.266777 0.953097
0.498911 0.345269 0.058212 -0.006655 -0.118635 -0.992916
0.137248 0.173038 0.053551 -0.041428 0.066452 -0.996929
0.269115 0.147174 0.025000 0.236822 -0.143551 -0.960890
0.101592 0.210241 0.058212 -0.108540 -0.083184 0.990606
0.311355 0.244569 0.062559 -0.877943 -0.452176 0.157327
0.178551 0.170638 0.025000 0.054113 -0.062281 -0.996591
0.403529 0.215442 0.060122 -0.377230 0.780488 0.498534
0.826126 0.526964 0.058212 0.281087 -0.541843 0.792083
0.336717 0.274938 0.061479 -0.088066 0.018599 0.995941
0.097133 0.054458 0.032332 -0.489088 -0.411542 -0.769042
0.101328 0.068055 0.025000 -0.239747 -0.258144 -0.935886
0.629745 0.429117 0.042910 0.159191 -0.296396 -0.941705
0.036862 0.189235 0.058212 -0.482167 -0.156210 0.862040
0.611721 0.416406 0.060318 0.878370 0.477900 -0.008822
0.025025 0.203692 0.049775 -0.904546 -0.000704 0.426376
0.310939 0.241990 0.061469 -0.001334 0.006223 0.999980
0.167056 0.042942 0.058212 -0.008874 -0.242589 0.970089
0.346526 0.290459 0.059231 -0.845800 -0.485421 -0.221335
0.188725 0.193018 0.058212 0.064006 0.039779 0.997156
0.624014 0.438462 0.042910 0.032563 -0.071681 -0.996896
0.069460 0.132178 0.058212 -0.334777 -0.212057 0.918127
0.786766 0.549285 0.054592 -0.215554 0.342069 0.914618
0.205683 0.112887 0.058212 -0.062454 -0.019748 -0.997852
0.227512 0.172136 0.025000 0.067793 0.047582 -0.996564
0.342543 0.396045 0.058212 -0.078320 0.485665 0.870629
0.734368 0.519808 0.054500 -0.314754 0.514863 0.797400
0.425412 0.323225 0.042910 -0.090001 0.055624 -0.994387
0.609873 0.407901 0.048842 0.467325 -0.836650 -0.285699
0.390602 0.284534 0.025000 0.442186 -0.390755 -0.807330
0.142818 0.276861 0.025000 0.003890 0.169934 -0.985448
0.623186 0.453752 0.058212 -0.053884 0.062824 -0.996569
0.181203 0.183998 0.058212 0.115798 -0.008798 0.993234
0.257379 0.328141 0.046195 -0.625614 0.634293 0.454180
0.562099 0.383292 0.058212 0.008250 -0.110765 -0.993812
0.312799 0.262506 0.071976 0.491898 -0.851987 0.179317
0.300337 0.190921 0.061469 0.012141 0.010754 0.999868
0.279500 0.182185 0.025000 0.196718 -0.157985 -0.967648
0.602104 0.434151 0.061479 -0.037120 0.007330 0.999284
0.143067 0.214242 0.025000 0.002782 -0.046959 -0.998893
0.336223 0.205243 0.025000 0.026748 0.004127 -0.999634
0.327909 0.254062 0.061469 0.001778 0.006186 0.999979
0.470572 0.371411 0.059649 -0.432426 0.581431 -0.689163
0.242675 0.084503 0.025000 0.181042 -0.126322 -0.975329
0.747554 0.495612 0.058212 0.196885 -0.358509 0.912528
0.109952 0.204366 0.058212 -0.070767 -0.078061 0.994434
0.117937 0.121034 0.058212 -0.124043 -0.184676 0.974940
0.272556 0.307999 0.025000 0.037696 0.035844 -0.998646
0.586311 0.393981 0.056563 0.290079 -0.523701 0.800994
0.819985 0.559590 0.058212 -0.048316 0.083447 0.995340
0.383141 0.414665 0.055868 0.104391 0.838862 0.534241
0.621997 0.424230 0.061479 0.018536 -0.123542 0.992166
0.349010 0.311648 0.025000 0.062493 0.075941 -0.995152
0.216871 0.140275 0.061629 0.366130 -0.830153 -0.420469
0.273057 0.143284 0.025000 0.245545 -0.146600 -0.958236
0.693050 0.457040 0.050996 0.483080 -0.869501 0.102967
0.391627 0.285797 0.058212 0.486924 -0.528123 0.695695
0.370928 0.414292 0.036726 -0.006192 0.965290 -0.261108
0.236030 0.072440 0.061469 0.111957 -0.091500 0.989491
0.413854 0.200506 0.048509 0.656792 -0.701583 0.276417
0.481139 0.354091 0.042910 -0.096919 0.081451 -0.991954
0.269641 0.234443 0.025000 0.034416 -0.022852 -0.999146
0.371515 0.283008 0.058212 -0.065505 -0.004813 0.997841
0.370374 0.178144 0.048522 0.285656 -0.898754 0.332628
0.182999 0.177783 0.072693 0.501025 -0.863571 -0.056746
0.357771 0.259844 0.058212 0.210971 -0.391848 0.895515
0.136285 0.240343 0.025000 0.063894 0.020441 -0.997747
0.290768 0.260686 0.058212 0.000853 0.013847 -0.999904
0.759928 0.532150 0.058212 -0.039179 0.068680 -0.996869
0.405902 0.289730 0.069453 0.504920 -0.858031 -0.094012
0.171649 0.049654 0.058212 -0.001873 -0.231666 0.972794
0.605818 0.443117 0.061479 -0.038932 0.044186 0.998264
0.335756 0.315553 0.061469 0.083116 0.069985 0.994079
0.341793 0.206494 0.025000 0.025197 0.021010 -0.999462
0.489434 0.376552 0.042910 -0.145004 0.162291 -0.976030
0.394289 0.194669 0.058212 0.088100 -0.156156 -0.983796
0.630650 0.446650 0.061479 -0.029902 -0.019299 0.999367
0.941850 0.591970 0.042910 -0.091311 -0.076724 -0.992862
0.530843 0.384673 0.042910 -0.106107 0.109089 -0.988353
0.287722 0.369210 0.042608 -0.732063 0.678913 0.056230
0.305091 0.364041 0.025000 -0.380904 0.412634 -0.827433
0.143515 0.130106 0.058212 -0.034049 -0.152762 0.987676
0.099739 0.116905 0.058212 -0.196285 -0.194554 0.961052
0.652854 0.462898 0.058767 0.756794 0.513866 -0.403986
0.413231 0.309079 0.058212 -0.069628 0.011947 0.997501
0.581688 0.433765 0.058212 -0.319047 0.535317 0.782077
0.222319 0.113049 0.063987 -0.155928 0.854843 -0.494904
0.307875 0.273328 0.058212 0.220019 -0.048283 0.974300
0.197870 0.172052 0.058212 0.150175 -0.032345 0.988130
0.248314 0.078729 0.060689 0.234654 -0.162702 0.958366
0.113322 0.297455 0.025000 0.005757 0.140568 -0.990054
0.216095 0.066601 0.061469 0.085044 -0.095236 0.991815
0.287735 0.294522 0.025000 0.079419 -0.019506 -0.996650
0.365538 0.308310 0.058212 0.173483 0.450387 0.875817
0.760748 0.512901 0.058212 0.022525 -0.033343 -0.999190
0.671399 0.484386 0.059251 -0.133729 0.234973 -0.962759
0.403161 0.411452 0.053088 0.341215 0.859952 0.379545
0.143853 0.186404 0.025000 0.003083 -0.076954 -0.997030
0.894159 0.588953 0.042910 -0.045223 0.127662 -0.990786
0.303264 0.287264 0.058212 -0.006332 0.075037 -0.997161
0.231245 0.099007 0.058212 0.068773 -0.052795 -0.996234
0.042715 0.215158 0.058212 -0.535285 -0.047744 0.843321
0.180760 0.142166 0.025000 0.064657 -0.112150 -0.991585
0.252765 0.228013 0.071779 0.496064 -0.864532 -0.080651
0.920360 0.577612 0.057919 0.303317 -0.502494 0.809628
0.040992 0.213031 0.025000 -0.542188 -0.058045 -0.838250
0.226526 0.309417 0.029992 -0.150571 0.665881 -0.730705
0.246045 0.063037 0.044526 0.579147 -0.584881 0.567893
0.100881 0.050091 0.052512 -0.415045 -0.382295 0.825584
0.756543 0.518438 0.058212 0.017147 -0.049127 0.998645
0.230207 0.066454 0.058212 0.108591 -0.115055 -0.987406
0.259144 0.080629 0.037381 0.577928 -0.340698 -0.741569
0.621618 0.444341 0.058212 -0.093142 0.102963 0.990315
0.372262 0.384756 0.025000 0.340781 -0.388657 -0.856045
0.384881 0.288725 0.042910 -0.053342 -0.009194 -0.998534
0.334216 0.306897 0.025000 0.067941 0.050191 -0.996426
0.298375 0.143011 0.025492 0.254008 -0.211650 -0.943761
0.687914 0.479617 0.061479 -0.009501 -0.031306 0.999465
0.477880 0.346959 0.061246 0.869709 0.482621 0.103363
0.341168 0.274141 0.061338 0.867284 0.494717 0.055440
0.353952 0.225180 0.039988 0.536090 0.730698 -0.422714
0.279685 0.305715 0.058212 0.024844 0.060990 0.997829
0.907346 0.567204 0.048462 0.489786 -0.825657 -0.280001
0.212121 0.102690 0.058212 -0.025640 -0.002663 -0.999668
0.200308 0.216339 0.058212 0.046174 0.069161 0.996536
0.540566 0.384754 0.058212 -0.011638 -0.037234 0.999239
0.139844 0.133204 0.055054 -0.309404 -0.356583 -0.881543
0.181870 0.148451 0.058212 -0.037147 0.003994 -0.999302
0.281408 0.179477 0.061469 0.006038 0.008443 0.999946
0.703401 0.477928 0.058212 0.109129 -0.208934 0.971822
0.560099 0.397708 0.042910 -0.001497 -0.036799 -0.999322
0.351359 0.282088 0.061364 -0.867590 -0.489689 0.086558
0.224431 0.162585 0.025000 0.050160 0.040511 -0.997919
0.637727 0.454104 0.058212 -0.094495 0.109005 0.989540
0.844806 0.590831 0.058212 -0.249703 0.632285 0.733392
0.055325 0.113228 0.036414 -0.773962 -0.429514 -0.465296
0.584541 0.403258 0.058212 0.143667 -0.271007 0.951796
0.310393 0.250026 0.064317 -0.182724 -0.049430 0.981921
0.319554 0.238514 0.071002 0.508459 -0.860405 -0.034240
0.363718 0.374727 0.049026 0.638017 -0.571987 0.515524
0.175205 0.055740 0.025000 0.039043 -0.205287 -0.977923
0.383252 0.304114 0.042910 -0.088508 0.041633 -0.995205
0.463311 0.328361 0.058212 0.164854 -0.310053 0.936317
0.362667 0.282122 0.070221 0.501964 -0.863633 -0.046587
0.384241 0.287525 0.061479 -0.072690 -0.071172 0.994812
0.910020 0.569343 0.050031 0.515006 -0.857186 0.000853
0.289502 0.219183 0.061469 -0.005773 0.004531 0.999973
0.375495 0.213417 0.033437 0.072956 0.896623 -0.436743
0.929363 0.634416 0.051149 -0.253572 0.186882 0.949092
0.148961 0.265244 0.025000 0.010090 0.149257 -0.988747
0.361536 0.300797 0.059695 0.832149 0.529577 -0.164550
0.561162 0.379124 0.061373 0.025897 -0.182723 0.982823
0.475415 0.333532 0.058212 -0.019984 -0.109142 -0.993825
0.962659 0.609116 0.058212 0.391858 0.271332 0.879105
0.342288 0.192334 0.058212 -0.002863 0.012419 -0.999919
0.115019 0.214667 0.058212 -0.058324 -0.063257 0.996292
0.220402 0.268223 0.058212 0.037921 0.002824 0.999277
0.352966 0.292404 0.058212 -0.076320 0.021929 -0.996842
0.399675 0.301670 0.042910 -0.079440 0.032792 -0.996300
0.217068 0.121999 0.061469 -0.091978 -0.032830 0.995220
0.245781 0.266297 0.025000 0.031918 0.051813 -0.998147
0.188758 0.111853 0.061469 -0.143467 -0.054926 0.988130
0.247976 0.134264 0.058212 -0.026664 -0.005585 -0.999629
