0.175501 0.079241 0.059606 -0.005588 -0.005683 -0.999968
0.179257 0.275329 0.035508 0.308725 0.661998 -0.682970
0.276562 0.237249 0.027249 -0.058095 0.131873 -0.989563
0.165120 0.056914 0.059598 0.049971 -0.120517 0.991453
0.048144 0.189348 0.025980 -0.137589 0.009156 -0.990447
0.829819 0.177649 0.069670 0.060097 -0.057722 0.996522
0.344433 0.188002 0.025593 0.011356 0.555979 -0.831119
0.104347 0.067872 0.067287 -0.044434 0.998231 -0.039495
0.585964 0.160606 0.051412 0.013564 -0.056948 -0.998285
0.334044 0.224206 0.059598 0.065716 -0.022206 0.997591
0.273950 0.195646 0.059605 0.018803 0.007675 -0.999794
0.324210 0.084916 0.025980 0.062137 0.023168 -0.997799
0.222509 0.220740 0.060491 0.002901 0.007733 0.999966
0.169542 0.213628 0.025980 0.026481 0.000139 -0.999649
0.327391 0.170827 0.025317 0.047883 -0.103313 -0.993496
0.240993 0.087839 0.060491 0.003748 -0.001880 0.999991
0.026374 0.163673 0.055943 -0.769752 0.003652 0.638332
0.312698 0.190378 0.025980 0.025380 -0.024674 -0.999373
0.649270 0.155225 0.064570 0.000009 0.000010 -1.000000
0.890057 0.177445 0.051276 0.023064 0.142583 -0.989514
0.117535 0.290304 0.038410 0.003014 0.999938 -0.010752
0.148836 0.058561 0.066808 -0.484455 0.873412 0.049544
0.597569 0.146684 0.056777 0.015780 -0.838911 -0.544040
0.278666 0.111335 0.059606 0.025867 0.002212 -0.999663
0.443546 0.157307 0.051256 0.038500 -0.068223 -0.996927
0.148605 0.072340 0.025980 0.010065 -0.015650 -0.999827
0.238400 0.170823 0.060491 0.002836 0.006261 0.999976
0.034864 0.196235 0.059598 -0.256441 0.022514 0.966298
0.139128 0.048288 0.060491 0.004605 -0.022164 0.999744
0.288466 0.256917 0.030271 -0.218294 0.525610 -0.822242
0.073532 0.149297 0.059725 0.003402 -0.087669 -0.996144
0.186151 0.272249 0.043139 0.387897 0.874750 -0.290429
0.366051 0.152508 0.031476 0.840564 -0.358945 -0.405722
0.260606 0.144322 0.059598 0.115780 0.011866 0.993204
0.211586 0.256396 0.059598 0.063757 0.185514 0.980571
0.170550 0.105219 0.059598 0.053117 -0.089413 0.994577
0.828397 0.176030 0.060494 -0.019450 0.018083 0.999647
0.337421 0.094371 0.034937 0.310725 0.947026 -0.081186
0.059611 0.156711 0.059598 -0.198643 0.007510 0.980043
0.618455 0.173923 0.064570 0.000009 0.000010 -1.000000
0.030950 0.102187 0.056128 -0.741008 -0.116979 0.661229
0.632492 0.168849 0.065778 0.019685 0.004611 0.999796
0.139561 0.071303 0.025980 -0.003922 -0.003002 -0.999988
0.148674 0.234909 0.059598 0.043170 0.137580 0.989549
0.331168 0.140976 0.028024 0.232360 -0.631415 -0.739814
0.391564 0.269422 0.059598 0.048531 0.225465 0.973042
0.712676 0.165187 0.051407 0.017499 -0.011454 -0.999781
0.127131 0.176450 0.059598 0.001897 0.095280 0.995449
0.573207 0.167627 0.064702 -0.087037 0.012438 -0.996127
0.274183 0.097680 0.025980 0.020136 -0.102181 -0.994562
0.901722 0.201320 0.047595 0.224122 -0.640860 -0.734212
0.453604 0.174562 0.064569 0.000009 0.000010 -1.000000
0.088199 0.286899 0.044579 -0.260989 0.961474 0.086327
0.882827 0.142595 0.060026 0.000026 -0.000076 1.000000
0.107788 0.111586 0.059598 -0.065407 0.017342 0.997708
0.190286 0.197622 0.067314 -0.145720 0.160238 0.976263
0.606213 0.176649 0.064489 -0.016366 0.071571 0.997301
0.373881 0.160664 0.044722 0.102294 -0.017229 -0.994605
0.892605 0.203736 0.049141 0.124418 -0.056141 0.990640
0.103035 0.062357 0.074969 -0.083728 0.151669 0.984879
0.877561 0.138049 0.059938 -0.042291 -0.245526 0.968467
0.446168 0.148620 0.052960 0.048175 -0.370071 -0.927754
0.025225 0.171706 0.039954 -0.999511 0.014082 0.027919
0.626865 0.177616 0.064486 -0.011557 0.080312 0.996703
0.168381 0.137033 0.059605 -0.017396 -0.000197 -0.999849
0.169981 0.147371 0.025980 0.030814 -0.036105 -0.998873
0.703346 0.147420 0.060931 0.052543 -0.909957 0.411361
0.825233 0.177218 0.069828 0.010538 0.150648 0.988531
0.242649 0.105658 0.059605 0.003638 -0.000532 -0.999993
0.139876 0.075548 0.059606 -0.004792 0.006550 -0.999967
0.283232 0.159963 0.069407 -0.055154 0.893213 0.446239
0.274764 0.107510 0.059606 0.021349 0.001824 -0.999770
0.044031 0.139943 0.059598 -0.145045 -0.001861 0.989423
0.658592 0.159900 0.051511 0.015910 -0.075043 -0.997053
0.093915 0.264906 0.059598 -0.033919 0.170929 0.984699
0.525715 0.148196 0.062950 -0.137699 -0.133102 0.981490
0.274649 0.117572 0.059598 0.155661 0.204134 0.966488
0.278954 0.199093 0.060491 0.037403 0.015150 0.999185
0.567526 0.176708 0.052303 0.015385 0.248236 -0.968577
0.360944 0.172569 0.064568 0.000009 0.000010 -1.000000
0.126507 0.267542 0.025980 0.057748 0.104756 -0.992820
0.144231 0.230609 0.059598 0.036452 0.139755 0.989515
0.211605 0.075112 0.059606 -0.000957 -0.001813 -0.999998
0.844568 0.162115 0.051276 -0.015881 0.094707 -0.995378
0.090249 0.121542 0.059598 -0.120608 0.004437 0.992690
0.088179 0.072105 0.025980 -0.079518 -0.029885 -0.996385
0.730230 0.158478 0.069098 -0.008292 -0.984754 0.173753
0.205562 0.238503 0.029718 0.041827 0.182225 -0.982367
0.253434 0.116087 0.060491 0.005389 -0.000058 0.999985
0.183665 0.164237 0.060491 -0.003386 0.005391 0.999980
0.290248 0.075052 0.059598 -0.006999 -0.123355 0.992338
0.053309 0.074325 0.059606 -0.044654 -0.022091 -0.998758
0.601429 0.184564 0.058700 0.029988 0.946873 -0.320207
0.324359 0.139382 0.048002 0.002863 -0.891083 -0.453831
0.714151 0.177126 0.064571 0.000009 0.000010 -1.000000
0.236101 0.254144 0.034360 0.085128 0.888833 -0.450255
0.627467 0.183470 0.064571 0.000009 0.000010 -1.000000
0.279104 0.117344 0.025980 0.051310 -0.046772 -0.997587
0.413942 0.230910 0.055250 0.116141 -0.883737 0.453343
0.198563 0.139570 0.059605 -0.001701 0.003810 -0.999991
0.390792 0.238471 0.059598 0.038923 -0.069769 0.996804
0.124046 0.046617 0.059606 0.002619 -0.016958 -0.999853
0.272906 0.060143 0.052845 -0.332312 -0.916117 0.224275
0.265476 0.187415 0.025980 0.018335 0.013687 -0.999738
0.642000 0.178382 0.062951 0.026190 0.249550 0.968008
0.173104 0.065551 0.059606 -0.000744 -0.011028 -0.999939
0.143597 0.287402 0.052888 0.204524 0.954084 0.218844
0.082714 0.277916 0.025980 -0.063137 0.132842 -0.989124
0.148296 0.140801 0.059598 0.023044 0.062599 0.997773
0.328242 0.231855 0.025980 0.057922 -0.020548 -0.998110
0.280457 0.222043 0.025980 -0.022059 0.046830 -0.998659
0.352511 0.059442 0.057861 0.291439 -0.557790 0.777132
0.641100 0.175047 0.064486 -0.008259 0.066946 0.997722
0.140309 0.069461 0.059606 -0.002810 0.001870 -0.999994
0.313503 0.099285 0.025980 0.110882 0.038338 -0.993094
0.122520 0.152710 0.025980 -0.016946 0.052538 -0.998475
0.165869 0.258190 0.059598 0.046516 0.086583 0.995158
0.321108 0.185631 0.043258 0.108833 -0.310301 0.944388
0.565959 0.162044 0.064502 -0.050044 -0.038918 0.997988
0.050288 0.062389 0.059598 -0.263094 -0.169197 0.949818
0.184598 0.256154 0.059598 0.053639 0.099779 0.993563
0.468856 0.162061 0.064508 -0.058635 -0.071009 0.995751
0.621659 0.169782 0.064570 0.000009 0.000010 -1.000000
0.822081 0.159118 0.061910 -0.056009 -0.233065 0.970847
0.109198 0.163027 0.025980 -0.039485 0.054686 -0.997723
0.627451 0.176751 0.064570 0.000009 0.000010 -1.000000
0.236024 0.209467 0.059605 0.003402 0.010166 -0.999943
0.645287 0.180547 0.064571 0.000009 0.000010 -1.000000
0.296750 0.090364 0.059598 0.047572 -0.064148 0.996806
0.291748 0.167978 0.052752 -0.898020 -0.054612 0.436551
0.327730 0.161532 0.025980 0.084851 -0.041053 -0.995548
0.292221 0.158920 0.044602 0.807168 0.106425 0.580650
0.877665 0.132515 0.059938 0.012402 -0.412628 0.910815
0.190996 0.158862 0.069763 -0.066230 -0.543211 0.836980
0.200430 0.121633 0.060491 -0.001173 0.001740 0.999998
0.896438 0.166103 0.066373 0.058080 0.527574 0.847521
0.209304 0.162322 0.059598 0.064220 0.071528 0.995369
0.475333 0.182985 0.065777 -0.014918 0.009316 0.999845
0.469173 0.178710 0.064569 0.000009 0.000010 -1.000000
0.157605 0.283774 0.041354 0.320428 0.944466 -0.072867
0.126836 0.036159 0.025980 0.021981 -0.155080 -0.987657
0.454550 0.149819 0.064701 -0.076833 -0.015911 -0.996917
0.350334 0.244616 0.025980 0.015457 0.039995 -0.999080
0.040151 0.167256 0.059598 -0.204284 0.008914 0.978871
0.136664 0.088515 0.059598 -0.007004 0.017732 0.999818
0.411950 0.175333 0.064569 0.000009 0.000010 -1.000000
0.344294 0.142345 0.027387 0.383918 -0.282834 -0.878983
0.674236 0.156054 0.051995 0.022897 -0.196275 -0.980281
0.275032 0.230940 0.025980 -0.029939 0.060621 -0.997712
0.122676 0.143275 0.025980 -0.018987 0.045534 -0.998782
0.377441 0.278290 0.042111 0.004619 0.998800 0.048758
0.800976 0.156464 0.064572 0.000009 0.000010 -1.000000
0.859408 0.208142 0.049380 -0.424154 0.064305 -0.903304
0.069102 0.170002 0.059725 0.000077 0.023716 -0.999719
0.321426 0.269362 0.041817 -0.270242 0.962567 0.020850
0.314142 0.141321 0.043258 0.121686 -0.009738 0.992521
0.259736 0.172818 0.059605 0.006384 0.003189 -0.999975
0.248414 0.113478 0.059598 0.095514 0.003713 0.995421
0.436063 0.182526 0.062949 0.015255 0.161755 0.986713
0.297645 0.218336 0.059598 0.004601 -0.031839 0.999482
0.333244 0.095419 0.033927 0.363124 0.916890 -0.165691
0.060905 0.151262 0.059725 0.000004 -0.054994 -0.998487
0.198453 0.155801 0.066581 0.040662 -0.993038 0.110557
0.395936 0.155133 0.062949 -0.210596 -0.112515 0.971077
0.675291 0.164266 0.064571 0.000009 0.000010 -1.000000
0.915423 0.172410 0.059347 0.037796 0.228817 -0.972735
0.266484 0.185408 0.059605 0.007664 0.003617 -0.999964
0.698974 0.170815 0.065779 0.071942 0.007420 0.997381
0.081943 0.192555 0.025980 -0.077324 0.057381 -0.995353
0.807431 0.180378 0.055655 -0.117431 0.920046 -0.373798
0.282938 0.212596 0.059598 0.074425 -0.001012 0.997226
0.289882 0.195159 0.025980 -0.003086 0.015918 -0.999869
0.181108 0.103981 0.025980 0.040217 -0.070940 -0.996670
0.564410 0.174173 0.051791 0.019293 0.118592 -0.992756
0.251391 0.068257 0.030702 -0.163207 -0.900886 -0.402204
0.572127 0.167217 0.064498 -0.024334 0.009906 0.999655
0.039689 0.181515 0.059598 -0.236422 0.014772 0.971538
0.238211 0.169765 0.060491 0.002830 0.006146 0.999977
0.881886 0.173441 0.067133 0.170330 -0.745220 0.644697
0.110916 0.279900 0.059598 0.002941 0.185185 0.982699
0.314257 0.226391 0.025980 0.018567 -0.005601 -0.999812
0.295299 0.193655 0.059598 0.187379 -0.260850 0.947020
0.419844 0.172453 0.050977 0.066627 0.054793 -0.996272
0.133392 0.074353 0.059606 -0.003314 0.006878 -0.999971
0.098342 0.127020 0.059598 -0.081385 0.025416 0.996359
0.573633 0.167082 0.064570 0.000009 0.000010 -1.000000
0.453955 0.184895 0.054871 0.052154 0.631743 -0.773422
0.359645 0.159774 0.064700 -0.191809 -0.001965 -0.981430
0.168504 0.045268 0.059598 0.054823 -0.144430 0.987995
0.150902 0.110931 0.059598 0.017421 0.027552 0.999469
0.343079 0.056498 0.026963 0.182490 -0.422882 -0.887619
0.256113 0.073059 0.059598 -0.002839 -0.222509 0.974927
0.160227 0.158686 0.059605 -0.021612 0.000066 -0.999766
0.177627 0.079041 0.025980 0.037235 -0.070661 -0.996805
0.067621 0.087154 0.059606 0.004596 0.019412 -0.999801
0.300246 0.094953 0.059606 0.019568 0.005165 -0.999795
0.311643 0.171048 0.025980 0.028533 -0.034787 -0.998987
0.165160 0.073820 0.059606 -0.004479 -0.009198 -0.999948
0.194817 0.115103 0.059598 0.073928 -0.043234 0.996326
0.354781 0.190205 0.063570 -0.009774 0.955023 0.296371
0.174404 0.065556 0.059606 -0.000634 -0.010833 -0.999941
0.223985 0.176921 0.059605 0.002432 0.003921 -0.999989
0.786533 0.164539 0.062952 0.045185 0.127644 0.990790
0.217898 0.139874 0.059605 0.001425 0.000463 -0.999999
0.044475 0.188861 0.068631 -0.097444 -0.850883 -0.516240
0.086956 0.154496 0.025980 -0.080330 0.019341 -0.996581
0.406807 0.185689 0.053448 0.094200 0.609103 -0.787477
0.063287 0.093580 0.059598 -0.165596 -0.024102 0.985899
0.417905 0.177496 0.064505 -0.085532 0.052917 0.994929
0.636917 0.182763 0.064482 -0.009192 0.112441 0.993616
0.320619 0.104635 0.030876 0.796525 0.476407 -0.372269
0.431466 0.184640 0.064569 0.000009 0.000010 -1.000000
0.885747 0.200290 0.049678 -0.061096 -0.084506 0.994548
0.051200 0.253725 0.025980 -0.120006 0.082558 -0.989334
0.304461 0.191345 0.050401 -0.002713 0.999996 0.001115
0.348359 0.181790 0.026765 0.057141 0.020187 0.998162
0.890094 0.135990 0.059938 0.085745 -0.492200 0.866249
0.276590 0.143028 0.059606 0.012912 0.000377 -0.999917
0.120804 0.290433 0.040140 0.027283 0.999449 0.018890
0.381756 0.258978 0.059598 0.031591 0.121564 0.992081
0.162425 0.035090 0.036471 0.331204 -0.942544 -0.043755
0.383847 0.184709 0.068610 -0.029688 0.896635 -0.441773
0.181721 0.256012 0.031974 0.168691 0.338968 -0.925551
0.938172 0.160869 0.045604 -0.044114 -0.003292 -0.999021
0.442185 0.177940 0.064569 0.000009 0.000010 -1.000000
0.409041 0.172867 0.050558 0.074574 0.053837 -0.995761
0.254189 0.070637 0.059598 -0.017220 -0.224729 0.974269
0.183199 0.167880 0.025980 0.038197 -0.041078 -0.998426
0.099026 0.160734 0.059598 -0.061328 0.072068 0.995512
0.213459 0.170513 0.025980 0.013695 0.020541 -0.999695
0.187404 0.129913 0.060491 -0.008419 -0.000495 0.999964
0.038708 0.133248 0.065312 -0.976084 -0.173302 0.131248
0.852874 0.197564 0.055491 0.186428 0.971679 -0.145203
0.311877 0.203626 0.059606 -0.017867 0.067161 -0.997582
0.974864 0.148874 0.052571 0.520622 0.023998 -0.853450
0.972622 0.137783 0.056545 0.821894 -0.429265 0.374463
0.358679 0.171132 0.062949 -0.202549 -0.047975 0.978096
0.694929 0.166455 0.064487 0.004249 0.022975 0.999727
0.213672 0.202663 0.062442 0.442252 0.895018 -0.057927
0.380435 0.162379 0.062949 -0.206145 -0.083183 0.974979
0.346165 0.069846 0.059598 0.107422 -0.079909 0.990997
0.141777 0.262306 0.059598 0.039269 0.166540 0.985252
0.157494 0.142330 0.068622 -0.065628 -0.199630 -0.977671
0.036192 0.243889 0.053782 -0.861313 0.422929 0.281551
0.342613 0.270407 0.059598 -0.016353 0.148407 0.988791
0.163370 0.258088 0.059598 0.049111 0.095140 0.994252
0.185712 0.173770 0.060650 -0.002443 0.999888 -0.014754
0.300458 0.236044 0.059598 -0.002823 0.029415 0.999563
0.227483 0.098162 0.059598 0.035323 0.031392 0.998883
0.923098 0.195112 0.056396 0.849272 -0.527019 0.031432
0.076388 0.145527 0.060600 0.003824 -0.116367 0.993199
0.323348 0.172412 0.043254 -0.057210 0.033183 -0.997811
0.155455 0.104411 0.059606 -0.016218 -0.000041 -0.999869
0.618181 0.170720 0.051551 0.015304 0.047474 -0.998755
0.782199 0.164054 0.056700 -0.219896 -0.007833 -0.975492
0.854049 0.181703 0.051480 -0.019511 -0.031297 0.999320
0.858404 0.172501 0.066562 -0.054259 0.639226 -0.767102
0.065005 0.080867 0.025980 -0.095823 -0.034200 -0.994811
0.114066 0.275612 0.025980 -0.006552 0.162480 -0.986690
0.588781 0.177687 0.064570 0.000009 0.000010 -1.000000
0.059668 0.088110 0.059606 0.002345 0.026807 -0.999638
0.554043 0.161588 0.051297 0.012508 -0.038915 -0.999164
0.889773 0.212308 0.049152 -0.099386 0.068382 -0.992697
0.515032 0.165594 0.064503 -0.061276 -0.044671 0.997121
0.063428 0.193525 0.068008 0.473241 0.098655 0.875392
0.026208 0.128867 0.039769 -0.996890 -0.078730 0.003514
0.537299 0.148149 0.054370 0.012925 -0.553174 -0.832965
0.178761 0.126918 0.059598 0.067257 -0.086708 0.993961
0.050338 0.073645 0.060491 -0.049325 -0.021411 0.998553
0.155608 0.280340 0.059598 0.054710 0.145754 0.987807
0.202233 0.106025 0.059605 -0.002954 0.000516 -0.999996
0.572401 0.169831 0.070169 -0.024821 0.073602 0.996979
0.163308 0.173367 0.068021 -0.067985 0.117877 -0.990698
0.343413 0.178689 0.025980 0.117747 -0.034418 -0.992447
0.320868 0.196669 0.060491 0.023942 -0.063640 0.997686
0.171812 0.126953 0.058264 0.047936 -0.470506 -0.881094
0.277623 0.234476 0.026308 -0.048376 0.093582 -0.994436
0.620802 0.152161 0.052943 0.012858 -0.367359 -0.929991
0.244847 0.171530 0.068950 -0.068826 -0.978014 -0.196853
0.593862 0.178219 0.052817 0.015761 0.334962 -0.942100
0.146881 0.062949 0.025980 0.011797 -0.012881 -0.999847
0.348513 0.163501 0.062948 -0.224935 -0.080554 0.971038
0.834530 0.157449 0.051276 -0.160038 -0.076627 -0.984132
0.302398 0.191216 0.044365 0.025524 -0.399047 0.916575
0.365127 0.069677 0.039023 0.910279 -0.413824 -0.011891
0.214023 0.185283 0.059605 0.001592 0.004655 -0.999988
0.243294 0.157902 0.059605 0.003526 0.004953 -0.999982
0.587666 0.158385 0.064502 -0.033274 -0.063755 0.997411
0.620227 0.165324 0.062951 0.038096 0.013064 0.999189
0.357849 0.177110 0.043255 0.059959 0.030891 -0.997723
0.340668 0.218629 0.059598 0.095489 -0.022518 0.995176
0.365854 0.189029 0.034229 0.984093 0.077977 -0.159624
0.167458 0.246584 0.027562 0.051800 0.095969 -0.994035
0.361620 0.086174 0.029319 0.549707 0.715245 -0.431564
0.742816 0.174465 0.052223 0.045038 0.251702 -0.966756
0.063405 0.177548 0.065614 0.739636 -0.630208 0.236172
0.067780 0.181246 0.060600 0.000462 0.070703 0.997497
0.366173 0.252591 0.025980 0.016032 0.019657 -0.999678
0.343427 0.146261 0.064524 -0.035437 -0.171529 0.984542
0.156513 0.066353 0.059598 0.025573 -0.050171 0.998413
0.533845 0.186072 0.059182 0.025762 0.953344 -0.300786
0.386353 0.181417 0.064505 -0.067411 0.068621 0.995363
0.098088 0.055634 0.060491 -0.005210 -0.015875 0.999860
0.291825 0.174194 0.062640 -0.262079 -0.040165 0.964210
0.567002 0.184957 0.057902 0.028678 0.900652 -0.433594
0.854389 0.185470 0.051276 0.019183 0.186537 -0.982261
0.290606 0.221311 0.059598 0.046680 -0.061319 0.997026
0.819309 0.166738 0.068424 -0.007178 -0.837376 -0.546581
0.693148 0.168745 0.051465 0.017101 0.028254 -0.999454
0.152319 0.107430 0.059598 0.018510 0.017269 0.999680
0.186534 0.183297 0.025980 0.033516 -0.011640 -0.999370
0.163355 0.156189 0.058264 -0.515843 0.106354 -0.850056
0.081060 0.046204 0.025980 -0.082490 -0.142774 -0.986312
0.090963 0.257410 0.059598 -0.045502 0.162096 0.985725
0.061170 0.271186 0.058212 -0.231441 0.340721 0.911232
0.170643 0.278694 0.034654 0.304170 0.671065 -0.676131
0.350279 0.141033 0.062948 -0.084704 -0.353093 0.931746
0.110432 0.148795 0.025980 -0.039490 0.042812 -0.998302
0.273529 0.074912 0.025980 -0.036827 -0.147121 -0.988433
0.769793 0.153814 0.064476 0.039758 -0.052500 0.997829
0.180246 0.232171 0.059598 0.053130 0.053774 0.997139
0.163331 0.135054 0.025980 0.035725 -0.055293 -0.997831
0.568130 0.169495 0.064497 -0.025262 0.023066 0.999415
0.504164 0.155336 0.064509 -0.036836 -0.095537 0.994744
0.920948 0.144243 0.060010 0.000598 -0.001866 -0.999998
0.489209 0.174697 0.062950 -0.046584 0.039419 0.998136
0.048181 0.112573 0.025980 -0.138543 -0.021179 -0.990130
0.673059 0.148795 0.055749 0.013671 -0.765941 -0.642766
0.866884 0.224081 0.048749 0.408371 -0.067835 0.910292
0.667023 0.154566 0.062951 -0.028697 -0.095890 0.994978
0.301711 0.258221 0.028431 -0.210218 0.459007 -0.863204
0.811155 0.156463 0.064456 0.085145 -0.051588 0.995032
0.045294 0.173491 0.061455 0.046890 0.696155 -0.716359
0.294439 0.141346 0.057039 0.376084 0.304436 0.875146
0.289073 0.115683 0.060491 0.029736 -0.005909 0.999540
0.639737 0.182807 0.064481 -0.008538 0.113100 0.993547
0.396156 0.186880 0.051930 0.114405 0.718730 -0.685812
0.719155 0.178212 0.062952 0.028814 0.304595 0.952046
0.150257 0.118029 0.060491 -0.021730 -0.000531 0.999764
0.215245 0.078140 0.060415 0.518693 -0.172102 -0.837459
0.162862 0.260722 0.029935 0.218351 0.362842 -0.905908
0.307055 0.079359 0.059606 0.012275 0.000063 -0.999925
0.293801 0.134602 0.025980 0.057192 -0.034809 -0.997756
0.800503 0.154278 0.064572 0.000009 0.000010 -1.000000
0.440549 0.175668 0.064504 -0.065442 0.043256 0.996918
0.924197 0.200666 0.052898 0.948261 -0.257996 -0.185037
0.366001 0.146180 0.043258 0.268585 -0.361053 0.893030
0.047056 0.060517 0.056905 -0.581225 -0.390949 0.713678
0.787723 0.175960 0.070019 -0.011103 -0.451679 0.892111
0.163614 0.154984 0.059605 -0.020482 -0.000022 -0.999790
0.362609 0.151817 0.062948 -0.239161 -0.128370 0.962457
0.215784 0.221496 0.060491 0.002850 0.006722 0.999973
0.760117 0.148556 0.060434 0.053707 -0.983235 0.174254
0.071474 0.182048 0.060600 0.000703 0.073946 0.997262
0.920927 0.161594 0.051480 0.194862 -0.199723 0.960281
0.553728 0.156260 0.064570 0.000009 0.000010 -1.000000
0.096003 0.153137 0.025980 -0.063356 0.031461 -0.997495
0.170042 0.207358 0.059605 -0.005618 0.008630 -0.999947
0.056967 0.190785 0.060600 -0.000005 0.110518 0.993874
0.393717 0.251732 0.059598 0.049071 0.072428 0.996166
0.250458 0.115694 0.059598 0.101116 0.001846 0.994873
0.090329 0.065893 0.025980 -0.061124 -0.032768 -0.997592
0.187644 0.131767 0.064468 0.560897 -0.172202 0.809778
0.163316 0.221052 0.060491 -0.005852 0.010242 0.999930
0.938453 0.128742 0.058751 -0.587076 -0.807214 0.061213
0.220630 0.160899 0.025980 0.011354 0.011553 -0.999869
0.340895 0.065245 0.059606 0.026146 -0.059581 -0.997881
0.231007 0.072308 0.025980 0.024475 -0.090891 -0.995560
0.497181 0.155020 0.064569 0.000009 0.000010 -1.000000
0.119020 0.183313 0.059598 -0.009621 0.101720 0.994767
0.340403 0.213153 0.060491 0.022784 0.027078 0.999374
0.313671 0.166347 0.025980 0.034526 -0.038453 -0.998664
0.219266 0.108116 0.059605 0.001201 -0.001754 -0.999998
0.310936 0.066679 0.059606 -0.002753 -0.034875 -0.999388
0.326358 0.248244 0.025980 -0.002683 0.049058 -0.998792
0.264145 0.081407 0.025980 0.000162 -0.116028 -0.993246
0.767508 0.180745 0.064458 0.069357 0.090349 0.993492
0.918306 0.146925 0.060026 0.000451 -0.000449 1.000000
0.125865 0.103316 0.025980 -0.021428 0.014777 -0.999661
0.282258 0.104512 0.025980 0.030887 -0.083865 -0.995998
0.174679 0.178581 0.059598 0.054318 -0.026773 0.998165
0.030636 0.174645 0.025980 -0.160078 -0.003094 -0.987099
0.255917 0.119664 0.059598 0.122092 -0.002751 0.992515
0.088246 0.059551 0.025980 -0.034278 -0.106862 -0.993683
0.615519 0.179374 0.064570 0.000009 0.000010 -1.000000
0.610528 0.178868 0.062951 0.024670 0.233703 0.971995
0.839588 0.161093 0.051276 -0.067199 0.099066 -0.992809
0.113691 0.107987 0.025980 -0.043893 0.003727 -0.999029
0.213304 0.259275 0.054862 0.289824 0.858851 0.422346
0.106873 0.025007 0.036401 -0.041168 -0.998030 -0.047343
0.063594 0.140437 0.059725 0.000004 -0.100105 -0.994977
0.393622 0.240550 0.059598 0.043605 -0.037676 0.998338
0.588047 0.178638 0.062951 0.024164 0.212804 0.976796
0.315918 0.266920 0.029516 -0.258326 0.791501 -0.553891
0.823728 0.156927 0.061535 -0.026507 -0.251463 0.967504
0.232806 0.237939 0.059598 0.016167 0.185986 0.982419
0.170864 0.103170 0.025980 0.035139 -0.060201 -0.997568
0.035171 0.077996 0.040611 -0.933177 -0.358880 0.019670
0.751603 0.159695 0.051563 0.018890 -0.087710 -0.995967
0.209319 0.129683 0.060491 0.001112 0.002694 0.999996
0.378233 0.224473 0.052905 0.332212 -0.916754 0.221803
0.218640 0.220872 0.059598 0.048676 0.158136 0.986217
0.101050 0.263529 0.025980 -0.031798 0.127995 -0.991265
0.171821 0.107672 0.060491 -0.014379 -0.001032 0.999896
0.316340 0.179989 0.064511 -0.124166 -0.017559 0.992106
0.365196 0.277915 0.043254 -0.052033 0.997069 0.056092
0.701478 0.152731 0.064496 0.005738 -0.058600 0.998265
0.578204 0.150585 0.062950 -0.097186 -0.119324 0.988087
0.599513 0.178807 0.069229 -0.039655 -0.985509 0.164925
0.446445 0.179240 0.064569 0.000009 0.000010 -1.000000
0.202968 0.137077 0.059605 -0.000625 0.003725 -0.999993
0.343545 0.092630 0.031478 0.279136 0.907289 -0.314500
0.189035 0.100016 0.025980 0.046929 -0.088299 -0.994988
0.333352 0.159298 0.064700 0.196578 -0.008799 -0.980449
0.417313 0.156819 0.064568 0.000009 0.000010 -1.000000
0.399169 0.256273 0.025980 0.027767 0.069312 -0.997208
0.269642 0.166874 0.025980 0.028154 -0.004078 -0.999595
0.212154 0.170021 0.025980 0.014446 0.018685 -0.999721
0.052347 0.083752 0.025980 -0.098772 -0.037705 -0.994395
0.621654 0.180416 0.054071 0.016639 0.538750 -0.842301
0.637399 0.149092 0.069450 -0.026761 0.653339 0.756592
0.141813 0.215360 0.059598 0.028559 0.126321 0.991578
0.215583 0.071920 0.025980 0.043196 -0.103781 -0.993662
0.238104 0.221466 0.059598 0.013173 0.150327 0.988549
0.175824 0.135050 0.060491 -0.012705 -0.000519 0.999919
0.314006 0.153548 0.043254 -0.064097 -0.368744 -0.927319
0.771240 0.172106 0.051770 0.047669 0.168160 -0.984607
0.335433 0.148346 0.043258 0.148243 -0.142172 0.978678
0.201024 0.159566 0.067314 -0.289795 -0.086006 0.953217
0.116162 0.102410 0.025980 -0.040346 0.001127 -0.999185
0.550248 0.152259 0.064570 0.000009 0.000010 -1.000000
0.133459 0.126860 0.059598 -0.000474 0.051996 0.998647
0.824150 0.185850 0.058573 -0.661232 0.600814 0.449217
0.041496 0.087941 0.025980 -0.106639 -0.039659 -0.993507
0.184547 0.043618 0.040448 0.406170 -0.913722 0.011781
0.321786 0.248532 0.025980 -0.002119 0.037980 -0.999276
0.094553 0.214210 0.059598 -0.054281 0.121803 0.991069
0.027627 0.156273 0.027699 -0.596404 -0.014806 -0.802548
0.903400 0.169303 0.046642 -0.999007 0.025569 0.036495
0.687762 0.167394 0.051415 0.016754 0.016431 -0.999725
0.097530 0.090602 0.025980 -0.065685 -0.017495 -0.997687
0.295374 0.116754 0.059606 0.013815 -0.003005 -0.999900
0.486824 0.187660 0.062950 0.011800 0.284052 0.958736
0.104804 0.070842 0.059606 0.000697 0.008018 -0.999968
0.426314 0.234615 0.033862 0.528059 -0.833231 -0.163952
0.183210 0.215960 0.059598 0.058494 0.043683 0.997332
0.257153 0.224280 0.059598 0.043078 0.106740 0.993353
0.461435 0.177601 0.064501 -0.050035 0.056517 0.997147
0.056107 0.268776 0.029360 -0.573942 0.659369 -0.485616
0.174297 0.180260 0.025980 0.034511 -0.035862 -0.998761
0.697658 0.153660 0.064571 0.000009 0.000010 -1.000000
0.175788 0.228920 0.025980 0.021539 0.034982 -0.999156
0.160900 0.035251 0.030762 0.305987 -0.870560 -0.385352
0.175146 0.177181 0.060491 -0.005518 0.006009 0.999967
0.047152 0.211994 0.059598 -0.166653 0.070316 0.983505
0.836595 0.170588 0.059938 -0.144903 0.157280 0.976865
0.298686 0.082121 0.059598 0.034700 -0.054087 0.997933
0.813745 0.152540 0.063544 0.500266 -0.528175 0.686123
0.701883 0.182794 0.059413 0.035533 0.987493 -0.153610
0.450881 0.150927 0.062949 -0.182520 -0.126616 0.975015
0.291800 0.178296 0.046986 -0.999518 -0.011253 0.028939
0.917636 0.167432 0.064025 0.056966 -0.155328 -0.986219
0.079959 0.143650 0.059598 -0.119257 0.023660 0.992581
0.617228 0.148320 0.069551 -0.017328 -0.275315 0.961198
0.310442 0.109792 0.025980 0.104193 0.019274 -0.994370
0.806080 0.180635 0.058681 0.175090 0.964957 -0.195451
0.164868 0.050425 0.059598 0.048314 -0.124482 0.991045
0.318411 0.203268 0.059605 0.011772 0.005674 -0.999915
0.865522 0.146249 0.051276 -0.053432 -0.002362 -0.998569
0.366453 0.165544 0.036581 0.917054 -0.361667 0.167957
0.444141 0.187782 0.064569 0.000009 0.000010 -1.000000
0.142645 0.043403 0.059606 0.006693 -0.024491 -0.999678
0.316015 0.140763 0.043258 0.119682 -0.028029 0.992417
0.194582 0.048654 0.033650 0.409593 -0.890814 -0.196684
0.064733 0.085700 0.059606 -0.003029 0.013588 -0.999903
0.076976 0.141103 0.059598 -0.147742 0.012104 0.988952
0.239163 0.104176 0.025980 0.024551 -0.051280 -0.998383
0.288396 0.216483 0.025980 -0.013924 0.031083 -0.999420
0.098592 0.065371 0.060536 -0.665887 0.689722 -0.284391
0.140336 0.173972 0.025980 0.031966 0.035304 -0.998865
0.249581 0.184667 0.059605 0.004216 0.005490 -0.999976
0.273221 0.249542 0.059598 0.011318 0.110753 0.993784
0.292766 0.144425 0.049658 0.766326 0.317708 0.558397
0.086716 0.241714 0.059598 -0.061319 0.144978 0.987533
0.095176 0.199041 0.059598 -0.057960 0.107025 0.992566
0.890123 0.208109 0.048986 -0.105979 0.040713 -0.993535
0.159866 0.054179 0.059606 0.004215 -0.015650 -0.999869
0.294695 0.163112 0.062948 -0.260806 -0.085559 0.961592
0.347879 0.170862 0.025980 0.133485 -0.012182 -0.990976
0.091722 0.165979 0.025980 -0.065740 0.041601 -0.996969
0.409975 0.180929 0.051937 0.064554 0.302357 -0.951006
0.138637 0.246748 0.025980 0.041241 0.059061 -0.997402
0.344180 0.188820 0.025980 0.118670 -0.032162 -0.992413
0.301496 0.178854 0.025980 0.012592 -0.012093 -0.999848
0.814018 0.161703 0.062886 -0.611056 -0.098542 0.785430
0.432549 0.162905 0.050755 0.057455 -0.003799 -0.998341
0.100789 0.221233 0.059598 -0.037241 0.131488 0.990618
0.933075 0.160434 0.048012 -0.890371 0.286848 0.353495
0.089022 0.163674 0.059598 -0.084787 0.063240 0.994390
0.217803 0.080794 0.025980 0.029269 -0.076771 -0.996619
0.294603 0.225115 0.025980 -0.013512 0.026571 -0.999556
0.025413 0.140132 0.043918 -0.995870 -0.035093 0.083730
0.195983 0.049202 0.042496 0.402891 -0.913106 0.062579
0.296442 0.135524 0.060491 0.050469 0.025969 0.998388
0.067445 0.140107 0.068788 -0.120619 0.176334 0.976912
0.346498 0.163692 0.026765 0.012293 0.001294 0.999924
0.112748 0.231503 0.025980 -0.017675 0.107479 -0.994050
0.139720 0.124997 0.025980 0.016767 0.037132 -0.999170
0.920624 0.177196 0.050553 0.908374 -0.379138 0.176386
0.075264 0.205438 0.025980 -0.085838 0.063181 -0.994304
0.812568 0.165710 0.061804 -0.871319 0.000480 0.490717
0.109794 0.179163 0.025980 -0.035121 0.068114 -0.997059
0.131697 0.072699 0.059598 -0.024194 -0.001575 0.999706
0.033072 0.163566 0.025980 -0.155301 -0.005119 -0.987854
0.227872 0.161202 0.060491 0.002713 0.003811 0.999989
0.335134 0.187342 0.064568 0.000009 0.000010 -1.000000
0.552588 0.155208 0.064506 -0.029974 -0.086077 0.995837
0.036716 0.245284 0.037013 -0.906388 0.421151 -0.033056
0.174224 0.188582 0.069180 -0.050362 0.991254 0.121983
0.552681 0.167370 0.062950 -0.055834 -0.041374 0.997582
0.841310 0.151574 0.051276 -0.034746 0.053282 -0.997975
0.164275 0.105191 0.060491 -0.017016 -0.000983 0.999855
0.025950 0.192333 0.031424 -0.948667 0.027160 -0.315108
0.279971 0.057826 0.031785 -0.301562 -0.900606 -0.313001
0.607407 0.179392 0.053416 0.018401 0.446679 -0.894505
0.291723 0.149601 0.060530 -0.432586 -0.144402 0.889953
0.841121 0.163893 0.059938 -0.004793 0.130965 0.991375
0.155678 0.257355 0.059598 0.049917 0.126988 0.990647
0.432275 0.174960 0.064505 -0.101198 0.027463 0.994487
0.183957 0.243899 0.029459 0.092126 0.185157 -0.978381
0.748263 0.161175 0.064481 0.024126 -0.005360 0.999695
0.414780 0.183337 0.068021 -0.037981 0.205555 -0.977908
0.189931 0.198758 0.060491 -0.000044 0.008876 0.999961
0.664182 0.181401 0.055440 0.019588 0.716116 -0.697706
0.149707 0.139274 0.059852 -0.051364 -0.000047 -0.998680
0.161432 0.258136 0.059598 0.051119 0.101904 0.993480
0.145265 0.197428 0.025980 0.026683 0.026465 -0.999294
0.299886 0.132072 0.025980 0.062700 -0.037884 -0.997313
0.119678 0.171749 0.025980 -0.017990 0.065740 -0.997675
0.888379 0.165592 0.051276 0.006631 0.094859 -0.995469
0.357037 0.140393 0.032387 0.675966 -0.689634 -0.259758
0.181991 0.126748 0.061554 0.147389 -0.742521 -0.653406
0.146530 0.029920 0.048244 0.267578 -0.950852 0.155826
0.824183 0.179015 0.051293 0.237858 0.220711 -0.945891
0.179607 0.103457 0.059598 0.071420 -0.113682 0.990947
0.419406 0.266855 0.057368 0.366640 0.424950 0.827643
0.287071 0.122773 0.059606 0.031442 0.010274 -0.999453
0.110366 0.208608 0.059598 -0.018398 0.123554 0.992167
0.249816 0.108194 0.059598 0.112572 -0.000534 0.993643
0.432024 0.155857 0.062949 -0.185112 -0.107163 0.976857
0.917915 0.167935 0.067911 0.101887 -0.041048 0.993949
0.051345 0.120242 0.025980 -0.129673 -0.015279 -0.991439
0.060997 0.056522 0.025980 -0.126944 -0.135438 -0.982620
0.330435 0.142854 0.062948 -0.154489 -0.291461 0.944025
0.345869 0.159922 0.062948 -0.233922 -0.095662 0.967538
0.263573 0.192195 0.060491 0.006820 0.005722 0.999960
0.151263 0.069257 0.060475 0.870147 0.428407 -0.243540
0.139845 0.056556 0.060491 0.001456 -0.010430 0.999945
0.433988 0.170879 0.070169 -0.040956 -0.065626 0.997003
0.062327 0.146123 0.059598 -0.176796 0.003502 0.984241
0.293793 0.188592 0.060154 -0.203424 0.126350 0.970904
0.548550 0.157646 0.051718 0.012447 -0.097474 -0.995160
0.189822 0.175317 0.066997 -0.484174 0.065596 0.872510
0.910017 0.158218 0.048460 -0.446009 -0.728715 0.519664
0.296907 0.177116 0.062948 -0.230804 -0.027180 0.972620
0.033084 0.154268 0.059598 -0.167682 0.002428 0.985838
0.085545 0.249090 0.025980 -0.064066 0.111262 -0.991724
0.206286 0.161886 0.058264 0.112360 -0.381873 -0.917359
0.934682 0.145385 0.059939 -0.116915 -0.246093 0.962169
0.433577 0.148129 0.064517 -0.028063 -0.144157 0.989157
0.151937 0.197179 0.059605 -0.027832 0.000399 -0.999613
0.175242 0.094725 0.060491 -0.013332 -0.001345 0.999910
0.383334 0.253062 0.025980 0.015486 0.034605 -0.999281
0.359017 0.277462 0.035452 -0.109288 0.992105 -0.061509
0.580733 0.154866 0.064504 -0.025314 -0.081843 0.996324
0.250178 0.236819 0.059598 0.008679 0.134610 0.990861
0.267190 0.186810 0.059598 0.107396 0.044651 0.993213
0.257718 0.180640 0.025980 0.014482 0.009309 -0.999852
0.084916 0.068294 0.025980 -0.066052 -0.033562 -0.997252
0.150737 0.059750 0.068953 0.699276 -0.712933 -0.052346
0.059892 0.197076 0.060600 -0.000004 0.136337 0.990663
0.346607 0.170120 0.064513 -0.095527 -0.058115 0.993729
0.276413 0.256544 0.041731 -0.201075 0.979332 0.021861
0.068685 0.164936 0.059598 -0.136774 0.036900 0.989915
0.319309 0.154272 0.025291 0.029374 0.020512 -0.999358
0.293929 0.142227 0.049142 0.692956 0.483542 0.534789
0.355460 0.156374 0.062948 -0.234764 -0.109851 0.965825
0.227837 0.132052 0.060491 0.002663 0.001199 0.999996
0.411589 0.177061 0.051291 0.069911 0.145645 -0.986864
0.330989 0.140202 0.062948 -0.076517 -0.378079 0.922606
0.621178 0.158237 0.051678 0.014757 -0.096110 -0.995261
0.670751 0.150858 0.062951 -0.033742 -0.111269 0.993217
0.273213 0.083098 0.059606 0.001448 -0.013713 -0.999905
0.590505 0.167831 0.051446 0.014118 0.022587 -0.999645
0.238703 0.067161 0.045128 0.223549 -0.971082 0.083817
0.284326 0.144795 0.025980 0.046607 -0.024817 -0.998605
0.301468 0.172248 0.064700 -0.055492 0.013007 -0.998374
0.163699 0.118768 0.059598 0.051307 -0.051840 0.997337
0.243389 0.125692 0.025980 0.020954 -0.034088 -0.999199
0.148772 0.096423 0.025980 0.012042 -0.009981 -0.999878
0.393138 0.267911 0.025980 0.022096 0.165662 -0.985935
0.538791 0.166477 0.051403 0.012482 0.011821 -0.999852
0.811500 0.159240 0.051656 -0.157541 -0.045529 -0.986462
0.236570 0.195867 0.059598 0.017196 0.123766 0.992162
0.143924 0.284551 0.058982 0.070482 0.277552 0.958122
0.210272 0.205477 0.060491 0.002554 0.007555 0.999968
0.300277 0.075743 0.060491 -0.000039 -0.016743 0.999860
0.093184 0.065929 0.060491 -0.002748 0.001574 0.999995
0.811716 0.180957 0.062877 0.029310 0.434229 0.900325
0.168738 0.052156 0.060491 0.002651 -0.014527 0.999891
0.525779 0.181674 0.062950 0.019059 0.215806 0.976250
0.208663 0.261886 0.046170 0.385314 0.909314 -0.157102
0.077665 0.148968 0.059598 -0.122327 0.027637 0.992105
0.577803 0.159511 0.069837 -0.024353 0.248924 0.968217
0.732415 0.176531 0.069569 -0.023052 -0.861040 0.508014
0.545032 0.166552 0.051405 0.012666 0.012333 -0.999844
0.117275 0.079232 0.059598 -0.073665 -0.016051 0.997154
0.548020 0.160424 0.064570 0.000009 0.000010 -1.000000
0.793874 0.162021 0.062953 0.047882 0.090174 0.994774
0.336514 0.180380 0.026765 0.010445 0.011582 0.999878
0.736626 0.162401 0.064571 0.000009 0.000010 -1.000000
0.256147 0.199353 0.059605 0.005237 0.005446 -0.999971
0.044667 0.176968 0.060600 -0.023423 0.073117 0.997048
0.159918 0.174161 0.068358 -0.077718 0.744020 -0.663621
0.220024 0.171746 0.069133 -0.071696 -0.996838 -0.034260
0.652289 0.147367 0.057341 0.016282 -0.879414 -0.475779
0.486991 0.170679 0.064503 -0.072580 0.019963 0.997163
0.830426 0.159603 0.051276 -0.138734 -0.085081 -0.986668
0.506507 0.185908 0.057492 0.025459 0.862052 -0.506180
0.368043 0.278018 0.053133 -0.032710 0.976063 0.215012
0.811307 0.175462 0.059881 0.098312 0.028811 0.994738
0.147747 0.185115 0.059598 0.032334 0.100978 0.994363
0.333699 0.147455 0.025291 -0.001920 0.003637 -0.999992
0.273351 0.173599 0.059605 0.009312 0.002213 -0.999954
0.154797 0.195357 0.025980 0.019073 0.001390 -0.999817
0.044198 0.252337 0.059598 -0.153700 0.116991 0.981167
0.242048 0.155243 0.059598 0.041376 0.062788 0.997169
0.162876 0.160026 0.064805 -0.651531 0.217046 0.726910
0.329187 0.088216 0.025980 0.055303 0.058423 -0.996759
0.437254 0.173702 0.064505 -0.103899 0.014304 0.994485
0.278422 0.144491 0.059598 0.224927 0.000332 0.974376
0.502143 0.182320 0.054061 0.017507 0.502693 -0.864288
0.183734 0.099750 0.059605 -0.009867 -0.000680 -0.999951
0.734773 0.149591 0.069299 0.002465 -0.807176 0.590306
0.181965 0.182465 0.060491 -0.002967 0.006942 0.999972
0.387972 0.231700 0.059598 0.044840 -0.125710 0.991053
0.352424 0.172185 0.064568 0.000009 0.000010 -1.000000
0.136820 0.128084 0.025980 0.003157 0.049911 -0.998749
0.106858 0.051411 0.073339 -0.213577 0.860157 -0.463157
0.305976 0.200522 0.059598 0.016045 -0.120033 0.992640
0.646155 0.179489 0.053695 0.020499 0.498091 -0.866883
0.590125 0.180505 0.070072 -0.014497 0.413911 0.910202
0.583962 0.154519 0.052113 0.015434 -0.183368 -0.982923
0.164738 0.070416 0.059606 -0.011215 -0.005418 -0.999922
0.110210 0.263366 0.059598 -0.001460 0.171678 0.985152
0.884722 0.211767 0.050251 0.068642 -0.030323 0.997180
0.348053 0.275812 0.037007 -0.180787 0.982535 -0.044051
0.078387 0.221520 0.025980 -0.079548 0.080988 -0.993536
0.365591 0.167072 0.062949 -0.206353 -0.064505 0.976349
0.062372 0.167378 0.061263 -0.900131 0.341730 -0.270158
0.730874 0.175715 0.065779 -0.114510 -0.001348 0.993421
0.691392 0.183067 0.059605 0.034728 0.990308 -0.134479
0.272207 0.218244 0.025980 -0.018236 0.045584 -0.998794
0.133767 0.035644 0.025980 0.030097 -0.142195 -0.989381
0.098632 0.263248 0.025980 -0.036189 0.127266 -0.991208
0.167943 0.168535 0.067314 -0.006754 0.135360 0.990774
0.688155 0.164543 0.051388 0.016731 -0.016764 -0.999720
0.337665 0.063317 0.059933 0.078580 -0.278921 -0.957094
0.679532 0.174197 0.052030 0.025843 0.194928 -0.980477
0.128859 0.064210 0.060491 0.000515 -0.008026 0.999968
0.267050 0.179896 0.025980 0.021968 0.007177 -0.999733
0.497973 0.157931 0.064701 -0.265214 -0.003690 -0.964182
0.130689 0.070690 0.025980 -0.019655 -0.013175 -0.999720
0.053009 0.052321 0.056261 -0.606193 -0.499450 0.618934
0.860497 0.202299 0.049194 0.262145 -0.957902 0.117061
0.335227 0.167399 0.062948 -0.225711 -0.065134 0.972014
0.063599 0.180964 0.059598 -0.141364 0.051183 0.988634
0.769115 0.152387 0.065229 -0.995460 -0.095015 -0.005616
0.164679 0.277566 0.033538 0.265990 0.473794 -0.839505
0.088374 0.146184 0.059598 -0.096797 0.037524 0.994596
0.218395 0.092820 0.060491 0.001487 -0.002789 0.999995
0.519391 0.159291 0.062950 -0.119174 -0.086743 0.989077
0.167235 0.081503 0.059598 0.048432 -0.102766 0.993526
0.328891 0.171824 0.043258 0.135463 -0.232357 0.963151
0.664453 0.180564 0.064481 -0.002815 0.103263 0.994650
0.344195 0.154480 0.026765 0.017074 -0.013967 0.999757
0.533120 0.166144 0.051391 0.012275 0.009008 -0.999884
0.102320 0.102181 0.025980 -0.061702 -0.014738 -0.997986
0.586860 0.155518 0.062951 -0.081152 -0.097846 0.991887
0.331969 0.058136 0.025980 0.045735 -0.190276 -0.980665
0.886200 0.170826 0.051480 0.071370 -0.142260 0.987253
0.094074 0.220264 0.025980 -0.054788 0.092720 -0.994184
0.305610 0.086557 0.059606 0.008588 -0.003849 -0.999956
0.503195 0.161291 0.064569 0.000009 0.000010 -1.000000
0.780928 0.169006 0.064461 0.063710 0.027692 0.997584
0.184705 0.200322 0.025980 0.028840 0.010060 -0.999533
0.334216 0.165645 0.062948 -0.229959 -0.072523 0.970494
0.922556 0.168252 0.045425 0.072060 0.031507 -0.996903
0.303862 0.206454 0.060491 -0.012855 0.100438 0.994860
0.379096 0.236311 0.025980 0.026282 -0.093394 -0.995282
0.850351 0.186105 0.068526 -0.546096 0.837483 0.020059
0.265109 0.182812 0.025980 0.019526 0.009918 -0.999760
0.335438 0.172516 0.064513 -0.103043 -0.049044 0.993467
0.760191 0.181856 0.061337 0.039675 0.879995 0.473323
0.577361 0.146745 0.064508 -0.005221 -0.120815 0.992661
0.061445 0.243309 0.025980 -0.102212 0.085527 -0.991079
0.098087 0.187577 0.025980 -0.053583 0.067397 -0.996286
0.372378 0.174841 0.064509 -0.103803 -0.030361 0.994134
0.242519 0.189431 0.025980 -0.000137 0.019081 -0.999818
0.140924 0.097627 0.025980 0.004139 0.024796 -0.999684
0.098993 0.109299 0.059598 -0.100413 0.000663 0.994946
0.279477 0.235295 0.026239 -0.053692 0.098298 -0.993708
0.597792 0.182772 0.064485 -0.018270 0.106954 0.994096
0.723349 0.165006 0.051415 0.017848 -0.014937 -0.999729
0.143639 0.070655 0.060491 -0.004456 0.000827 0.999990
0.143486 0.091410 0.059598 0.004876 0.019901 0.999790
0.241851 0.124640 0.025980 0.020096 -0.034714 -0.999195
0.211019 0.124630 0.060491 0.001163 0.002161 0.999997
0.190269 0.148030 0.059605 -0.003286 0.004110 -0.999986
0.491883 0.170569 0.070169 -0.033080 0.089755 0.995414
0.117402 0.212189 0.059598 -0.003058 0.127455 0.991840
0.354963 0.189685 0.043255 0.033080 0.180058 -0.983100
0.315121 0.200437 0.025980 0.028028 -0.020399 -0.999399
0.234702 0.192549 0.060491 0.002890 0.007415 0.999968
0.258618 0.240940 0.029923 -0.057518 0.214575 -0.975013
0.468180 0.156277 0.051607 0.022986 -0.096267 -0.995090
0.041093 0.078141 0.059598 -0.226075 -0.086177 0.970290
0.159743 0.104204 0.059598 0.040411 -0.039225 0.998413
0.330669 0.096740 0.053645 0.381083 0.879099 0.286289
0.333737 0.139471 0.046603 0.006259 -0.793547 -0.608477
0.199725 0.076604 0.059606 -0.002530 -0.003038 -0.999992
0.862604 0.145595 0.060011 -0.000478 0.001503 -0.999999
0.418819 0.231180 0.052191 0.279452 -0.939804 0.196661
0.598340 0.161157 0.064570 0.000009 0.000010 -1.000000
0.136712 0.202839 0.059598 0.019179 0.115993 0.993065
0.181043 0.163546 0.067314 0.348446 0.026698 0.936949
0.195333 0.160645 0.059605 -0.001503 0.005595 -0.999983
0.643052 0.175944 0.064486 -0.007801 0.072609 0.997330
0.050404 0.053434 0.043206 -0.770158 -0.635505 0.054675
0.028468 0.142538 0.027146 -0.459823 -0.026496 -0.887615
0.932095 0.151525 0.059939 0.108410 -0.427077 0.897693
0.728987 0.157564 0.064571 0.000009 0.000010 -1.000000
0.335413 0.235165 0.025980 0.039961 -0.010927 -0.999141
0.684842 0.159623 0.069772 -0.013146 0.442837 0.896506
0.879149 0.160219 0.051276 -0.004265 0.075883 -0.997108
0.551793 0.151299 0.064507 -0.020182 -0.104704 0.994299
0.052764 0.141261 0.064781 -0.125588 0.904700 0.407119
0.312450 0.166532 0.064568 0.000009 0.000010 -1.000000
0.073091 0.263011 0.059598 -0.082301 0.158915 0.983856
0.889439 0.187876 0.054805 0.171933 0.721493 -0.670736
0.245665 0.205141 0.059605 0.004008 0.010445 -0.999937
0.348865 0.204395 0.059598 0.143808 -0.038236 0.988867
0.324721 0.168730 0.064568 0.000009 0.000010 -1.000000
0.193937 0.170327 0.025980 0.036518 -0.016421 -0.999198
0.294715 0.150678 0.025980 0.052777 -0.021603 -0.998373
0.330572 0.160993 0.025291 0.042777 0.042279 -0.998190
0.268005 0.218680 0.059598 0.086232 0.077973 0.993219
0.475882 0.168071 0.065776 0.058903 0.006319 0.998244
0.178022 0.128571 0.059605 -0.014423 -0.000442 -0.999896
0.376792 0.189900 0.056848 0.021631 0.999757 -0.004300
0.320121 0.145304 0.062948 -0.232915 -0.206319 0.950360
0.395039 0.174487 0.048282 0.091049 0.054393 -0.994360
0.244514 0.193801 0.060491 0.003363 0.008380 0.999959
0.616247 0.145715 0.060670 0.044395 -0.963963 0.262307
0.232204 0.083294 0.059598 0.060498 0.004722 0.998157
0.175311 0.184419 0.060491 -0.004717 0.006973 0.999965
0.075123 0.189336 0.070169 -0.079750 -0.044666 0.995814
0.296387 0.076274 0.059606 0.000352 -0.017694 -0.999843
0.075429 0.032364 0.034868 -0.451439 -0.887906 -0.088467
0.271208 0.255608 0.040244 -0.171778 0.985127 -0.004233
0.051716 0.091369 0.060491 -0.029060 0.081674 0.996235
0.892950 0.144985 0.060011 0.000079 -0.000236 -1.000000
0.203119 0.220824 0.060491 0.002636 0.010635 0.999940
0.377459 0.179585 0.064507 -0.123679 0.043130 0.991385
0.312523 0.090783 0.059598 0.090133 0.029615 0.995489
0.050726 0.210021 0.059598 -0.158734 0.072327 0.984669
0.179342 0.248316 0.029947 0.101884 0.198310 -0.974830
0.229614 0.074824 0.025980 0.026505 -0.074061 -0.996901
0.154108 0.247466 0.025980 0.018930 0.022034 -0.999578
0.275054 0.167938 0.059605 0.009759 0.001660 -0.999951
0.211756 0.165511 0.067314 0.139212 -0.117070 0.983318
0.286804 0.233704 0.059598 0.044603 0.004075 0.998996
0.187160 0.158411 0.059605 -0.003602 0.004933 -0.999981
0.233271 0.158049 0.059605 0.002849 0.004712 -0.999985
0.416640 0.246032 0.025980 0.087667 -0.095514 -0.991560
0.428491 0.171863 0.069752 -0.033664 0.773333 0.633105
0.265949 0.169113 0.060491 0.007300 0.003455 0.999967
0.104704 0.050405 0.071623 0.008740 -0.993059 0.117292
0.233907 0.238314 0.059598 0.015150 0.183172 0.982964
0.299330 0.212492 0.059598 0.007943 -0.058497 0.998256
0.555773 0.150650 0.062950 -0.112293 -0.120655 0.986323
0.294220 0.193727 0.059598 0.217541 -0.237475 0.946721
0.045232 0.163951 0.059598 -0.201547 0.008318 0.979443
0.812370 0.167639 0.051483 0.020626 0.008078 -0.999755
0.196526 0.136584 0.059598 0.074333 -0.009579 0.997187
0.165118 0.180339 0.025980 0.026702 -0.016993 -0.999499
0.236261 0.241043 0.059598 0.012776 0.179475 0.983680
0.342632 0.190732 0.048766 0.023329 0.998533 -0.048853
0.157718 0.048260 0.059606 0.007069 -0.020342 -0.999768
0.087027 0.053170 0.060491 -0.006107 -0.011301 0.999918
0.037404 0.133632 0.025980 -0.148244 -0.012841 -0.988867
0.194896 0.149469 0.025980 0.042347 -0.045561 -0.998064
0.407097 0.184191 0.064569 0.000009 0.000010 -1.000000
0.248843 0.086001 0.059606 0.002754 -0.013402 -0.999906
0.335877 0.177814 0.025980 0.081977 -0.043813 -0.995671
0.764232 0.165696 0.064572 0.000009 0.000010 -1.000000
0.354763 0.058165 0.048436 0.504475 -0.853544 0.130264
0.252420 0.159606 0.025980 0.017109 -0.007334 -0.999827
0.382577 0.267902 0.059598 0.028029 0.193332 0.980733
0.318261 0.250292 0.025980 -0.007055 0.039502 -0.999195
0.183345 0.048439 0.025980 0.042029 -0.090778 -0.994984
0.084315 0.084666 0.025980 -0.087152 -0.023400 -0.995920
0.350316 0.140069 0.061387 0.022340 -0.997549 -0.066308
0.603768 0.178679 0.062951 0.024640 0.225451 0.973943
0.053559 0.157681 0.065117 -0.141287 0.845766 0.514507
0.496626 0.159122 0.064508 -0.047443 -0.079177 0.995731
0.111017 0.220419 0.025980 -0.023149 0.099107 -0.994807
0.807718 0.180718 0.058794 -0.033975 0.937055 0.347524
0.150908 0.285637 0.049338 0.268835 0.955432 0.121976
0.333473 0.142184 0.043254 -0.009218 -0.316919 -0.948408
0.415548 0.185713 0.062949 0.011447 0.199066 0.979919
0.229549 0.241880 0.059598 0.022733 0.189902 0.981540
0.070861 0.035235 0.034141 -0.514190 -0.845625 -0.143274
0.228489 0.185457 0.025980 0.003779 0.026911 -0.999631
0.704144 0.162901 0.064571 0.000009 0.000010 -1.000000
0.068710 0.036473 0.044312 -0.563294 -0.824411 0.055196
0.274221 0.236129 0.059598 0.039453 0.065463 0.997075
0.601295 0.152063 0.062951 -0.078447 -0.111394 0.990675
0.313656 0.200788 0.060491 0.012239 0.004389 0.999915
0.099948 0.077435 0.025980 -0.062693 -0.021416 -0.997803
0.081683 0.080876 0.059606 0.001712 0.010718 -0.999941
0.229545 0.219633 0.025980 -0.001656 0.058150 -0.998307
0.168545 0.140551 0.059598 0.045824 -0.045694 0.997904
0.098887 0.287341 0.056850 -0.052735 0.644869 0.762471
0.343419 0.216409 0.025980 0.090219 -0.028944 -0.995501
0.093179 0.155441 0.025980 -0.070773 0.028156 -0.997095
0.232880 0.157898 0.025980 0.005464 -0.003635 -0.999978
0.536457 0.176644 0.052174 0.014618 0.222045 -0.974927
0.946283 0.175673 0.051310 -0.113452 0.081790 0.990171
0.208359 0.166285 0.060491 0.001877 0.005778 0.999982
0.230169 0.190106 0.059598 0.023512 0.135908 0.990442
0.342321 0.191275 0.044032 0.214106 -0.738728 0.639093
0.342038 0.147448 0.062948 -0.261080 -0.147605 0.953965
0.222603 0.207993 0.059605 0.002583 0.006391 -0.999976
0.161381 0.049722 0.059606 0.006176 -0.018922 -0.999802
0.311515 0.073507 0.059606 0.003104 -0.016848 -0.999853
0.477609 0.173487 0.062950 -0.046259 -0.006712 0.998907
0.242639 0.084658 0.059606 0.003101 -0.011792 -0.999926
0.169790 0.072716 0.059598 0.054813 -0.120540 0.991194
0.768250 0.176989 0.062952 0.031629 0.321329 0.946439
0.865369 0.133611 0.051276 -0.020941 -0.301922 -0.953103
