0.132489 0.458478 0.032451 0.778049 0.522420 -0.348878
0.181695 0.843429 0.068271 0.010211 -0.223817 -0.974578
0.201984 0.434898 0.052454 0.737585 -0.008801 -0.675197
0.280573 0.259450 0.025044 0.107800 0.092608 -0.989850
0.197731 0.235389 0.076348 -0.176017 -0.059909 0.982562
0.204367 0.156386 0.025023 -0.044895 -0.005201 -0.998978
0.177434 0.355248 0.060957 0.477720 0.392546 -0.785933
0.305751 0.062319 0.070576 0.126661 -0.296314 0.946655
0.132603 0.379422 0.060962 -0.237533 -0.034069 -0.970782
0.128763 0.460663 0.071643 0.374993 0.061990 -0.924953
0.200893 0.792127 0.075414 0.728784 0.072911 -0.680851
0.191667 0.875297 0.068278 0.072738 -0.135495 -0.988104
0.254971 0.195308 0.076340 0.048272 0.009661 0.998788
0.274944 0.174033 0.076336 -0.008625 -0.029219 0.999536
0.283264 0.366710 0.076375 0.139936 0.068587 0.987782
0.265937 0.109068 0.073338 0.068143 0.786793 0.613444
0.248291 0.167988 0.060919 -0.038075 -0.041599 -0.998409
0.321546 0.197093 0.071589 0.162934 0.044157 0.985648
0.139821 0.207813 0.076343 -0.225323 0.014860 0.974171
0.113343 0.303795 0.071611 -0.180283 -0.058470 0.981875
0.278282 0.219123 0.060930 0.001716 -0.005604 -0.999983
0.162603 0.425309 0.039410 0.748955 0.634451 -0.191149
0.108656 0.527284 0.071656 0.017353 0.108074 0.993991
0.265572 0.342972 0.025061 -0.044059 0.130581 -0.990458
0.189116 0.345194 0.025062 -0.070544 0.026193 -0.997165
0.036215 0.164242 0.067589 -0.702538 0.257758 0.663326
0.174604 0.368470 0.076375 0.897216 0.274724 0.345732
0.089373 0.151402 0.025022 -0.135566 -0.014303 -0.990665
0.054453 0.447233 0.040346 -0.968360 0.028692 -0.247903
0.192805 0.166243 0.063857 -0.051319 -0.937707 0.343615
0.182267 0.027838 0.033175 -0.011470 -0.855490 -0.517692
0.317266 0.126639 0.071575 0.125558 -0.069714 0.989634
0.191725 0.718979 0.077259 0.198849 -0.019250 0.979841
0.155855 0.244713 0.071599 -0.126883 -0.060740 0.990056
0.056729 0.403866 0.052382 -0.985591 -0.163122 0.044750
0.186080 0.617004 0.077238 0.088376 -0.022716 0.995828
0.207481 0.287713 0.076359 0.378808 0.169967 0.909734
0.260901 0.106890 0.071571 0.029329 -0.092195 0.995309
0.195904 0.459309 0.077206 0.177210 -0.058994 0.982403
0.190792 0.109889 0.071571 -0.026769 -0.072607 0.997001
0.227717 0.115444 0.025015 0.009141 -0.082450 -0.996553
0.252903 0.335168 0.025060 0.023610 0.148010 -0.988704
0.190629 0.266480 0.084135 -0.974641 -0.053008 0.217407
0.230243 0.219679 0.078563 -0.684724 0.464804 0.561347
0.197261 0.859286 0.068275 0.108272 -0.155942 -0.981814
0.265652 0.430960 0.038557 -0.870874 0.482835 -0.091914
0.188206 0.935150 0.082752 -0.186735 0.089621 0.978314
0.290526 0.349713 0.066595 0.946757 -0.027891 0.320739
0.271435 0.236699 0.025040 -0.003705 0.009331 -0.999950
0.357117 0.193299 0.034457 0.876560 0.314059 -0.364704
0.098777 0.329626 0.025058 -0.190002 -0.076442 -0.978803
0.093445 0.280339 0.047754 -0.997621 0.068047 -0.011021
0.202939 0.540770 0.083162 -0.982493 0.014651 -0.185724
0.166693 0.936206 0.076387 0.419832 -0.897183 0.137129
0.111923 0.235050 0.025039 -0.150749 0.098765 -0.983626
0.202633 0.083424 0.025008 0.005674 -0.136204 -0.990665
0.196407 0.368986 0.060960 0.101984 0.155799 -0.982510
0.284584 0.152208 0.079579 -0.838883 -0.347230 -0.419174
0.285030 0.187392 0.060923 0.184430 0.063675 -0.980781
0.271674 0.290759 0.076359 0.985192 0.059211 0.160907
0.186964 0.151947 0.083307 0.919175 -0.084929 0.384584
0.228812 0.241977 0.025041 -0.060774 -0.028071 -0.997757
0.275804 0.355014 0.069149 0.957141 -0.247545 -0.150342
0.186842 0.680721 0.081951 0.822789 0.050645 -0.566086
0.190146 0.425991 0.040242 0.299110 0.039911 -0.953384
0.130700 0.030512 0.033868 -0.154473 -0.873020 -0.462573
0.277462 0.182861 0.025029 0.003252 0.039737 -0.999205
0.217468 0.335549 0.076369 0.027336 0.114003 0.993104
0.275254 0.108692 0.076614 0.217155 -0.084718 0.972454
0.313543 0.234321 0.025039 0.034717 0.063917 -0.997351
0.165308 0.197990 0.060925 -0.167228 -0.007121 -0.985892
0.084268 0.376642 0.025068 -0.185373 -0.040997 -0.981813
0.223758 0.233617 0.060933 -0.015912 -0.009623 -0.999827
0.328196 0.244086 0.064378 0.809441 0.480436 0.337620
0.107228 0.543148 0.069091 0.155874 0.388316 0.908248
0.056473 0.060890 0.061587 -0.637271 -0.667953 0.384350
0.078205 0.519711 0.067992 -0.489894 0.356096 0.795738
0.257285 0.162581 0.060918 -0.025435 -0.055369 -0.998142
0.285006 0.151552 0.076331 0.089099 -0.008778 0.995984
0.157160 0.391245 0.071629 0.546582 -0.027106 -0.836967
0.283829 0.478123 0.048500 -0.447727 0.874094 -0.188416
0.155568 0.361407 0.071622 -0.032664 0.043348 0.998526
0.098618 0.544569 0.068038 -0.239169 0.439120 0.866009
0.151378 0.115786 0.071572 -0.071550 -0.038807 0.996682
0.305506 0.066862 0.025005 0.191606 -0.182225 -0.964407
0.223136 0.096894 0.071569 -0.000002 -0.103783 0.994600
0.281307 0.250177 0.060936 0.419030 0.138323 -0.897374
0.170488 0.689895 0.079835 -0.989622 0.067377 -0.126920
0.190622 0.292340 0.060945 -0.048418 0.011448 -0.998762
0.276503 0.044648 0.069145 0.095697 -0.516728 0.850785
0.296377 0.240278 0.025040 0.092002 0.075529 -0.992890
0.108809 0.190508 0.071588 -0.115874 0.074177 0.990490
0.201294 0.791792 0.076012 0.738034 0.071206 -0.670995
0.135719 0.092624 0.071568 -0.073203 -0.090040 0.993244
0.265246 0.424546 0.025078 -0.190335 0.109324 -0.975613
0.113071 0.541779 0.032768 0.868888 0.142815 0.473960
0.192208 0.416749 0.082244 0.796604 -0.017648 -0.604244
0.206152 0.957317 0.082756 0.155867 0.233681 0.959739
0.217109 0.373228 0.025067 0.747439 0.557344 0.361530
0.248228 0.135000 0.070976 -0.370215 -0.680286 0.632575
0.313453 0.418722 0.058978 0.950586 -0.190658 0.245021
0.149035 0.441700 0.032804 0.748957 0.662365 0.018333
0.284706 0.078820 0.071565 0.056173 -0.147225 0.987507
0.061165 0.497419 0.048552 -0.960594 0.268673 -0.071229
0.221516 0.254226 0.060937 0.117501 0.091963 -0.988805
0.060369 0.491511 0.065719 -0.860611 0.242141 0.448014
0.079380 0.372339 0.025067 -0.192230 -0.051185 -0.980014
0.208317 0.025691 0.041060 0.034849 -0.967355 -0.251019
0.197974 0.814286 0.086011 0.145023 0.836175 0.528942
0.088385 0.446317 0.071640 -0.128615 0.055984 0.990113
0.216442 0.172792 0.079765 0.097757 0.759955 0.642582
0.115852 0.207449 0.071591 -0.129735 0.063922 0.989486
0.176132 0.771767 0.072076 -0.816880 0.064504 -0.573190
0.204046 0.408531 0.056746 0.228046 0.943310 0.241165
0.164656 0.402729 0.058942 -0.924102 -0.045388 -0.379441
0.136800 0.448915 0.068333 0.522127 0.493317 0.695717
0.045398 0.068838 0.044007 -0.733669 -0.658235 -0.168693
0.177943 0.158850 0.084467 -0.811141 -0.083776 0.578819
0.180785 0.177582 0.025027 -0.075416 0.031549 -0.996653
0.311096 0.227997 0.071595 0.161939 0.084052 0.983215
0.159991 0.232609 0.060932 -0.191485 0.014309 -0.981391
0.207225 0.185971 0.071587 -0.032557 -0.030004 0.999019
0.236719 0.199252 0.077889 -0.163427 -0.976743 0.138796
0.178516 0.217865 0.081768 -0.309874 -0.067798 -0.948357
0.306361 0.263887 0.025045 0.981218 0.102105 0.163662
0.303364 0.270968 0.029117 0.722959 0.293791 -0.625313
0.257776 0.290964 0.071608 0.000330 0.052048 0.998645
0.206801 0.028444 0.066395 -0.010446 -0.832839 0.553417
0.300944 0.286057 0.033257 0.886201 0.305349 -0.348439
0.173106 0.264653 0.071950 -0.120966 0.122742 -0.985039
0.287183 0.230772 0.076347 0.294278 0.156871 0.942758
0.198895 0.025764 0.034271 0.019159 -0.901539 -0.432273
0.197667 0.760792 0.068488 0.649068 0.081134 -0.756391
0.169975 0.678530 0.079352 -0.602102 0.035428 0.797633
0.169209 0.627933 0.077240 -0.028663 -0.015315 0.999472
0.180508 0.482533 0.084571 0.755184 -0.000064 0.655513
0.142474 0.043172 0.070524 -0.085306 -0.315275 0.945158
0.277339 0.188642 0.076339 0.229982 0.045092 0.972149
0.150321 0.346089 0.076371 -0.196949 -0.037617 0.979692
0.288426 0.466672 0.029461 -0.124442 0.514680 -0.848303
0.257622 0.332298 0.071617 -0.061785 0.074596 0.995298
0.182448 0.935196 0.082752 -0.272993 0.060598 0.960106
0.195056 0.664869 0.058482 0.578975 0.076651 -0.811734
0.198848 0.663151 0.064219 0.678893 0.062066 -0.731609
0.120626 0.474379 0.069140 0.823737 0.380775 -0.420081
0.230125 0.279384 0.076357 0.047404 0.078648 0.995775
0.251833 0.366551 0.060960 -0.073896 0.116357 -0.990455
0.242394 0.186443 0.025029 -0.026883 0.046981 -0.998534
0.132765 0.352053 0.025063 -0.130759 -0.012071 -0.991341
0.267158 0.346552 0.076371 -0.209729 0.060784 0.975869
0.063813 0.167884 0.025026 -0.166294 0.013084 -0.985989
0.030586 0.156888 0.034463 -0.930633 0.156522 -0.330791
0.272839 0.288766 0.076359 0.908940 -0.089626 -0.407180
0.307173 0.160324 0.078096 0.315354 0.186086 -0.930550
0.156397 0.373256 0.071625 0.365529 0.200533 0.908942
0.334653 0.207301 0.025034 0.025958 0.031322 -0.999172
0.216084 0.236404 0.060933 -0.105214 -0.055230 -0.992915
0.291644 0.317617 0.067577 0.780295 0.146995 0.607891
0.193313 0.470176 0.043653 0.530176 0.054361 -0.846143
0.286899 0.215452 0.071593 0.123414 0.061879 0.990424
0.271124 0.458304 0.046339 -0.906633 0.415909 -0.070969
0.231446 0.204677 0.071591 0.013051 0.018819 0.999738
0.243916 0.357151 0.076373 -0.064979 0.104196 0.992432
0.206611 0.369265 0.025066 0.133945 0.180622 -0.974389
0.221968 0.225594 0.060931 -0.094816 -0.056677 -0.993880
0.315034 0.245646 0.025041 0.954209 0.074721 -0.289657
0.163665 0.415942 0.029585 0.686231 0.515136 -0.513539
0.101378 0.265057 0.071603 -0.197838 -0.001830 0.980233
0.308481 0.136696 0.060913 0.489433 -0.310444 -0.814911
0.205778 0.417496 0.055733 0.809629 -0.041883 -0.585446
0.182862 0.349948 0.025063 -0.076629 0.024820 -0.996751
0.261054 0.111032 0.076463 -0.200332 -0.330790 0.922196
0.233464 0.362292 0.025065 0.032852 0.174375 -0.984131
0.081776 0.385760 0.025070 -0.182982 -0.032006 -0.982595
0.174017 0.276113 0.084282 0.519747 -0.054215 0.852599
0.206571 0.357331 0.060958 0.066135 0.141100 -0.987784
0.307212 0.336492 0.025060 -0.029064 0.084843 -0.995970
0.235984 0.377388 0.063626 -0.048784 0.196497 -0.979290
0.223042 0.152026 0.076331 -0.110851 -0.113442 0.987341
0.173428 0.026069 0.061897 -0.083048 -0.931999 0.352819
0.203550 0.683196 0.084046 0.997394 0.046863 -0.054863
0.254800 0.155013 0.076332 -0.020703 -0.042640 0.998876
0.170178 0.250249 0.076351 -0.194516 -0.019342 0.980709
0.178524 0.588344 0.085065 -0.361376 0.027147 0.932025
0.184628 0.363449 0.077186 0.013407 -0.057420 0.998260
0.204582 0.291667 0.060944 0.156355 0.148244 -0.976513
0.338984 0.090987 0.029914 0.616291 -0.300114 -0.728092
0.123055 0.031258 0.046693 -0.229068 -0.969950 -0.082004
0.068692 0.380555 0.026420 -0.326717 -0.090076 -0.940820
0.199856 0.127744 0.071575 -0.027065 -0.034598 0.999035
0.186295 0.234589 0.060933 -0.167053 -0.014297 -0.985844
0.204818 0.367655 0.071624 0.023037 0.142016 0.989596
0.265432 0.125350 0.025017 0.029393 -0.061724 -0.997660
0.277670 0.033620 0.038112 0.276794 -0.893016 -0.354834
0.180876 0.459528 0.083718 0.984123 -0.005806 0.177394
0.098609 0.098177 0.071569 -0.118969 -0.052704 0.991498
0.086362 0.528303 0.029453 -0.462819 0.279133 -0.841358
0.285943 0.306990 0.076363 0.805738 -0.099484 0.583857
0.207352 0.329392 0.076367 0.086246 0.140653 0.986295
0.186070 0.810944 0.063883 -0.124244 0.100871 -0.987111
0.195564 0.710259 0.062096 0.592949 0.081509 -0.801104
0.200937 0.927637 0.082750 0.030236 0.162237 0.986289
0.183722 0.707584 0.056550 -0.424776 0.052002 -0.903804
0.144291 0.258046 0.072237 -0.441026 0.031259 0.896950
0.208035 0.326276 0.071615 0.024264 0.112374 0.993370
0.215774 0.293789 0.025051 -0.053049 0.008700 -0.998554
0.295381 0.318730 0.044802 0.988036 0.153561 -0.014285
0.207884 0.263044 0.025045 -0.075385 -0.031719 -0.996650
0.166785 0.026627 0.039431 -0.073522 -0.952651 -0.295045
0.264879 0.097532 0.070485 -0.476846 -0.865263 0.154718
0.184990 0.676850 0.081541 -0.650743 0.051914 -0.757521
0.228856 0.400380 0.042260 -0.096561 0.976267 -0.193854
0.111881 0.509831 0.071653 -0.020362 0.100665 0.994712
0.186104 0.932905 0.068290 -0.325759 0.056285 -0.943776
0.188658 0.153597 0.074040 0.055789 -0.372945 -0.926175
0.153555 0.881995 0.078235 -0.847481 -0.073025 0.525779
0.111634 0.328940 0.071616 -0.148081 -0.017126 0.988827
0.224547 0.249142 0.060936 0.137316 0.060042 -0.988706
0.288901 0.185352 0.025029 0.010742 0.037028 -0.999256
0.204992 0.378654 0.025068 0.660946 0.052921 0.748565
0.225348 0.839801 0.082732 0.156370 -0.056251 0.986096
0.143403 0.075410 0.025007 -0.028727 -0.155502 -0.987418
0.167583 0.557708 0.078415 -0.896338 0.033088 0.442134
0.104097 0.339645 0.071618 -0.157642 -0.016935 0.987351
0.154213 0.326160 0.071615 -0.061518 0.025395 0.997783
0.183222 0.460645 0.042250 -0.260553 0.010831 -0.965399
0.176088 0.810523 0.083236 -0.122058 -0.929238 0.348740
0.321498 0.148017 0.071532 0.846906 -0.295216 0.442265
0.284222 0.129148 0.071575 0.071184 -0.059708 0.995675
0.057883 0.140976 0.071578 -0.157011 0.035786 0.986948
0.220501 0.223482 0.071594 0.022511 0.036257 0.999089
0.053695 0.206811 0.034928 -0.824896 0.500427 -0.262908
0.221639 0.206406 0.071591 0.058076 0.008656 0.998275
0.201778 0.472580 0.077209 0.251618 -0.064556 0.965671
0.271209 0.184306 0.078036 0.148080 0.210630 -0.966285
0.208702 0.083227 0.071566 -0.008890 -0.126834 0.991884
0.109629 0.528943 0.040373 0.992214 0.003695 0.124490
0.185753 0.025140 0.052807 -0.038343 -0.994579 0.096658
0.194940 0.412795 0.042475 0.574051 0.039020 -0.817889
0.213193 0.936469 0.082752 0.220170 0.175120 0.959613
0.172548 0.803159 0.079604 -0.570856 0.056418 0.819110
0.165031 0.294989 0.076360 -0.259295 -0.079846 0.962492
0.089030 0.491405 0.025091 -0.147121 0.055715 -0.987548
0.244642 0.166310 0.076334 -0.039464 -0.038220 0.998490
0.166922 0.407478 0.065854 0.360937 0.858401 0.364517
0.178540 0.521728 0.085049 -0.374738 0.009920 0.927078
0.172795 0.268041 0.025046 -0.128038 -0.034198 -0.991179
0.218146 0.838793 0.068270 0.269357 -0.214684 -0.938806
0.059415 0.490104 0.062749 -0.908096 0.232370 0.348377
0.194705 0.561695 0.051506 0.569081 0.062755 -0.819884
0.263848 0.108314 0.062036 -0.118266 -0.361312 -0.924914
0.248286 0.146933 0.060915 -0.023866 -0.046065 -0.998653
0.291860 0.328546 0.025058 -0.093576 0.085658 -0.991921
0.139100 0.136004 0.025019 -0.084341 -0.040672 -0.995607
0.297020 0.188993 0.076339 0.217760 0.087580 0.972065
0.168247 0.600436 0.078226 -0.299554 0.000489 0.954079
0.179587 0.244327 0.071599 -0.054534 -0.009498 0.998467
0.280809 0.105940 0.071570 -0.367650 0.002324 -0.929961
0.227179 0.309083 0.076363 0.018383 0.087472 0.995997
0.288573 0.370236 0.060960 0.913885 0.007466 -0.405906
0.208459 0.348187 0.025062 -0.048577 0.041760 -0.997946
0.212327 0.154508 0.025023 -0.037195 -0.008300 -0.999274
0.265865 0.171190 0.084514 -0.113975 -0.698829 0.706150
0.313148 0.367800 0.025066 0.153258 0.131562 -0.979389
0.156603 0.292943 0.060945 -0.269791 -0.065487 -0.960690
0.088875 0.402950 0.025073 -0.166517 -0.006426 -0.986018
0.144249 0.233644 0.076348 -0.216787 0.021212 0.975989
0.326735 0.060734 0.066304 0.533107 -0.623654 0.571711
0.296218 0.172379 0.025026 0.021201 0.022783 -0.999516
0.195373 0.496958 0.077214 0.178203 -0.052726 0.982580
0.197670 0.617385 0.059550 0.648715 0.059887 -0.758671
0.236323 0.257782 0.104652 -0.042763 0.132187 -0.990302
0.181711 0.117209 0.025015 -0.029186 -0.078885 -0.996456
0.062598 0.377218 0.037285 -0.938125 -0.266549 -0.221074
0.152231 0.388264 0.025070 -0.101229 0.029907 -0.994414
0.244429 0.305617 0.076362 -0.014122 0.073136 0.997222
0.213169 0.256349 0.025043 -0.072948 -0.033111 -0.996786
0.290811 0.243424 0.025041 0.201154 0.130666 -0.970805
0.277073 0.094363 0.071568 0.050993 -0.116559 0.991874
0.130398 0.199230 0.025032 -0.123125 0.071524 -0.989810
0.085037 0.380818 0.071626 -0.169064 0.004039 0.985597
0.199541 0.262565 0.076354 -0.122894 -0.048904 0.991214
0.274925 0.415314 0.071633 0.025987 0.114371 0.993098
0.189522 0.484829 0.043649 0.207227 0.047873 -0.977121
0.298197 0.127057 0.070330 0.044671 -0.981826 0.184451
0.317525 0.161151 0.025024 0.045775 0.002696 -0.998948
0.145005 0.028262 0.058756 -0.170273 -0.945948 0.276026
0.185168 0.301470 0.084407 -0.515507 -0.047233 0.855583
0.281011 0.212261 0.060928 0.100016 -0.010929 -0.994926
0.263166 0.382483 0.025069 -0.126494 0.129479 -0.983481
0.062631 0.459724 0.029103 -0.565495 0.048984 -0.823296
0.281700 0.389138 0.071628 0.089054 0.065645 0.993861
0.197540 0.276661 0.081686 0.527863 -0.060587 -0.847166
0.219909 0.367390 0.025066 0.087355 0.172327 -0.981159
0.125235 0.466028 0.025086 -0.113409 0.064306 -0.991465
0.198127 0.036487 0.028520 0.031701 -0.521022 -0.852955
0.193737 0.064855 0.071562 -0.018391 -0.157962 0.987274
0.202000 0.582818 0.077231 0.275578 -0.048697 0.960044
0.296554 0.232438 0.071596 0.147341 0.081935 0.985686
0.302837 0.292677 0.025051 -0.057415 0.073916 -0.995610
0.280913 0.261343 0.076354 0.446153 0.192424 0.874025
0.161692 0.311059 0.060948 -0.251101 -0.078658 -0.964760
0.254979 0.074596 0.071564 0.022170 -0.150707 0.988330
0.181350 0.166241 0.073983 -0.098813 -0.895190 -0.434592
0.268502 0.422314 0.068167 -0.937500 0.275622 -0.212430
0.182664 0.143559 0.025021 -0.053932 -0.027385 -0.998169
0.349226 0.142099 0.070292 0.354848 -0.081005 0.931408
0.227233 0.175601 0.071585 0.104649 0.001530 0.994508
0.127661 0.310958 0.071612 -0.123354 -0.010556 0.992307
0.198257 0.177553 0.060921 -0.110575 -0.022921 -0.993603
0.098709 0.161238 0.025024 -0.134124 0.002225 -0.990962
0.067959 0.162485 0.025024 -0.159667 0.004097 -0.987162
0.197854 0.518666 0.084691 0.891440 0.011556 0.452991
0.324420 0.116245 0.071573 0.117564 -0.099985 0.988019
0.212870 0.137910 0.071577 -0.015192 -0.021419 0.999655
0.292083 0.429921 0.071636 0.125691 0.062756 0.990083
0.260659 0.172632 0.080638 -0.601066 -0.556334 0.573769
0.312226 0.225184 0.071595 0.161335 0.081923 0.983494
0.081287 0.421597 0.025077 -0.172094 0.000531 -0.985080
0.322804 0.122790 0.025016 0.085767 -0.069723 -0.993873
0.233764 0.226283 0.060931 0.082501 0.044009 -0.995619
0.279271 0.147215 0.060915 0.071964 -0.027890 -0.997017
0.246050 0.075442 0.071564 0.015353 -0.146799 0.989047
0.132511 0.084197 0.025008 -0.039348 -0.143802 -0.988824
0.103600 0.167046 0.025025 -0.133759 0.011987 -0.990941
0.205811 0.697907 0.074935 0.457879 -0.041586 0.888041
0.182020 0.073235 0.071564 -0.027457 -0.139704 0.989813
0.071348 0.121815 0.025016 -0.128921 -0.065832 -0.989467
0.285817 0.207421 0.076343 0.228209 0.108432 0.967555
0.257107 0.242715 0.025041 -0.019839 0.000373 -0.999803
0.210381 0.350150 0.025063 -0.046119 0.044351 -0.997951
0.109446 0.524812 0.065241 0.964801 0.078810 -0.250895
0.248183 0.198955 0.076341 0.076564 0.027554 0.996684
0.289613 0.421493 0.073116 0.696778 0.040753 0.716128
0.180915 0.199871 0.025032 -0.080901 0.068727 -0.994350
0.282408 0.373941 0.064935 0.815459 -0.209134 0.539713
0.209999 0.359753 0.069773 0.763564 -0.131098 0.632284
0.186826 0.679168 0.081924 0.812571 0.050222 -0.580694
0.261108 0.342170 0.025061 -0.025897 0.137700 -0.990135
0.147871 0.445692 0.062202 0.709836 0.631204 0.312592
0.211355 0.348843 0.071620 0.018262 0.126517 0.991796
0.208724 0.025678 0.052608 0.020958 -0.995444 0.093012
0.198389 0.715291 0.077258 0.258363 -0.024648 0.965733
0.197627 0.586130 0.081846 0.547903 0.034116 -0.835846
0.130580 0.397503 0.060966 -0.118089 0.041588 -0.992132
0.232884 0.383338 0.071627 -0.120205 0.130275 0.984164
0.311334 0.183290 0.071586 0.142507 0.023788 0.989508
0.209517 0.301624 0.076362 0.116629 0.133957 0.984100
0.101876 0.275712 0.071605 -0.203562 -0.025853 0.978721
0.303030 0.130170 0.025018 0.050852 -0.054603 -0.997212
0.108773 0.511045 0.025095 -0.117418 0.092040 -0.988808
0.029014 0.125667 0.066680 -0.820941 0.044332 0.569290
0.197299 0.304908 0.081698 -0.162653 -0.056033 -0.985091
0.099554 0.355766 0.025064 -0.173704 -0.047591 -0.983647
0.185915 0.094876 0.071568 -0.026894 -0.099875 0.994636
0.273905 0.403709 0.060967 -0.145529 0.086259 -0.985586
0.210258 0.354147 0.025063 0.155453 0.172173 -0.972723
0.183361 0.220065 0.075193 0.110727 0.993486 0.026933
0.147538 0.373459 0.071625 -0.045840 0.045226 0.997925
0.154349 0.365176 0.071623 -0.032697 0.044741 0.998463
0.245992 0.127357 0.076089 0.706192 0.636342 0.310423
0.228234 0.290563 0.025050 -0.040938 0.015171 -0.999047
0.343960 0.088223 0.032748 0.748833 -0.371308 -0.548980
0.112289 0.505286 0.064106 0.956829 0.240013 -0.163925
0.242828 0.348337 0.060956 -0.028667 0.109022 -0.993626
0.197339 0.375557 0.071625 0.030006 0.150409 0.988168
0.249858 0.296318 0.025052 0.749399 0.298609 -0.590960
0.193898 0.025226 0.054087 -0.018608 -0.990593 0.135569
0.196859 0.171378 0.060920 -0.112019 -0.034136 -0.993120
0.171717 0.356182 0.071621 0.459004 0.025481 0.888068
0.109743 0.036013 0.058944 -0.303805 -0.906956 0.291777
0.258255 0.223578 0.071594 0.196411 -0.022224 0.980270
0.281366 0.437392 0.071638 0.051343 0.113409 0.992221
0.152050 0.118951 0.025016 -0.056720 -0.073765 -0.995661
0.277249 0.409944 0.060968 -0.059606 0.096717 -0.993526
0.173013 0.939627 0.078997 -0.665842 0.116803 0.736893
0.323006 0.189275 0.025030 0.041891 0.012984 -0.999038
0.187306 0.814209 0.084465 0.037084 0.967754 0.249151
0.090443 0.328872 0.071616 -0.226141 -0.077138 0.971035
0.185632 0.552422 0.047564 -0.162669 0.039330 -0.985897
0.169147 0.150925 0.025022 -0.070322 -0.014606 -0.997417
0.132426 0.264237 0.071603 -0.176432 -0.077888 0.981226
0.168784 0.288402 0.071608 -0.052840 0.013130 0.998517
0.317778 0.337124 0.025060 0.925189 0.075739 0.371873
0.243073 0.163836 0.025025 -0.017830 0.007562 -0.999812
0.168486 0.259158 0.071602 -0.068526 -0.008467 0.997613
0.310534 0.248745 0.025042 0.011801 0.067722 -0.997634
0.295522 0.283269 0.028577 0.889135 0.279367 -0.362481
0.162239 0.209419 0.076343 -0.184556 0.012272 0.982745
0.175988 0.214375 0.076344 -0.161850 0.001806 0.986814
0.300302 0.127203 0.066071 0.158396 -0.984875 -0.070234
0.178956 0.756093 0.064035 -0.675844 0.046769 -0.735559
0.160174 0.174905 0.076336 -0.250963 -0.153263 0.955786
0.117648 0.511268 0.071653 0.309241 -0.000629 -0.950983
0.314811 0.247390 0.070195 0.347871 0.203809 0.915122
0.076585 0.233214 0.066196 -0.773217 0.485603 0.407831
0.095532 0.096462 0.071569 -0.121108 -0.055481 0.991088
0.186335 0.526138 0.081416 0.521995 0.011950 -0.852865
0.179829 0.780146 0.085185 0.460485 0.075431 0.884457
0.048114 0.087063 0.027279 -0.278850 -0.251947 -0.926696
0.223446 0.275317 0.071605 0.013686 0.070972 0.997384
0.207308 0.499047 0.063390 0.839983 -0.033221 -0.541595
0.112556 0.304842 0.071611 -0.181383 -0.058563 0.981667
0.214266 0.930299 0.082751 0.459338 -0.258728 -0.849746
0.097524 0.328621 0.071616 -0.192484 -0.049158 0.980068
0.166855 0.217612 0.080055 -0.337077 0.257804 0.905492
0.256214 0.277807 0.060942 -0.015660 0.055629 -0.998329
0.250972 0.133929 0.068854 -0.272302 -0.494137 0.825639
0.232415 0.326183 0.071615 -0.077829 0.099394 0.992000
0.293434 0.167063 0.071583 0.107716 0.001843 0.994180
0.095012 0.482759 0.025090 -0.142542 0.054064 -0.988311
0.172485 0.266373 0.078586 -0.085248 0.966513 0.242046
0.267205 0.382931 0.076378 -0.270655 0.074464 0.959792
0.171345 0.505962 0.082804 -0.993082 0.006308 -0.117256
0.126331 0.470117 0.049363 0.834138 0.549874 -0.043030
0.230757 0.240728 0.025040 -0.058760 -0.027250 -0.997900
0.237042 0.145867 0.025021 -0.009030 -0.024430 -0.999661
0.270391 0.350851 0.071620 0.044280 0.069350 0.996609
0.189816 0.556878 0.077226 0.120238 -0.036236 0.992084
0.224723 0.260404 0.071602 0.013988 0.060135 0.998092
0.299393 0.383676 0.025069 0.430654 -0.067086 0.900020
0.314628 0.206129 0.025033 0.036651 0.019267 -0.999142
0.209764 0.897231 0.068282 0.196641 -0.075332 -0.977577
0.122459 0.474914 0.033620 0.886317 0.460873 -0.045151
0.196696 0.428280 0.083503 -0.999828 -0.012563 0.013620
0.287429 0.264549 0.071603 0.174651 0.084256 0.981019
0.060210 0.076744 0.026786 -0.168993 -0.289638 -0.942099
0.123647 0.500879 0.025093 0.275385 0.026533 0.960968
0.055517 0.412909 0.046756 -0.989041 -0.124948 -0.078655
0.119540 0.262228 0.025045 -0.170050 0.056124 -0.983836
0.165388 0.175218 0.025027 -0.087365 0.026931 -0.995812
0.334041 0.220698 0.069456 0.454227 0.223346 0.862435
0.160824 0.185606 0.025029 -0.094239 0.046474 -0.994464
0.164077 0.397285 0.060966 0.798976 0.538704 0.267274
0.142580 0.382144 0.076378 -0.062300 0.060644 0.996213
0.281561 0.279540 0.076357 0.944338 -0.293513 -0.148580
0.181817 0.166147 0.076334 -0.208364 -0.152808 0.966040
0.269500 0.184675 0.025029 -0.003748 0.042663 -0.999083
0.119156 0.483647 0.071647 0.388296 0.092224 -0.916908
0.087274 0.050505 0.067475 -0.352872 -0.610790 0.708814
0.225650 0.035969 0.029243 0.081150 -0.580048 -0.810530
0.110551 0.541344 0.058209 0.992782 -0.046218 -0.110675
0.191244 0.562375 0.077227 0.139552 -0.037417 0.989508
0.118286 0.463645 0.025086 -0.121704 0.057182 -0.990918
0.282579 0.159239 0.076333 0.098228 0.003955 0.995156
0.243899 0.122794 0.076142 -0.296184 -0.230001 0.927025
0.270330 0.301720 0.025053 0.037858 0.123681 -0.991600
0.299149 0.273466 0.025047 0.980881 0.189989 -0.042157
0.107447 0.341437 0.025061 -0.168671 -0.054986 -0.984137
0.130302 0.476079 0.025088 -0.102798 0.081052 -0.991395
0.173224 0.201280 0.025032 -0.087594 0.071085 -0.993617
0.144266 0.239112 0.025040 -0.132638 0.078259 -0.988070
0.267890 0.442138 0.043682 -0.891729 0.448124 -0.063274
0.241883 0.128304 0.066828 0.175620 0.126186 0.976337
0.089952 0.186401 0.025029 -0.152288 0.047107 -0.987213
0.126495 0.309225 0.025054 -0.164436 -0.068813 -0.983984
0.111393 0.168267 0.025026 -0.128202 0.014090 -0.991648
0.198840 0.525933 0.055216 0.675071 0.037405 -0.736804
0.174818 0.221575 0.074416 0.068013 0.997678 -0.003695
0.183939 0.189177 0.076339 -0.147061 -0.004062 0.989119
0.115102 0.175470 0.071585 -0.106647 0.056348 0.992699
0.265589 0.031183 0.043511 0.218624 -0.956775 -0.191795
0.214417 0.127343 0.071575 -0.011236 -0.043493 0.998991
0.321318 0.323145 0.025057 0.991570 0.115914 0.057913
0.199284 0.262296 0.060938 -0.144629 -0.058870 -0.987733
0.194193 0.190533 0.071588 -0.067696 -0.046135 0.996639
0.275134 0.418022 0.025076 -0.187965 0.087514 -0.978269
0.063380 0.373608 0.063897 -0.942662 -0.251091 0.219868
0.186077 0.761611 0.081329 0.203567 0.073333 -0.976311
0.277114 0.332875 0.071617 0.100628 0.021504 0.994692
0.199217 0.064294 0.071562 -0.014393 -0.160210 0.986978
0.196972 0.659402 0.061095 0.630616 0.068767 -0.773043
0.300821 0.041265 0.033941 0.396949 -0.773767 -0.493676
0.110655 0.517882 0.032781 0.926233 0.036301 0.375199
0.241854 0.184635 0.060923 -0.065133 -0.058773 -0.996144
0.115577 0.494564 0.026834 0.463554 0.025707 0.885696
0.162603 0.416850 0.047951 0.685538 0.715666 -0.133639
0.199922 0.600124 0.061812 0.704149 0.047155 -0.708485
0.166685 0.473102 0.061806 -0.912768 -0.024600 -0.407737
0.259345 0.052353 0.025002 0.072677 -0.200249 -0.977046
0.218995 0.030260 0.032191 0.079393 -0.796570 -0.599311
0.251377 0.181286 0.076337 -0.002801 -0.036643 0.999325
0.229406 0.326833 0.025058 0.146197 0.149990 -0.977819
0.170870 0.731211 0.077847 -0.063903 -0.000934 0.997956
0.265405 0.191021 0.060924 0.020824 -0.006095 -0.999765
0.249453 0.291749 0.025051 0.151633 0.123798 -0.980654
0.168929 0.376757 0.062539 0.281906 0.228218 -0.931904
0.066108 0.054011 0.060181 -0.533885 -0.770781 0.347656
0.298684 0.389496 0.071628 0.505741 -0.138229 0.851539
0.252868 0.174212 0.076336 -0.030785 -0.055759 0.997970
0.257200 0.288061 0.025050 0.130513 0.117948 -0.984406
0.205320 0.207676 0.071498 -0.032622 -0.674594 -0.737467
0.114123 0.147804 0.071579 -0.105030 0.025168 0.994151
0.187049 0.648239 0.082734 0.985617 0.041278 -0.163876
0.240062 0.253627 0.025043 -0.037866 -0.006835 -0.999259
0.296942 0.117410 0.025015 0.053129 -0.078930 -0.995463
0.155357 0.332278 0.071617 -0.055708 0.028518 0.998040
0.203505 0.258499 0.085055 0.980949 -0.053049 0.186882
0.120770 0.481190 0.025089 0.313092 0.026727 0.949347
0.172157 0.416342 0.081548 -0.506020 -0.016638 -0.862361
0.293859 0.256692 0.071601 0.169745 0.090473 0.981326
0.182612 0.335731 0.081213 -0.134068 -0.674462 0.726035
0.205290 0.741250 0.074658 0.476190 -0.034255 0.878675
0.262520 0.127001 0.068013 -0.553769 -0.824216 0.118355
0.063644 0.081546 0.025008 -0.096454 -0.143729 -0.984905
0.246727 0.117024 0.071699 0.673546 0.661536 0.329706
0.259732 0.315857 0.025056 0.047340 0.135070 -0.989704
0.166758 0.511211 0.065682 -0.932037 -0.009273 -0.362245
0.284038 0.402241 0.071631 0.094462 0.069640 0.993090
0.128066 0.291508 0.071608 -0.144640 -0.039558 0.988693
0.155579 0.195035 0.071589 -0.096480 0.023374 0.995060
0.162083 0.936092 0.073214 -0.294795 -0.876245 -0.381169
0.263364 0.401268 0.025073 -0.162893 0.124510 -0.978756
0.290012 0.425260 0.025078 -0.039739 0.130907 -0.990598
0.187024 0.268946 0.076355 -0.200671 -0.074835 0.976796
0.284704 0.394139 0.060965 0.147140 0.083362 -0.985597
0.314116 0.266252 0.052616 0.873365 0.480920 0.077131
0.174145 0.159858 0.084141 0.560661 -0.084919 0.823679
0.172069 0.662742 0.084445 -0.522807 0.046994 0.851155
0.172373 0.415152 0.081391 -0.365647 -0.016780 -0.930602
0.178602 0.278580 0.060942 -0.231135 -0.074574 -0.970059
0.106455 0.314653 0.025055 -0.191540 -0.068775 -0.979072
0.235666 0.193463 0.025031 -0.033712 0.056468 -0.997835
0.181670 0.811137 0.081568 -0.906268 0.267281 -0.327474
0.063030 0.408802 0.069802 -0.475091 -0.000196 0.879937
0.177203 0.730295 0.077261 0.099195 -0.013090 0.994982
0.184285 0.954644 0.068294 -0.438776 0.140147 -0.887600
0.287249 0.369303 0.076375 0.713584 -0.183049 -0.676233
0.180779 0.479166 0.084024 0.938531 -0.000802 0.345194
0.091879 0.516624 0.025299 -0.151473 0.086078 -0.984706
0.178885 0.832701 0.068269 -0.007280 -0.251606 -0.967802
0.186947 0.514463 0.083521 0.953585 0.008486 0.301004
0.197163 0.370311 0.025067 0.753733 0.598306 0.271875
0.204795 0.225747 0.076346 -0.156897 -0.057912 0.985916
0.096784 0.317327 0.071613 -0.224957 -0.084971 0.970657
0.074594 0.425693 0.025078 -0.178118 -0.001339 -0.984008
0.140114 0.426851 0.071636 0.437585 0.072893 -0.896217
0.166936 0.177883 0.077431 -0.178372 0.935661 -0.304504
0.201293 0.688520 0.069570 0.737588 0.055991 -0.672926
0.238465 0.122917 0.076096 -0.429736 -0.334204 0.838830
0.328296 0.222731 0.025287 0.449420 0.273880 -0.850301
0.063973 0.498640 0.033174 -0.802620 0.226467 -0.551827
0.206540 0.925267 0.070562 0.382464 0.064811 -0.921695
0.158120 0.155237 0.025023 -0.082042 -0.007442 -0.996601
0.171842 0.553243 0.081833 -0.722503 0.018842 -0.691111
0.239258 0.263418 0.071602 -0.069670 0.044894 0.996559
0.321299 0.152382 0.076331 0.561546 -0.180707 0.807472
0.293023 0.452813 0.071641 0.115021 0.085192 0.989703
0.099916 0.210792 0.025034 -0.150257 0.088305 -0.984695
0.246276 0.262596 0.076354 0.005554 0.044046 0.999014
0.203534 0.360198 0.084657 0.995583 -0.028320 0.089516
0.250426 0.400270 0.071630 -0.198040 0.106525 0.974388
0.325066 0.186099 0.061401 0.523867 0.097579 -0.846193
0.240202 0.044144 0.025275 0.056859 -0.234394 -0.970478
0.164424 0.427448 0.025078 0.395570 0.006865 0.918410
0.181874 0.211047 0.074685 -0.235277 -0.959434 -0.155344
0.154181 0.452710 0.025084 0.340721 0.019982 0.939952
0.195142 0.070966 0.071563 -0.017816 -0.146847 0.988999
0.174923 0.396755 0.025072 0.573581 0.180483 0.799019
0.238293 0.122275 0.070487 0.711267 0.452454 0.537945
0.254817 0.126889 0.061677 0.242058 0.301412 -0.922257
0.217176 0.376463 0.064956 0.005556 0.282350 -0.959295
0.156137 0.388089 0.071628 0.172642 0.120799 0.977549
0.193238 0.328428 0.060952 0.181098 0.132530 -0.974495
0.273055 0.259508 0.076353 -0.129024 0.010068 0.991590
0.204825 0.632153 0.077241 0.317471 -0.045042 0.947198
0.061444 0.395398 0.031154 -0.776951 -0.162063 -0.608344
0.201943 0.268912 0.025046 -0.079644 -0.031868 -0.996314
0.280412 0.034156 0.044745 0.285881 -0.943956 -0.164981
0.137100 0.403156 0.025073 -0.114715 0.029239 -0.992968
0.165492 0.420443 0.058928 -0.913065 -0.041580 -0.405689
0.308411 0.402232 0.047852 0.950607 -0.270337 0.152524
0.050059 0.172122 0.025026 -0.179846 0.020036 -0.983491
0.357144 0.143375 0.031494 0.819329 -0.012704 -0.573183
0.190500 0.700676 0.056149 0.348840 0.090635 -0.932789
0.251270 0.185351 0.071587 0.098324 -0.020139 0.994951
0.197671 0.215832 0.081774 0.767106 -0.073097 -0.637342
0.179046 0.531607 0.077221 -0.023880 -0.024477 0.999415
0.104351 0.479576 0.025089 -0.133284 0.058270 -0.989363
0.188359 0.684205 0.055195 0.092721 0.080488 -0.992434
0.290869 0.289117 0.070203 0.388711 0.164406 0.906573
0.228995 0.227660 0.060931 0.004326 -0.003014 -0.999986
0.309578 0.248954 0.025042 0.855478 0.187471 -0.482713
0.179694 0.765894 0.063405 -0.649955 0.047790 -0.758469
0.172141 0.405151 0.084392 -0.559879 -0.020008 0.828333
0.194792 0.294888 0.060945 0.009622 0.042906 -0.999033
0.099104 0.277340 0.028140 -0.491551 0.141170 -0.859330
0.162531 0.125737 0.071574 -0.061681 -0.024160 0.997803
0.179403 0.385880 0.071627 0.047655 0.164589 0.985210
0.165432 0.451094 0.065308 -0.980989 -0.028153 -0.192009
0.251029 0.207458 0.077598 0.293345 -0.086375 -0.952097
0.105321 0.037603 0.057459 -0.323965 -0.911902 0.251953
0.187385 0.199154 0.071589 -0.080422 -0.051225 0.995444
0.297920 0.265096 0.025045 0.020029 0.085919 -0.996101
0.200339 0.222452 0.071594 -0.025101 -0.006304 0.999665
0.170170 0.682364 0.077251 0.015476 -0.012877 0.999797
0.189841 0.743720 0.077264 0.200930 -0.017174 0.979455
0.194211 0.531305 0.048850 0.555352 0.060079 -0.829443
0.177472 0.534237 0.077221 -0.033691 -0.023651 0.999152
0.214442 0.367520 0.025066 -0.034049 0.067442 -0.997142
0.081990 0.440899 0.025081 -0.169040 0.013847 -0.985512
0.255542 0.187371 0.071587 0.075244 0.003822 0.997158
0.033931 0.171710 0.041806 -0.944246 0.292807 -0.150547
0.164179 0.311943 0.071612 -0.049031 0.022231 0.998550
0.196902 0.277053 0.071605 0.237475 -0.011094 0.971330
0.179659 0.508079 0.077216 -0.020833 -0.028847 0.999367
0.246347 0.040787 0.027612 0.106263 -0.427000 -0.897986
0.233156 0.299854 0.060946 0.018322 0.085672 -0.996155
0.208395 0.971084 0.068297 0.265336 0.547170 -0.793852
0.124367 0.396358 0.060966 -0.212858 -0.011830 -0.977012
0.279858 0.112305 0.062105 0.553969 0.555427 -0.620177
0.208741 0.150568 0.079240 0.397938 -0.916133 0.048423
0.173124 0.126696 0.025017 -0.045950 -0.059506 -0.997170
0.274372 0.243368 0.060935 0.932438 -0.218635 -0.287676
0.151274 0.242061 0.025041 -0.130954 0.066265 -0.989171
0.281889 0.034466 0.038652 0.295404 -0.891636 -0.343107
0.104007 0.490118 0.071649 -0.065169 0.084595 0.994282
0.066781 0.364056 0.059741 -0.943541 -0.298512 0.143603
0.205050 0.687819 0.077252 0.330255 -0.037286 0.943155
0.203214 0.494242 0.058164 0.766401 -0.003630 -0.642352
0.177437 0.368784 0.076375 0.174900 0.219539 0.959798
0.209314 0.299642 0.025052 -0.058847 0.008121 -0.998234
0.273142 0.119144 0.067334 -0.528555 -0.652821 0.542636
0.164355 0.829697 0.077993 -0.808628 -0.111614 0.577636
0.192623 0.354847 0.068137 -0.278431 -0.208743 0.937498
0.263913 0.262883 0.025045 -0.006380 0.022532 -0.999726
0.306646 0.474464 0.045873 0.660664 0.749264 -0.046122
0.198622 0.596647 0.077234 0.238022 -0.042332 0.970337
0.176857 0.372533 0.025067 -0.077564 0.036552 -0.996317
0.112203 0.443605 0.071639 -0.081569 0.064513 0.994578
0.351777 0.171774 0.069493 0.493313 0.009580 0.869799
0.208666 0.178561 0.060921 -0.093566 -0.015305 -0.995495
0.205353 0.305649 0.060947 0.152186 0.109671 -0.982248
0.132502 0.468797 0.025087 0.318870 0.007184 0.947771
0.127731 0.330774 0.025059 -0.148127 -0.044594 -0.987962
0.166426 0.278483 0.060942 -0.244434 -0.061516 -0.967713
0.118416 0.519150 0.071479 0.413225 -0.003344 -0.910623
0.159792 0.150440 0.075339 -0.135810 -0.448893 -0.883205
0.355235 0.105587 0.050103 0.941081 -0.337875 0.014357
0.109621 0.559585 0.053424 0.646435 0.565117 0.512607
0.237945 0.138555 0.067984 -0.061056 -0.949473 0.307852
0.277902 0.033630 0.055004 0.245843 -0.955994 0.160114
0.128434 0.492337 0.025092 0.281948 0.016661 0.959285
0.204444 0.372861 0.077188 0.263846 -0.082372 0.961041
0.104991 0.234315 0.025039 -0.154717 0.103040 -0.982571
0.324930 0.056655 0.065840 0.543972 -0.660137 0.517990
0.296739 0.281594 0.025049 0.965602 0.155695 0.208257
0.160951 0.368123 0.076375 0.108673 0.143083 0.983726
0.171306 0.851309 0.082735 -0.386314 0.018710 0.922177
0.325360 0.287100 0.025050 0.077366 0.080810 -0.993722
0.036886 0.131489 0.069965 -0.398499 0.073430 0.914225
0.084509 0.464384 0.071643 -0.126560 0.064785 0.989841
0.204068 0.232370 0.025039 -0.088236 0.031244 -0.995609
0.193314 0.355490 0.077185 0.123353 -0.070860 0.989830
0.343128 0.190899 0.025030 0.065274 0.028385 -0.997464
0.216531 0.223735 0.060931 -0.133170 -0.066445 -0.988863
0.111121 0.281080 0.025049 -0.193075 0.024241 -0.980884
0.188710 0.413207 0.025075 0.521510 0.297046 0.799870
0.196752 0.363075 0.083906 -0.991917 -0.028517 0.123639
0.173159 0.035953 0.068836 -0.081925 -0.557710 0.825983
0.161603 0.254953 0.076352 -0.200573 -0.007230 0.979652
0.176472 0.260482 0.025044 -0.125107 -0.016379 -0.992008
0.294060 0.239766 0.076349 0.327313 0.185432 0.926543
0.179057 0.163516 0.076334 -0.315297 -0.580224 0.750951
0.212233 0.406319 0.033290 0.173101 0.868201 -0.465041
0.077572 0.236915 0.055707 -0.848701 0.514377 0.122979
0.192313 0.285963 0.076358 -0.054393 0.004471 0.998510
0.299695 0.148448 0.071579 0.112056 -0.029220 0.993272
0.156231 0.102348 0.071570 -0.057583 -0.076121 0.995434
0.239970 0.157082 0.025023 -0.016156 -0.003789 -0.999862
0.309050 0.228444 0.069723 0.823411 0.469369 0.318883
0.198180 0.472643 0.077209 0.208062 -0.060002 0.976273
0.198274 0.370867 0.071624 0.029550 0.146840 0.988719
0.309603 0.290285 0.025050 0.777015 -0.168902 0.606399
0.293541 0.366012 0.066384 0.988311 -0.144629 -0.048204
0.211523 0.336905 0.060954 0.071307 0.124844 -0.989611
0.094670 0.552699 0.066143 -0.381271 0.574653 0.724159
0.199944 0.207333 0.071591 -0.033682 -0.017763 0.999275
0.071430 0.525040 0.036613 -0.820048 0.381318 -0.426752
0.167939 0.372144 0.060961 0.311068 0.306151 -0.899727
0.097879 0.042102 0.033579 -0.271911 -0.831516 -0.484402
0.275363 0.447389 0.025082 -0.141628 0.115283 -0.983184
0.250433 0.034898 0.067652 0.071114 -0.707632 0.702993
0.093542 0.515619 0.025096 -0.135617 0.078520 -0.987645
0.116451 0.081283 0.025008 -0.050350 -0.148649 -0.987607
0.251866 0.415419 0.055300 -0.734732 0.653286 0.182721
0.180762 0.250124 0.082720 0.953952 -0.060348 -0.293824
0.123011 0.476708 0.025088 -0.112157 0.072929 -0.991011
0.256687 0.329985 0.025059 0.021566 0.142859 -0.989508
0.177352 0.347948 0.025062 -0.084106 0.018738 -0.996281
0.207264 0.924802 0.082750 0.938448 0.140723 -0.315457
0.092399 0.268287 0.060935 -0.960173 0.157265 0.230945
0.226769 0.306153 0.076363 0.024671 0.088465 0.995774
0.312538 0.047324 0.049116 0.538459 -0.842453 -0.018304
0.187011 0.355209 0.052482 -0.081963 -0.123711 -0.988927
0.296126 0.234021 0.076348 0.319598 0.177361 0.930806
0.290605 0.219878 0.060930 0.281409 0.138551 -0.949533
0.185574 0.159955 0.071581 -0.042514 0.012898 0.999013
0.260200 0.167094 0.078033 -0.297968 -0.951876 0.071741
0.183422 0.824601 0.082729 -0.226070 -0.206387 0.951996
0.276395 0.158134 0.071581 0.076359 -0.007945 0.997049
0.297057 0.190762 0.075448 0.847778 0.518709 -0.110512
0.222766 0.163747 0.071582 -0.012610 -0.030491 0.999455
0.303867 0.166581 0.076334 0.280999 0.015661 0.959580
0.340807 0.165973 0.071583 0.185527 -0.014447 0.982533
0.130512 0.302894 0.025053 -0.163848 -0.065361 -0.984318
0.055934 0.473864 0.056831 -0.972197 0.139241 0.188266
0.080817 0.242105 0.065419 -0.853769 0.421475 0.305676
0.266280 0.412561 0.063419 -0.444552 0.137294 -0.885169
0.214645 0.307323 0.025054 -0.051991 0.017257 -0.998498
0.125047 0.327921 0.025058 -0.152089 -0.050772 -0.987062
0.199134 0.538270 0.056449 0.682575 0.038177 -0.729817
0.193469 0.879367 0.082740 -0.167241 0.009911 0.985866
0.320940 0.205354 0.064098 0.610733 0.215428 -0.761969
0.134094 0.355718 0.060957 -0.307184 -0.082773 -0.948043
0.162814 0.413343 0.033549 0.622021 0.645780 -0.442784
0.216983 0.309105 0.025054 -0.048497 0.020572 -0.998611
0.185405 0.238121 0.081116 -0.147182 -0.063703 -0.987056
0.204162 0.358362 0.049578 0.776059 -0.044390 -0.629096
0.079569 0.098021 0.071569 -0.137148 -0.044993 0.989528
0.206670 0.653345 0.072204 0.990106 -0.021642 -0.138646
0.305131 0.273624 0.025047 -0.026293 0.073743 -0.996931
0.215509 0.154798 0.096968 0.570998 -0.760771 0.308527
0.119329 0.247065 0.025042 -0.155882 0.086114 -0.984015
0.208872 0.461909 0.062603 0.991238 -0.100350 -0.085884
0.215851 0.166361 0.082259 0.099551 -0.376453 0.921071
0.108296 0.282655 0.025049 -0.196290 0.023822 -0.980256
0.266116 0.130761 0.071575 0.041799 -0.053472 0.997694
0.167006 0.048693 0.025001 -0.004993 -0.199658 -0.979853
0.165041 0.372532 0.076376 0.268929 0.258968 0.927692
0.291723 0.094911 0.076960 0.439863 -0.123701 0.889505
0.112080 0.548677 0.053853 0.985467 0.025450 0.167950
0.207321 0.828982 0.068268 0.222715 -0.229284 -0.947537
0.150266 0.363827 0.071623 -0.046974 0.041426 0.998037
0.173145 0.394686 0.084645 0.029498 -0.022799 0.999305
0.232632 0.328680 0.025058 0.129469 0.149013 -0.980323
0.094865 0.111672 0.025014 -0.099029 -0.085994 -0.991362
0.182983 0.832836 0.082731 -0.275253 -0.018806 0.961188
0.182966 0.638812 0.077243 0.079978 -0.020258 0.996591
0.308166 0.273912 0.025047 -0.037929 0.068684 -0.996917
0.198473 0.654090 0.063077 0.669435 0.062195 -0.740262
0.188571 0.380014 0.037580 0.219405 0.024789 -0.975319
0.081723 0.544631 0.046651 -0.800252 0.592217 -0.094207
0.045793 0.068545 0.049377 -0.759034 -0.651046 0.002435
0.233394 0.248709 0.060936 0.090904 0.053466 -0.994423
0.142824 0.240666 0.025040 -0.134905 0.077929 -0.987789
0.213330 0.171978 0.025026 -0.046906 0.021292 -0.998672
0.127578 0.388344 0.060964 -0.240595 -0.030278 -0.970153
0.190938 0.419955 0.082202 -0.742938 -0.013751 -0.669219
0.219421 0.026015 0.046641 0.057608 -0.994379 -0.088831
0.189183 0.116540 0.071573 -0.031356 -0.057553 0.997850
0.162603 0.422985 0.049852 0.775196 0.626871 -0.078125
0.125169 0.126231 0.071575 -0.096439 -0.008897 0.995299
0.137062 0.331143 0.061027 -0.329839 -0.077465 -0.940853
0.185721 0.654449 0.081285 -0.052515 0.047324 -0.997498
0.284211 0.281291 0.076358 0.942703 -0.251677 0.219020
0.309742 0.141236 0.076329 0.447165 -0.225986 0.865433
0.196171 0.370331 0.040905 0.600525 0.019721 -0.799362
0.263591 0.197346 0.071589 0.088441 0.024345 0.995784
0.172378 0.687521 0.077252 0.035024 -0.013469 0.999296
0.206642 0.086746 0.071567 -0.010628 -0.119767 0.992745
0.100925 0.161408 0.025024 -0.132437 0.002526 -0.991188
0.311029 0.452918 0.067279 0.779168 0.069120 0.622992
0.292574 0.196802 0.071589 0.117064 0.046878 0.992017
0.305236 0.214720 0.060929 0.308846 0.174305 -0.935004
0.315704 0.212795 0.025035 0.129714 0.021264 -0.991323
0.151898 0.423272 0.071635 0.681914 -0.019327 -0.731177
0.260594 0.128200 0.067661 -0.535137 -0.824540 0.183747
0.168735 0.610771 0.079886 -0.957099 0.053859 0.284712
0.198349 0.433096 0.077201 0.202223 -0.066048 0.977110
0.252057 0.233890 0.025039 -0.030367 -0.015626 -0.999417
0.235221 0.144045 0.025021 -0.008854 -0.027879 -0.999572
0.166917 0.525625 0.075651 -0.936584 0.015282 0.350110
0.249115 0.189113 0.025030 -0.021654 0.049887 -0.998520
0.190933 0.808603 0.062399 0.412612 0.108936 -0.904370
0.264137 0.343840 0.025061 -0.040889 0.132817 -0.990297
0.290090 0.407570 0.064941 0.980520 -0.041037 0.192087
0.206625 0.628298 0.076935 0.350976 -0.048576 0.935124
0.228570 0.842943 0.079403 0.602118 0.006864 0.798377
0.224327 0.287732 0.060944 0.079027 0.084727 -0.993265
0.214439 0.268513 0.060940 0.123232 0.104106 -0.986902
0.170744 0.653817 0.071763 -0.910649 0.034263 -0.411757
0.184527 0.604367 0.082020 -0.905594 0.030904 -0.423017
0.201554 0.367649 0.025066 0.684946 0.100797 0.721587
0.152973 0.119514 0.025016 -0.056465 -0.072711 -0.995753
0.080523 0.523008 0.030358 -0.552296 0.281026 -0.784852
0.210126 0.223274 0.025037 -0.075614 0.044559 -0.996141
0.157603 0.199108 0.076341 -0.194204 0.006518 0.980940
0.233217 0.113617 0.071572 0.006034 -0.074418 0.997209
0.153615 0.195158 0.071589 -0.097491 0.026562 0.994882
0.191832 0.262808 0.025045 -0.101797 -0.038523 -0.994059
0.280167 0.380901 0.025069 -0.148116 0.091641 -0.984715
0.207504 0.282337 0.060943 0.127451 0.114493 -0.985214
0.076309 0.536119 0.061277 -0.758129 0.497851 0.421171
0.259242 0.188119 0.025030 -0.012954 0.047846 -0.998771
0.147247 0.140680 0.025020 -0.081794 -0.031924 -0.996138
0.192386 0.476228 0.077209 0.136378 -0.051749 0.989304
0.169616 0.258640 0.025044 -0.131556 0.002977 -0.991304
0.179827 0.333437 0.076368 0.113939 0.122062 0.985961
0.280439 0.097502 0.076829 0.041081 -0.355792 0.933662
0.205821 0.658348 0.073009 0.823300 0.016311 -0.567372
0.285010 0.419950 0.071634 0.087746 0.084844 0.992523
0.291336 0.268108 0.025046 0.038448 0.094621 -0.994771
0.133197 0.304628 0.025053 -0.157907 -0.066609 -0.985205
0.207064 0.177980 0.079090 0.258098 0.962944 -0.078256
0.212368 0.846240 0.082734 0.027539 -0.036911 0.998939
0.228284 0.324860 0.025057 0.930065 0.362639 -0.058925
0.186977 0.202416 0.071590 -0.082225 -0.055820 0.995049
0.171463 0.624357 0.067020 -0.869996 0.019968 -0.492653
0.232910 0.334393 0.060953 0.002613 0.106836 -0.994273
0.091792 0.301787 0.059360 -0.960795 -0.202773 0.189091
0.186592 0.341575 0.060955 0.774198 0.533220 -0.341018
0.137775 0.327579 0.069155 -0.956502 -0.226839 0.183435
0.269496 0.380286 0.076378 -0.261606 0.070276 0.962613
0.201477 0.304547 0.025053 -0.066079 0.005988 -0.997796
0.073503 0.128890 0.025018 -0.133832 -0.052349 -0.989620
0.116300 0.490464 0.056345 0.926742 0.355335 -0.122007
0.202954 0.602708 0.085389 -0.969756 0.026387 0.242644
0.258757 0.207782 0.076343 0.014702 0.002668 0.999888
0.316762 0.225820 0.025037 0.043072 0.059259 -0.997313
0.078567 0.169249 0.071583 -0.135931 0.064074 0.988644
0.214474 0.157063 0.085779 0.401145 0.910295 -0.102206
0.156143 0.355495 0.071621 -0.036837 0.040331 0.998507
0.219341 0.129611 0.025018 -0.008595 -0.055773 -0.998406
0.170106 0.257733 0.071601 -0.066122 -0.008137 0.997778
0.071991 0.479908 0.026336 -0.280211 0.050481 -0.958610
0.116110 0.178577 0.071585 -0.106600 0.059143 0.992541
0.270116 0.425724 0.076387 -0.186797 0.102125 0.977076
0.202695 0.616976 0.066322 0.763282 0.030175 -0.645360
0.230264 0.060324 0.071561 0.004760 -0.171280 0.985211
0.053260 0.153722 0.071580 -0.159829 0.053496 0.985694
0.284104 0.355420 0.071621 0.135387 0.010673 0.990735
0.212469 0.165531 0.079919 0.040960 -0.520842 0.852670
0.278116 0.312834 0.076364 -0.004962 0.038863 0.999232
0.257613 0.350062 0.071620 -0.092844 0.082875 0.992226
0.280128 0.329138 0.076367 0.689932 -0.195476 -0.696981
0.327957 0.057848 0.034408 0.664747 -0.604815 -0.438531
0.184399 0.334034 0.025059 -0.080101 0.013588 -0.996694
0.280579 0.237125 0.060933 0.059875 0.001825 -0.998204
0.167259 0.343838 0.071619 0.184599 0.121287 0.975301
0.214473 0.859893 0.082736 0.048934 -0.030069 0.998349
0.212188 0.842479 0.068271 0.255071 -0.209852 -0.943876
0.260162 0.405043 0.025074 -0.165546 0.130767 -0.977494
0.168760 0.211567 0.071592 -0.102433 -0.033366 0.994180
0.181254 0.366405 0.036794 -0.316733 -0.013504 -0.948419
0.273787 0.471606 0.050452 -0.875970 0.480723 -0.039776
0.236573 0.240717 0.106995 0.886753 -0.202367 0.415592
0.279129 0.067746 0.071563 0.040682 -0.169481 0.984693
0.161974 0.296039 0.071609 -0.062385 0.012833 0.997970
