0.331641 0.479662 0.030040 -0.029579 -0.049525 -0.998335
0.539608 0.542358 0.061764 0.006301 0.838759 -0.544467
0.645378 0.268408 0.050388 0.456915 0.509318 -0.729263
0.104615 0.519313 0.102289 -0.099958 0.166091 0.981031
0.939962 0.113645 0.098102 0.859565 0.245393 0.448253
0.698786 0.261502 0.104503 -0.226477 -0.089400 0.969905
0.133175 0.540941 0.030040 -0.155233 0.605923 -0.780231
0.720933 0.089993 0.098982 -0.192304 -0.044633 0.980320
0.737696 0.174708 0.034587 -0.324922 -0.077790 -0.942536
0.040584 0.452704 0.078452 -0.298841 -0.572731 0.763330
0.630066 0.280372 0.066957 0.615686 0.750809 0.239199
0.851629 0.045767 0.098982 -0.029373 -0.459730 0.887573
0.893184 0.189277 0.076110 0.878764 0.418001 0.230323
0.764657 0.354115 0.098982 0.084127 -0.102758 0.991142
0.729430 0.202744 0.025972 -0.351995 -0.143872 -0.924879
0.911545 0.393550 0.034587 0.845434 -0.147026 -0.513444
0.430327 0.347862 0.064380 -0.498972 -0.804482 -0.322236
0.902060 0.025000 0.097848 -0.013456 -0.834235 0.551244
0.714755 0.082696 0.048526 -0.283881 -0.003125 -0.958854
0.621092 0.421922 0.030040 0.072107 -0.808653 -0.583850
0.373753 0.515142 0.034587 -0.097002 0.243987 -0.964915
0.230655 0.420251 0.059456 -0.035957 -0.908047 -0.417322
0.499047 0.459585 0.102289 0.034705 -0.144475 0.988900
0.760312 0.360415 0.062710 0.165384 0.986054 -0.018571
0.612765 0.481132 0.048334 -0.509602 -0.738880 -0.440866
0.319890 0.541839 0.088659 0.003361 0.974528 0.224241
0.485320 0.533863 0.102289 -0.001096 0.311418 0.950272
0.311206 0.400999 0.098982 -0.042471 -0.326089 0.944385
0.759637 0.121204 0.034587 -0.022398 0.048900 -0.998553
0.422326 0.423861 0.030040 0.046153 -0.666920 -0.743699
0.138146 0.451139 0.030040 -0.050638 -0.341107 -0.938660
0.109250 0.439722 0.030040 -0.039302 -0.419455 -0.906925
0.277829 0.513734 0.030040 -0.114890 0.142796 -0.983061
0.734037 0.054228 0.098982 -0.236983 -0.105321 0.965788
0.082435 0.447384 0.102289 -0.083731 -0.223779 0.971037
0.158414 0.496668 0.098982 -0.103165 0.144964 0.984044
0.786340 0.505798 0.102289 0.100174 0.156078 0.982652
0.789752 0.334898 0.098982 0.104907 -0.049955 0.993227
0.702484 0.555676 0.048257 0.065055 0.890051 -0.451195
0.840680 0.483069 0.070755 0.565754 0.585839 0.580271
0.508000 0.401171 0.098982 -0.016379 -0.283718 0.958768
0.537572 0.420251 0.085997 -0.003235 -0.990960 0.134121
0.783016 0.265901 0.104503 0.361402 0.213845 0.907557
0.788828 0.106491 0.034587 0.070348 0.095741 -0.992917
0.729473 0.427635 0.102289 0.040229 -0.821470 0.568831
0.825954 0.045824 0.025972 -0.451761 -0.370115 -0.811743
0.287584 0.541762 0.046665 -0.030059 0.898831 -0.437264
0.730401 0.397481 0.034587 -0.013297 -0.133628 -0.990942
0.973306 0.072430 0.090260 0.486253 -0.175433 0.856027
0.813695 0.275304 0.098982 0.094840 -0.002798 0.995489
0.283613 0.546204 0.087589 0.009601 0.996359 0.084713
0.747196 0.310417 0.098982 0.021413 -0.015454 0.999651
0.363910 0.541943 0.065848 -0.008596 0.919081 -0.393975
0.367352 0.546332 0.071420 0.007029 0.960890 -0.276842
0.323242 0.544067 0.102289 -0.001144 0.696938 0.717131
0.677406 0.304121 0.056316 -0.964746 -0.221049 -0.142835
0.319166 0.373033 0.034587 -0.063729 -0.507773 -0.859131
0.602002 0.261960 0.081800 0.087073 -0.169294 0.981712
0.772063 0.037135 0.063995 -0.227821 -0.971606 0.063866
0.511781 0.420251 0.085871 -0.007734 -0.986870 0.161329
0.179288 0.390220 0.045867 -0.099090 -0.656277 -0.747985
0.968822 0.041782 0.098982 0.165983 -0.607609 0.776699
0.504178 0.478107 0.030040 0.046606 0.022896 -0.998651
0.866767 0.438722 0.095800 0.296780 0.109622 0.948633
0.565296 0.546633 0.086760 0.054851 0.884345 0.463600
0.862992 0.030384 0.034587 0.042929 -0.616161 -0.786450
0.744085 0.255706 0.104503 0.043996 0.016222 0.998900
0.628380 0.321378 0.041864 -0.318384 -0.094588 -0.943231
0.920121 0.042932 0.104503 -0.004613 -0.602028 0.798462
0.694549 0.209694 0.098982 -0.360657 -0.162445 0.918443
0.326727 0.366872 0.072589 -0.077808 -0.849035 0.522575
0.866705 0.078112 0.098982 0.196520 -0.046883 0.979378
0.859705 0.223546 0.025972 0.553193 0.273778 -0.786780
0.873679 0.037795 0.073598 -0.154679 -0.963082 0.220335
0.789686 0.465494 0.075541 0.551269 -0.830917 0.075370
0.810700 0.385014 0.034587 0.107376 -0.096437 -0.989530
0.610398 0.506279 0.025971 -0.434235 -0.277984 -0.856834
0.284816 0.521161 0.030040 -0.124245 0.191580 -0.973581
0.039585 0.475770 0.034675 -0.165281 0.043491 -0.985287
0.829989 0.061954 0.104503 0.092986 0.189861 0.977398
0.708189 0.472992 0.034587 0.018315 0.137734 -0.990300
0.939101 0.057629 0.025002 0.042347 -0.920975 -0.387314
0.530306 0.393583 0.034587 -0.011247 -0.205438 -0.978605
0.974913 0.027431 0.094975 0.081685 -0.802188 0.591457
0.710653 0.252094 0.025972 -0.269165 -0.118312 -0.955800
0.109725 0.517200 0.030040 -0.180751 0.064331 -0.981423
0.025000 0.482737 0.070074 -0.349767 0.777209 0.523077
0.095280 0.420251 0.051598 -0.057478 -0.826142 -0.560523
0.299829 0.517275 0.102289 -0.047021 0.193593 0.979954
0.902597 0.105184 0.104503 -0.056082 -0.106775 0.992700
0.231208 0.464476 0.102289 -0.049864 -0.107897 0.992911
0.859471 0.359885 0.059361 0.623970 -0.378440 -0.683699
0.856069 0.099839 0.034587 0.225072 0.137963 -0.964525
0.412910 0.542058 0.091023 0.014335 0.890614 0.454535
0.812700 0.091518 0.034587 0.134269 0.113557 -0.984417
0.103485 0.438761 0.102289 -0.074731 -0.265101 0.961320
0.194750 0.429371 0.030040 0.012344 -0.439919 -0.897953
0.422999 0.437618 0.098982 -0.023143 -0.184340 0.982590
0.808783 0.118871 0.098982 0.078799 0.066423 0.994675
0.692904 0.437325 0.098982 0.067228 -0.080283 0.994502
0.817551 0.083033 0.034587 0.143128 0.088388 -0.985749
0.465524 0.278903 0.063442 0.540695 0.771603 -0.335077
0.735172 0.134569 0.052129 -0.893490 -0.267129 -0.360996
0.745749 0.361965 0.059892 0.050699 0.997450 -0.050223
0.644463 0.541802 0.025971 -0.383304 0.366836 -0.847650
0.624771 0.506862 0.034587 -0.020339 0.264128 -0.964273
0.452377 0.492360 0.102289 0.003555 0.089725 0.995960
0.717398 0.542778 0.081967 0.051331 0.726073 0.685699
0.161817 0.420251 0.053232 -0.042076 -0.836922 -0.545702
0.563923 0.369187 0.050425 0.045213 0.933125 -0.356699
0.748816 0.168294 0.034587 -0.307704 -0.060787 -0.949539
0.472257 0.254898 0.050388 -0.041633 -0.729854 -0.682335
0.824856 0.452304 0.069067 0.665766 -0.640423 0.382903
0.712929 0.104600 0.086780 -0.468145 -0.125349 0.874716
0.039585 0.485794 0.085141 -0.252017 0.184068 0.950056
0.595761 0.546679 0.093685 0.059783 0.744746 0.664665
0.490593 0.420251 0.032283 0.042776 -0.793616 -0.606914
0.734326 0.111375 0.034587 -0.158185 0.004764 -0.987398
0.852767 0.194959 0.098982 0.155477 0.104262 0.982322
0.714965 0.080168 0.041994 -0.185508 0.012734 -0.982560
0.719303 0.181816 0.050600 -0.757663 -0.274505 -0.592109
0.736610 0.131898 0.098982 -0.290268 -0.077939 0.953766
0.595881 0.515331 0.055639 -0.977938 -0.106642 -0.179624
0.826752 0.098838 0.034587 0.164442 0.135275 -0.977067
0.849036 0.107233 0.104503 -0.307695 -0.142892 0.940694
0.964758 0.100220 0.048328 0.634719 0.180565 -0.751351
0.076898 0.520369 0.050575 0.103845 -0.587127 0.802807
0.630042 0.369380 0.098982 -0.110520 -0.556685 0.823339
0.657750 0.521703 0.104502 -0.081811 0.279885 0.956541
0.649214 0.270000 0.055394 0.519719 0.738202 -0.430058
0.369712 0.525549 0.034587 -0.104145 0.275489 -0.955646
0.844094 0.177792 0.098982 0.141320 0.097028 0.985198
0.056724 0.426587 0.034587 -0.126906 -0.113568 -0.985392
0.834889 0.070468 0.034587 0.169705 0.034299 -0.984898
0.674484 0.542677 0.054442 0.015238 0.726859 -0.686618
0.777123 0.081745 0.026009 -0.764150 0.624465 -0.161611
0.780283 0.191107 0.025972 -0.214893 -0.131936 -0.967685
0.111872 0.485361 0.098982 -0.117545 0.112268 0.986701
0.366505 0.526160 0.102289 -0.031178 0.251481 0.967360
0.850156 0.305183 0.098982 0.225360 0.016887 0.974129
0.885490 0.044602 0.098982 0.028120 -0.507160 0.861393
0.795295 0.312485 0.113809 0.309379 -0.066956 0.948579
0.290444 0.546215 0.033099 -0.030515 0.901027 -0.432689
0.625311 0.307323 0.062299 -0.762279 -0.246117 -0.598629
0.442378 0.525938 0.098982 -0.034980 0.221622 0.974505
0.659089 0.542640 0.057965 0.017595 0.795130 -0.606183
0.622295 0.293747 0.090463 -0.932817 -0.308490 0.186241
0.025761 0.524491 0.078245 -0.113233 -0.788418 -0.604628
0.063149 0.510835 0.030040 -0.186490 -0.000694 -0.982457
0.466051 0.344618 0.097726 0.230473 -0.856815 0.461249
0.780374 0.200724 0.034587 -0.174745 -0.027441 -0.984231
0.373529 0.454340 0.034587 -0.057678 0.009911 -0.998286
0.769246 0.546943 0.073151 0.095223 0.923259 0.372189
0.796223 0.054708 0.037542 0.413200 -0.902705 -0.119954
0.896469 0.148509 0.034587 0.286094 0.182827 -0.940598
0.330096 0.432714 0.030040 0.056998 -0.365894 -0.928910
0.679198 0.451179 0.102289 0.091625 -0.210506 0.973289
0.689273 0.188181 0.064366 -0.914683 -0.358028 -0.187541
0.336314 0.473518 0.098982 -0.080869 0.066770 0.994486
0.175667 0.546040 0.091824 -0.001038 0.997335 0.072951
0.771783 0.226215 0.034587 -0.155450 -0.047365 -0.986708
0.724281 0.193312 0.034587 -0.328648 -0.101592 -0.938972
0.900629 0.043596 0.034587 0.160812 -0.349070 -0.923195
0.157703 0.491299 0.030040 -0.120741 -0.072259 -0.990051
0.585279 0.555676 0.099658 -0.290853 0.861681 0.415825
0.748550 0.224884 0.025972 -0.221873 -0.121612 -0.967462
0.833332 0.149203 0.104503 -0.161008 -0.117013 0.979992
0.440575 0.517023 0.030040 -0.056365 0.263265 -0.963076
0.762917 0.059478 0.025972 -0.620537 -0.114349 -0.775795
0.750522 0.025000 0.098851 -0.154777 -0.897764 0.412388
0.162022 0.508368 0.030040 -0.148758 0.040088 -0.988061
0.626849 0.354465 0.034587 -0.141394 -0.109684 -0.983858
0.404063 0.425737 0.098982 -0.027340 -0.227913 0.973298
0.818418 0.467171 0.035085 0.204515 0.056543 -0.977229
0.079586 0.466904 0.102289 -0.091898 -0.120347 0.988469
0.833661 0.028829 0.034587 0.033650 -0.723304 -0.689709
0.710481 0.247050 0.034587 -0.278632 -0.137197 -0.950548
0.288368 0.464270 0.098982 -0.094381 0.040157 0.994726
0.841541 0.480744 0.036326 0.107073 0.175495 -0.978640
0.618767 0.508284 0.098982 -0.007222 0.155510 0.987808
0.400510 0.531061 0.030040 -0.095658 0.316302 -0.943823
0.344984 0.420251 0.095110 -0.045488 -0.778875 0.625527
0.116983 0.463395 0.102289 -0.080653 -0.133158 0.987808
0.397726 0.546378 0.063286 0.004208 0.923786 -0.382885
0.667523 0.242992 0.070407 -0.856136 -0.450306 0.253486
0.702774 0.312081 0.098982 -0.069146 -0.029225 0.997178
0.724214 0.510864 0.104502 0.242761 -0.103431 0.964557
0.210781 0.516813 0.034587 -0.143149 0.213626 -0.966371
0.793039 0.254849 0.104503 0.363891 0.203654 0.908905
0.054109 0.486168 0.074310 0.006989 0.934218 -0.356634
0.743174 0.420251 0.095474 0.019662 -0.984411 0.174781
0.787101 0.138186 0.104503 -0.443720 -0.189752 0.875846
0.683335 0.293979 0.034587 -0.204842 -0.102615 -0.973401
0.781350 0.465494 0.083112 0.421747 -0.882656 0.207480
0.342732 0.546294 0.031692 -0.025536 0.873552 -0.486060
0.465690 0.363454 0.034587 0.197755 -0.719359 -0.665895
0.333736 0.467985 0.102289 -0.021701 -0.073804 0.997037
0.212653 0.541585 0.091681 -0.004256 0.983694 0.179802
0.220810 0.367777 0.086471 -0.150441 -0.950471 0.271979
0.177457 0.430776 0.102289 -0.048675 -0.309330 0.949708
0.660404 0.492892 0.102289 0.068613 0.076955 0.994671
0.772847 0.071854 0.038863 -0.991928 0.053300 -0.115057
0.634856 0.461805 0.034587 -0.017489 0.085858 -0.996154
0.041036 0.488151 0.102289 -0.109086 -0.011534 0.993965
0.505810 0.369724 0.089248 0.224333 -0.822814 0.522161
0.407089 0.542045 0.093656 0.014923 0.849588 0.527236
0.794418 0.025000 0.043784 0.018537 -0.961471 -0.274282
0.461438 0.292094 0.057172 0.873700 0.110607 -0.473725
0.295804 0.504507 0.102289 -0.044610 0.125515 0.991088
0.308976 0.399788 0.098982 -0.042892 -0.330223 0.942928
0.797338 0.037299 0.054739 -0.211141 -0.975305 0.064799
0.961430 0.109372 0.075910 0.822414 0.223739 0.523045
0.783573 0.065410 0.114464 -0.485241 -0.350751 0.800946
0.506590 0.268519 0.050388 -0.015325 0.727111 -0.686349
0.691595 0.053220 0.064229 -0.955875 -0.145554 -0.255179
0.427846 0.499005 0.030040 -0.027546 0.143735 -0.989233
0.293159 0.517067 0.030040 -0.114537 0.172387 -0.978348
0.403347 0.482086 0.034587 -0.068219 0.143254 -0.987332
0.784819 0.220473 0.034587 -0.130427 -0.027345 -0.991081
0.294089 0.546220 0.078328 0.003100 0.986668 -0.162715
0.785093 0.436918 0.034587 0.112925 -0.013147 -0.993517
0.605631 0.465700 0.030040 0.107128 -0.030253 -0.993785
0.260738 0.373171 0.098982 -0.116254 -0.723077 0.680915
0.797768 0.208066 0.104503 0.074562 -0.048604 0.996031
0.859471 0.324612 0.085212 0.401737 -0.037994 0.914966
0.801749 0.086131 0.104503 -0.228998 -0.036714 0.972734
0.427175 0.542092 0.076908 0.006283 0.995366 -0.095950
0.851196 0.026283 0.098982 -0.073115 -0.829076 0.554336
0.926251 0.083440 0.096232 -0.715675 0.691231 0.100044
0.826154 0.522289 0.050666 0.088208 0.539268 -0.837502
0.797214 0.527766 0.098982 0.045413 0.208923 0.976877
0.468693 0.450524 0.030040 0.080879 -0.196499 -0.977163
0.830861 0.393340 0.034587 0.132932 -0.084985 -0.987475
0.945542 0.049631 0.098982 0.182934 -0.486154 0.854511
0.686046 0.335951 0.098982 -0.087652 -0.081464 0.992815
0.703583 0.465494 0.027835 0.294064 -0.571037 -0.766449
0.724468 0.277296 0.025972 -0.056597 -0.012057 -0.998324
0.525468 0.420251 0.033742 0.047295 -0.816356 -0.575610
0.719191 0.546490 0.030040 0.009655 0.598706 -0.800911
0.921760 0.056845 0.064093 0.612088 0.790785 -0.002701
0.396148 0.469833 0.034587 -0.062167 0.093255 -0.993700
0.676070 0.333770 0.098982 -0.108771 -0.078999 0.990923
0.690852 0.430268 0.098982 0.072546 -0.099341 0.992405
0.731526 0.476342 0.034587 0.030752 0.152368 -0.987845
0.071601 0.524008 0.045812 0.073882 0.693157 -0.716990
0.573259 0.459100 0.030040 0.105929 -0.091689 -0.990138
0.751676 0.262286 0.098982 -0.094238 -0.079832 0.992344
0.549447 0.356821 0.079246 -0.036256 -0.940715 0.337255
0.258160 0.382251 0.098982 -0.065683 -0.462870 0.883989
0.044653 0.541188 0.098713 -0.012217 0.981242 0.192394
0.678698 0.504923 0.098982 0.021183 0.104796 0.994268
0.428281 0.397726 0.034587 -0.042729 -0.215688 -0.975527
0.913176 0.043000 0.098982 0.069867 -0.552051 0.830878
0.557840 0.358913 0.066720 -0.554978 0.827462 -0.085473
0.459866 0.542169 0.046685 -0.013739 0.785757 -0.618383
0.517092 0.542305 0.097392 0.025840 0.654843 0.755323
0.704497 0.526272 0.034587 -0.010388 0.348111 -0.937396
0.446301 0.546452 0.083336 0.031480 0.983946 0.175669
0.357757 0.466021 0.034587 -0.070724 0.077440 -0.994485
0.658081 0.462468 0.102289 0.081580 -0.135731 0.987381
0.881491 0.532743 0.056491 0.265758 0.129825 -0.955258
0.238888 0.431069 0.102289 -0.030191 -0.310802 0.949995
0.952131 0.073264 0.034587 0.399251 0.026594 -0.916456
0.772976 0.067877 0.037285 -0.976017 -0.181025 -0.120914
0.823967 0.318524 0.025972 0.218228 0.565293 -0.795500
0.761793 0.447503 0.030040 0.179371 -0.166176 -0.969645
0.773978 0.141249 0.098982 -0.038945 0.021770 0.999004
0.732230 0.232277 0.034587 -0.247937 -0.103648 -0.963216
0.029173 0.504330 0.045403 -0.099275 0.009135 0.995018
0.190080 0.446942 0.102289 -0.054802 -0.209908 0.976184
0.797270 0.512804 0.041742 0.137075 0.486173 -0.863045
0.837739 0.278516 0.079381 0.843987 0.490760 0.216425
0.503781 0.442577 0.030040 0.105525 -0.232945 -0.966748
0.252365 0.425374 0.034587 -0.071430 -0.132386 -0.988621
0.830575 0.379883 0.098982 0.178780 -0.065099 0.981733
0.711842 0.203118 0.090255 -0.675366 -0.247055 0.694870
0.238944 0.545668 0.102289 0.009312 0.888242 0.459280
0.760063 0.477670 0.025971 0.573114 -0.221677 -0.788923
0.856845 0.450626 0.075338 0.346737 -0.609519 0.712924
0.800306 0.100765 0.025972 -0.363663 -0.086162 -0.927537
0.805332 0.320942 0.051924 0.866913 0.494297 -0.064288
0.245056 0.546146 0.071894 -0.007971 0.983401 -0.181269
0.661767 0.531670 0.102289 0.047946 0.334039 0.941339
0.893000 0.170439 0.104503 0.514730 0.212374 0.830632
0.777450 0.524506 0.102289 0.086399 0.284245 0.954851
0.764618 0.542890 0.043922 0.014117 0.541429 -0.840628
0.706157 0.264641 0.025972 -0.247017 -0.111608 -0.962562
0.467530 0.422115 0.034587 -0.036160 -0.118764 -0.992264
0.719339 0.204880 0.034587 -0.322740 -0.111855 -0.939855
0.893213 0.408313 0.098982 0.592386 -0.189891 0.782956
0.946268 0.099997 0.071528 0.629762 -0.776784 0.002591
0.114629 0.541353 0.040325 -0.047706 0.953576 -0.297350
0.771618 0.310403 0.104503 -0.246721 0.192488 0.949778
0.082887 0.502610 0.030040 -0.166674 -0.041008 -0.985159
0.829148 0.081318 0.104503 -0.039196 -0.002672 0.999228
0.270538 0.420251 0.039297 -0.000985 -0.721295 -0.692627
0.709925 0.208593 0.052381 -0.742325 -0.274316 -0.611313
0.869674 0.140935 0.025972 -0.003219 -0.259530 -0.965730
0.646471 0.348891 0.098982 -0.093991 -0.141553 0.985458
0.433022 0.448357 0.102289 0.019721 -0.214521 0.976520
0.138828 0.444046 0.098982 -0.131844 -0.015945 0.991142
0.563663 0.393577 0.034587 0.011870 -0.202512 -0.979208
0.496403 0.490882 0.030040 0.018492 0.123046 -0.992229
0.831221 0.296023 0.033845 0.660697 0.081486 -0.746216
0.588367 0.542473 0.085145 0.033192 0.832063 0.553686
0.952208 0.060109 0.036968 0.765973 -0.630919 -0.123395
0.659271 0.478129 0.025971 0.011474 -0.529527 -0.848215
0.180968 0.420251 0.095183 -0.072709 -0.608046 0.790565
0.808856 0.025000 0.057376 -0.001488 -0.999554 0.029823
0.200322 0.450505 0.098982 -0.117401 0.001330 0.993084
0.066247 0.390220 0.056977 -0.147828 -0.986757 0.066770
0.139550 0.420251 0.094501 -0.079364 -0.572296 0.816197
0.040584 0.436191 0.033881 -0.066321 -0.496789 -0.865334
0.468816 0.349841 0.045938 0.456785 -0.857628 -0.236265
0.570901 0.332297 0.070161 -0.662739 -0.348133 0.663009
0.362285 0.397660 0.034587 -0.046567 -0.237644 -0.970235
0.174650 0.446218 0.098982 -0.124158 -0.010777 0.992204
0.802996 0.500449 0.034669 0.134366 0.321637 -0.937281
0.745254 0.485511 0.030040 0.122997 0.170098 -0.977721
0.134618 0.511482 0.102289 -0.090313 0.131263 0.987225
0.675673 0.313417 0.081737 -0.899129 -0.115931 0.422051
0.695355 0.469549 0.030040 0.132543 0.033569 -0.990609
0.872709 0.387308 0.034587 0.253245 -0.361592 -0.897284
0.836341 0.311299 0.064098 0.992778 0.114470 0.035896
0.198449 0.537488 0.034587 -0.106838 0.664906 -0.739247
0.750815 0.525544 0.098982 0.033252 0.187888 0.981627
0.705779 0.347588 0.098982 -0.019207 -0.110063 0.993739
0.259787 0.489378 0.102289 -0.050121 0.035850 0.998100
0.819844 0.341529 0.090375 0.555872 0.813994 0.168581
0.796417 0.351476 0.098420 0.308306 0.916722 0.254102
0.332402 0.366824 0.054241 -0.092215 -0.991029 -0.096739
0.839095 0.265012 0.098982 0.134407 0.050304 0.989649
0.495696 0.273980 0.054797 0.023655 0.861521 -0.507171
0.092190 0.471231 0.098982 -0.128103 0.069637 0.989313
0.806486 0.318153 0.101068 0.955594 0.270849 0.116109
0.115913 0.493855 0.098982 -0.112561 0.138055 0.984008
0.871642 0.211632 0.104503 0.591440 0.297319 0.749534
0.743592 0.072211 0.026195 -0.280248 0.045402 -0.958853
0.164712 0.461393 0.102289 -0.067039 -0.136123 0.988421
0.626431 0.474904 0.025971 -0.152689 -0.614192 -0.774244
0.701599 0.357028 0.079508 -0.329042 0.913043 0.241006
0.919562 0.058874 0.089490 0.638556 0.603364 0.477700
0.764429 0.066078 0.025972 -0.487515 -0.112667 -0.865815
0.127204 0.444641 0.034587 -0.120587 -0.040920 -0.991859
0.580466 0.279447 0.068977 0.286913 -0.858566 0.424907
0.835620 0.314402 0.097049 0.980162 0.174479 0.094019
0.512933 0.441364 0.030040 0.110458 -0.236616 -0.965304
0.717760 0.241695 0.104503 -0.238318 -0.099960 0.966029
0.845830 0.534693 0.056491 0.122066 0.756575 -0.642413
0.835419 0.206183 0.098982 0.109889 0.087126 0.990118
0.227432 0.454224 0.030040 -0.021490 -0.281172 -0.959417
0.626839 0.514560 0.030040 0.025013 0.352524 -0.935468
0.769097 0.188149 0.025972 -0.262074 -0.138611 -0.955041
0.750487 0.451207 0.034587 0.073858 0.045158 -0.996246
0.319603 0.533243 0.034587 -0.122302 0.288148 -0.949744
0.956225 0.075402 0.096546 0.978110 0.181975 0.100927
0.067189 0.420251 0.086727 -0.099788 -0.623438 0.775479
0.114028 0.541352 0.044403 -0.045181 0.961868 -0.269758
0.232880 0.371421 0.098982 -0.142885 -0.832380 0.535469
0.862236 0.085898 0.098982 0.191738 -0.007659 0.981416
0.315327 0.412243 0.034587 -0.047017 -0.205203 -0.977589
0.142443 0.390220 0.077016 -0.108024 -0.768035 0.631231
0.212509 0.532784 0.102289 -0.074088 0.254188 0.964313
0.106784 0.408908 0.098982 -0.126658 -0.185566 0.974435
0.262031 0.525724 0.098982 -0.068969 0.227928 0.971232
0.266661 0.541462 0.102289 -0.038433 0.522968 0.851485
0.783026 0.302557 0.098982 0.094420 0.006791 0.995509
0.731787 0.038117 0.050152 -0.467276 0.884071 -0.008452
0.852303 0.514078 0.075338 -0.133688 0.188155 0.972998
0.866744 0.200899 0.034587 0.172904 0.112241 -0.978522
0.160167 0.390220 0.095398 -0.113703 -0.582264 0.805009
0.825844 0.133830 0.104503 -0.279892 -0.152833 0.947788
0.623787 0.265453 0.081800 0.303900 -0.219313 0.927117
0.667588 0.555676 0.096639 0.083632 0.799067 0.595397
0.439732 0.420251 0.090202 -0.025278 -0.922229 0.385818
0.694563 0.346206 0.034587 -0.080773 -0.115355 -0.990035
0.627779 0.412164 0.098982 0.049637 -0.183545 0.981757
0.693763 0.438831 0.098982 0.066351 -0.075938 0.994902
0.035410 0.489111 0.053902 -0.072762 0.760770 0.644930
0.786785 0.224291 0.104503 0.148200 0.046501 0.987864
0.483822 0.369724 0.090870 0.313213 -0.752103 0.579860
0.065846 0.541238 0.070120 -0.030959 0.998585 -0.043229
0.760997 0.519440 0.095026 0.617209 0.049227 0.785258
0.145104 0.414325 0.098982 -0.115908 -0.174926 0.977735
0.385180 0.420251 0.048194 0.009684 -0.828375 -0.560091
0.825514 0.170432 0.098982 0.101300 0.080300 0.991610
0.413873 0.491872 0.102289 -0.007347 0.079462 0.996811
0.743121 0.456961 0.098982 0.080031 0.000374 0.996792
0.719734 0.172886 0.098982 -0.392281 -0.137942 0.909444
0.492059 0.495126 0.098982 -0.040693 0.126928 0.991077
0.084512 0.468991 0.098982 -0.130609 0.063046 0.989427
0.817200 0.343048 0.034531 0.470591 0.861717 -0.189704
0.616539 0.555676 0.097811 -0.167294 0.864691 0.473626
0.664921 0.546785 0.083527 0.072181 0.845867 0.528488
0.694419 0.279816 0.104503 -0.151911 -0.064293 0.986301
0.053633 0.520652 0.050791 0.004976 -0.665731 0.746175
0.694147 0.328948 0.098982 -0.087270 -0.060613 0.994339
0.689860 0.433623 0.034587 0.052612 -0.031705 -0.998112
0.816356 0.091416 0.025972 -0.356454 -0.068722 -0.931782
0.785257 0.286455 0.098982 0.053660 -0.029530 0.998123
0.683366 0.415312 0.098982 0.081664 -0.141164 0.986612
0.279762 0.546199 0.043345 -0.024814 0.927660 -0.372601
0.767278 0.047946 0.025972 -0.605466 -0.072280 -0.792582
0.800796 0.373497 0.098982 0.139065 -0.082440 0.986846
0.246594 0.420251 0.055551 -0.025650 -0.851366 -0.523944
0.622207 0.293351 0.058602 -0.882742 -0.428236 -0.193342
0.696873 0.455269 0.102289 0.095459 -0.185431 0.978010
0.610306 0.490841 0.102289 0.054115 0.066895 0.996291
0.692545 0.449094 0.034587 0.036247 0.034130 -0.998760
0.640792 0.526108 0.034587 -0.028270 0.334564 -0.941949
0.668064 0.511431 0.102289 0.060876 0.207262 0.976390
0.239403 0.387445 0.098982 -0.052814 -0.380381 0.923321
0.910988 0.412454 0.034587 0.720281 0.401711 -0.565530
0.880700 0.233429 0.034587 0.177526 0.103625 -0.978645
0.453296 0.298632 0.050388 0.429258 -0.055866 -0.901452
0.949509 0.085683 0.050594 0.575590 0.814507 -0.072635
0.794328 0.053923 0.110142 0.222412 -0.963483 0.149107
0.877918 0.025000 0.092790 -0.023923 -0.869974 0.492517
0.216138 0.378043 0.098982 -0.122144 -0.719613 0.683548
0.099249 0.494320 0.034587 -0.160359 0.116880 -0.980114
0.789731 0.335220 0.098982 0.104833 -0.050540 0.993205
0.246064 0.546147 0.093425 0.009224 0.979737 0.200074
0.855487 0.352064 0.098982 0.231095 -0.064775 0.970773
0.693692 0.553083 0.104502 0.220377 0.605483 0.764738
0.777182 0.493867 0.072257 0.926002 -0.326071 0.190255
0.806489 0.175627 0.034587 0.039716 0.060727 -0.997364
0.292569 0.436232 0.098982 -0.074578 -0.125134 0.989333
0.413093 0.486290 0.098982 -0.060061 0.103032 0.992863
0.884231 0.544963 0.074435 0.393977 0.887219 0.240052
0.654588 0.267110 0.034587 -0.396846 -0.202260 -0.895324
0.256508 0.527129 0.030040 -0.143792 0.208942 -0.967299
0.782425 0.316657 0.034587 0.072034 -0.057909 -0.995720
0.163052 0.541468 0.065416 -0.027209 0.984741 -0.171886
0.797379 0.348203 0.025972 0.274761 0.893171 -0.356022
0.819021 0.342001 0.040366 0.509542 0.848380 -0.143592
0.296474 0.496709 0.098982 -0.077087 0.139664 0.987194
0.479026 0.443547 0.034587 -0.031352 -0.038059 -0.998784
0.218258 0.379339 0.098982 -0.113500 -0.678136 0.726120
0.046172 0.545843 0.051278 -0.043520 0.992328 -0.115725
0.680729 0.345625 0.104503 -0.578109 0.386929 0.718384
0.332372 0.432218 0.030040 0.057062 -0.376195 -0.924782
0.715443 0.074431 0.084488 -0.246729 -0.030924 0.968591
0.319262 0.366936 0.061630 -0.083256 -0.958212 0.273676
0.118932 0.451247 0.098982 -0.132363 0.006993 0.991177
0.723136 0.025000 0.054939 -0.076948 -0.996840 -0.019725
0.803359 0.420251 0.097504 0.026349 -0.977704 0.208328
0.210127 0.541579 0.060015 -0.027322 0.964843 -0.261404
0.868693 0.211049 0.025972 0.564406 0.269229 -0.780360
0.805167 0.177658 0.025972 -0.169981 -0.130748 -0.976735
0.105461 0.538472 0.034587 -0.097728 0.823007 -0.559560
0.758162 0.186874 0.025972 -0.302980 -0.143758 -0.942092
0.619891 0.466697 0.026441 -0.145800 -0.686590 -0.712276
0.737263 0.440835 0.102289 0.089440 -0.478239 0.873664
0.299060 0.493407 0.030040 -0.070245 0.024882 -0.997219
0.551413 0.501922 0.102289 0.029679 0.152008 0.987934
0.712832 0.247451 0.025972 -0.275620 -0.120584 -0.953674
0.419447 0.371725 0.098982 -0.032298 -0.391403 0.919652
0.777719 0.116651 0.034587 0.035904 0.075709 -0.996483
0.474452 0.360487 0.063486 0.418536 -0.905710 0.067204
0.216213 0.541594 0.075782 -0.014951 0.988675 -0.149326
0.463912 0.438185 0.034587 -0.033360 -0.062895 -0.997462
0.889756 0.536541 0.072978 0.720015 0.543628 0.431332
0.214891 0.434250 0.030040 0.011476 -0.406425 -0.913612
0.046801 0.485252 0.084474 -0.021901 -0.752039 0.658755
0.476092 0.420251 0.074833 -0.003183 -0.988912 -0.148470
0.185409 0.546055 0.059359 -0.023993 0.980220 -0.196449
0.892989 0.098231 0.104503 -0.137854 -0.114406 0.983823
0.040584 0.488721 0.092962 -0.166784 -0.030120 0.985533
0.840579 0.175469 0.025972 0.161183 -0.058559 -0.985186
0.882026 0.132338 0.025972 0.037178 -0.247388 -0.968203
0.891944 0.430330 0.080092 0.682766 0.409141 0.605338
0.776980 0.170902 0.034587 -0.155550 -0.004181 -0.987819
0.894740 0.098537 0.025972 -0.106275 -0.126946 -0.986200
0.885926 0.074746 0.104503 0.530713 0.107325 0.840729
0.764322 0.359698 0.080791 0.192525 0.971258 0.139973
0.752628 0.267615 0.034587 -0.108071 -0.106806 -0.988389
0.645806 0.334777 0.034587 -0.184035 -0.093780 -0.978436
0.560821 0.465035 0.102289 0.051187 -0.111628 0.992431
0.472958 0.366993 0.059689 -0.569676 0.806426 -0.158578
0.970403 0.084693 0.061298 0.944021 0.072337 -0.321856
0.471424 0.364447 0.081800 -0.570108 0.752251 0.330296
0.334870 0.546282 0.032653 -0.025797 0.879737 -0.474761
0.155917 0.480835 0.102289 -0.076067 -0.030747 0.996629
0.692039 0.270242 0.098982 -0.217135 -0.134799 0.966789
0.824949 0.449610 0.091725 0.160873 -0.343661 0.925212
0.030461 0.541155 0.095696 -0.015258 0.986641 0.162194
0.943757 0.088620 0.107714 0.299793 0.943369 0.142054
0.329206 0.514495 0.098982 -0.062012 0.192103 0.979414
0.593602 0.297320 0.070183 0.772810 -0.119120 0.623359
0.745818 0.209719 0.034587 -0.249688 -0.078085 -0.965173
0.491510 0.369724 0.095457 0.277353 -0.720055 0.636079
0.711171 0.125697 0.086898 -0.611262 -0.182040 0.770208
0.117186 0.451424 0.102289 -0.076123 -0.197348 0.977374
0.714099 0.090564 0.089046 -0.328513 -0.078286 0.941249
0.737375 0.134166 0.098982 -0.296260 -0.080021 0.951749
0.130902 0.400864 0.034587 -0.087935 -0.259771 -0.961658
0.102767 0.445230 0.034587 -0.127581 -0.043979 -0.990853
0.738707 0.120984 0.101577 -0.695560 -0.175896 0.696604
0.472054 0.355957 0.083559 0.376768 -0.818427 0.433847
0.173118 0.435032 0.102289 -0.052738 -0.283381 0.957556
0.398602 0.420251 0.081333 -0.025813 -0.987105 0.157978
0.148811 0.423260 0.034587 -0.099408 -0.126478 -0.986976
0.638282 0.465494 0.044614 -0.163118 -0.855540 -0.491369
0.422642 0.420251 0.069943 -0.007959 -0.968512 -0.248838
0.524463 0.379048 0.034587 0.162233 -0.662931 -0.730892
0.185351 0.541521 0.088101 -0.008537 0.999671 0.024192
0.081659 0.503940 0.098982 -0.113871 0.169908 0.978859
0.167722 0.435197 0.102289 -0.054514 -0.282057 0.957848
0.329812 0.420251 0.068746 -0.026152 -0.978571 -0.204240
0.585742 0.547273 0.104502 -0.314063 0.767569 0.558751
0.606034 0.344714 0.070544 -0.670913 -0.734971 0.098455
0.780693 0.056607 0.114464 -0.579444 -0.790973 0.196485
0.806155 0.111189 0.104503 -0.465633 -0.154640 0.871363
0.729278 0.037459 0.034291 -0.175736 0.984320 -0.015225
0.637640 0.402088 0.098982 0.147940 -0.279735 0.948611
0.439163 0.339424 0.045075 -0.147980 -0.978837 -0.141349
0.815319 0.420251 0.053576 0.074760 -0.974468 -0.211714
0.770819 0.331698 0.034587 0.029979 -0.095386 -0.994989
0.107522 0.487545 0.098982 -0.117282 0.119123 0.985928
0.775032 0.315061 0.055537 -0.993580 0.100912 -0.051148
0.137996 0.433878 0.034587 -0.110267 -0.074015 -0.991142
0.837091 0.222807 0.034587 0.021295 0.046752 -0.998680
0.839179 0.275958 0.082720 0.825142 0.493081 0.275702
0.774534 0.047571 0.098982 -0.218589 -0.242305 0.945255
0.176917 0.420251 0.079259 -0.080386 -0.900868 0.426584
0.416921 0.442343 0.034587 -0.035551 -0.064971 -0.997254
0.167661 0.447677 0.098982 -0.124820 -0.006005 0.992161
0.740687 0.318545 0.098982 0.007465 -0.031644 0.999471
0.501540 0.251308 0.068116 -0.046331 -0.989499 0.136915
0.782132 0.326672 0.037657 -0.578043 0.807682 -0.116258
0.783694 0.542100 0.037153 0.043251 0.637803 -0.768984
0.110151 0.545940 0.054830 -0.034996 0.987673 -0.152570
0.513299 0.480857 0.102289 0.028765 0.003694 0.999579
0.769871 0.470990 0.025971 0.616892 -0.269804 -0.739358
0.825039 0.150778 0.098982 0.106328 0.080495 0.991068
0.643744 0.296816 0.034587 -0.294543 -0.118087 -0.948314
0.748041 0.292190 0.034587 -0.038231 -0.067848 -0.996963
0.827591 0.324706 0.034587 0.157980 -0.073939 -0.984670
0.050532 0.500640 0.102289 -0.110013 0.057638 0.992258
0.860006 0.045228 0.104503 -0.369414 -0.625677 0.687067
0.783884 0.213233 0.025972 -0.073101 -0.151051 -0.985819
0.332464 0.438086 0.034587 -0.057669 -0.075171 -0.995502
0.886545 0.102029 0.034587 0.287033 0.143562 -0.947102
0.630467 0.546732 0.089381 0.065538 0.780235 0.622043
0.575934 0.488921 0.030040 0.054675 0.137356 -0.989012
0.719151 0.536688 0.030040 0.018485 0.519827 -0.854071
0.803013 0.059832 0.108771 0.747596 -0.648115 0.145077
0.694183 0.054773 0.086208 -0.491109 0.021768 0.870826
0.687992 0.421819 0.030040 0.082229 -0.837961 -0.539499
0.039585 0.419791 0.070010 -0.708602 -0.518312 0.478785
0.667721 0.420251 0.070673 0.035051 -0.989762 -0.138353
0.458585 0.460856 0.102289 0.021597 -0.133023 0.990878
0.848189 0.354663 0.098982 0.217027 -0.071166 0.973568
0.881792 0.200887 0.104503 0.594022 0.289008 0.750741
0.349920 0.416849 0.098982 -0.035579 -0.268531 0.962614
0.784818 0.369925 0.034587 0.075536 -0.120605 -0.989823
0.704905 0.171317 0.034587 -0.405888 -0.119001 -0.906142
0.038069 0.486325 0.085871 -0.055537 -0.685714 0.725749
0.628294 0.321653 0.036290 -0.267286 -0.080314 -0.960265
0.932946 0.025000 0.080656 0.064781 -0.932348 0.355711
0.537823 0.402346 0.034587 -0.016658 -0.170520 -0.985213
0.807370 0.051907 0.025972 -0.511429 -0.302750 -0.804229
0.778709 0.320932 0.034587 0.059195 -0.068623 -0.995885
0.433016 0.478532 0.098982 -0.058673 0.075092 0.995449
0.772518 0.501819 0.030040 0.102977 0.298258 -0.948914
0.041677 0.436401 0.098982 -0.153274 -0.035226 0.987556
0.839635 0.129363 0.025972 -0.197207 -0.150427 -0.968752
0.301683 0.485583 0.030040 -0.054000 -0.026699 -0.998184
0.457480 0.338346 0.054988 0.310478 -0.945840 -0.094811
0.108749 0.406417 0.098982 -0.122757 -0.203967 0.971251
0.785360 0.433121 0.034587 0.117153 -0.028677 -0.992700
0.462683 0.338256 0.036882 0.500766 -0.805417 -0.317076
0.662160 0.420251 0.078734 0.025107 -0.998104 -0.056204
0.654545 0.498122 0.104502 -0.195929 -0.127278 0.972323
0.698520 0.420251 0.038558 0.070792 -0.901867 -0.426174
0.589828 0.336002 0.066990 0.892329 0.391218 0.225159
0.642458 0.420251 0.041420 0.059816 -0.896146 -0.439709
0.692241 0.025607 0.098982 -0.212695 -0.903556 0.371950
0.025000 0.489147 0.045630 -0.115222 -0.709704 -0.695014
0.459376 0.360360 0.034587 0.208953 -0.689517 -0.693472
0.378663 0.407273 0.098982 -0.033124 -0.292675 0.955638
0.760482 0.465494 0.038529 0.585123 -0.532724 -0.611422
0.126660 0.473703 0.030040 -0.099057 -0.203890 -0.973970
0.310009 0.387325 0.034587 -0.051003 -0.287055 -0.956555
0.871897 0.025000 0.065437 0.043037 -0.994047 0.100097
0.835146 0.074179 0.104503 0.359223 0.123103 0.925097
0.965069 0.099363 0.079227 0.752111 0.101286 0.651206
0.770369 0.300957 0.104503 -0.157594 0.100793 0.982347
0.096254 0.431747 0.034587 -0.120017 -0.089251 -0.988752
0.908870 0.383544 0.062301 0.631759 -0.725553 -0.272863
0.745492 0.050304 0.025972 -0.644325 0.005297 -0.764733
0.580814 0.367163 0.078657 -0.088343 -0.934265 0.345464
0.440686 0.401266 0.034587 -0.041422 -0.199749 -0.978971
0.627242 0.525349 0.098982 -0.000372 0.212475 0.977166
0.179278 0.390220 0.093973 -0.086438 -0.517442 0.851341
0.518182 0.493433 0.034587 -0.042594 0.205879 -0.977650
0.793381 0.318242 0.104503 -0.026849 0.444176 0.895537
0.521704 0.442571 0.034587 -0.028814 -0.025959 -0.999248
0.703297 0.030958 0.034587 -0.120144 -0.863928 -0.489075
0.240342 0.461637 0.102289 -0.046331 -0.122021 0.991446
0.309906 0.546244 0.059569 -0.009563 0.948827 -0.315652
0.686312 0.529359 0.034587 -0.017472 0.353518 -0.935264
0.717781 0.309325 0.034587 -0.063791 -0.049297 -0.996745
0.222865 0.488581 0.102289 -0.060119 0.024441 0.997892
0.780606 0.025000 0.035137 0.025314 -0.901003 -0.433073
0.458805 0.337247 0.056125 0.677502 0.669711 -0.304101
0.375347 0.376670 0.098982 -0.037219 -0.385568 0.921929
0.310698 0.425824 0.034587 -0.054668 -0.139841 -0.988664
0.029923 0.532398 0.058180 -0.086673 0.919163 -0.384223
0.722827 0.182276 0.098982 -0.363353 -0.130861 0.922415
0.709392 0.271081 0.098982 -0.174730 -0.121276 0.977119
0.112490 0.420251 0.061703 -0.078894 -0.968347 -0.236812
0.441042 0.366299 0.098982 0.052238 -0.482400 0.874392
0.772776 0.546949 0.081781 0.091773 0.755290 0.648934
0.339775 0.546290 0.091511 0.020948 0.962653 0.269925
0.725398 0.237457 0.034587 -0.256840 -0.114449 -0.959653
0.487677 0.546515 0.034108 -0.007026 0.799847 -0.600162
0.040584 0.534738 0.069870 -0.626408 0.686935 0.368420
0.916604 0.140057 0.104503 0.496007 0.174418 0.850620
0.573069 0.527756 0.098982 -0.009452 0.221768 0.975054
0.282100 0.541749 0.093641 0.002948 0.939660 0.342097
0.752886 0.452452 0.098982 0.090289 -0.005234 0.995902
0.792204 0.455473 0.098982 0.111284 0.025731 0.993455
0.592160 0.481610 0.034587 -0.016094 0.141719 -0.989776
0.501472 0.369724 0.044273 0.142334 -0.868936 -0.474016
0.756044 0.527265 0.030362 0.408419 0.481715 -0.775336
0.794676 0.477962 0.030040 0.152054 0.130875 -0.979669
0.263223 0.536275 0.102289 -0.061372 0.280647 0.957847
0.025000 0.493206 0.045562 -0.566290 -0.806760 -0.168681
0.655698 0.338823 0.034587 -0.156481 -0.099932 -0.982612
0.893960 0.188032 0.071844 0.897294 0.425666 0.116926
0.707768 0.474301 0.025971 0.309733 -0.442408 -0.841630
0.800241 0.294713 0.025972 0.464847 0.046789 -0.884154
0.957017 0.121508 0.043314 0.530209 0.237358 -0.813965
0.558822 0.416584 0.098982 0.001271 -0.215844 0.976427
0.778488 0.210737 0.098982 -0.155397 -0.036591 0.987174
0.275742 0.386864 0.034587 -0.052939 -0.299022 -0.952777
0.287323 0.498686 0.034587 -0.111364 0.172311 -0.978727
0.585346 0.540183 0.030040 -0.039055 0.464676 -0.884619
0.754377 0.208349 0.104503 -0.235363 -0.112289 0.965399
0.835935 0.215629 0.034587 0.049694 0.057436 -0.997112
0.518922 0.546563 0.078624 0.040676 0.990942 0.127984
0.330276 0.527001 0.034587 -0.115918 0.271428 -0.955453
0.725722 0.295446 0.104503 0.120693 0.009286 0.992646
0.881923 0.433670 0.058152 0.793470 0.608001 -0.027208
0.228560 0.430415 0.034587 -0.082193 -0.100703 -0.991516
0.800453 0.342597 0.104503 0.267681 0.845889 0.461323
0.762109 0.497361 0.098982 0.053094 0.114447 0.992010
0.299796 0.540065 0.034587 -0.062302 0.749789 -0.658737
0.085600 0.479175 0.102289 -0.094484 -0.052468 0.994143
0.711647 0.465494 0.081576 0.048013 -0.965745 0.255011
0.771576 0.420251 0.035769 0.083669 -0.912072 -0.401403
0.798271 0.104110 0.104503 -0.425433 -0.112109 0.898019
0.075268 0.514881 0.102289 -0.106778 0.137570 0.984720
0.966677 0.052546 0.034587 0.336300 -0.254315 -0.906767
0.654454 0.353845 0.034587 -0.102619 -0.110871 -0.988523
0.912018 0.195388 0.067110 0.841794 0.514731 0.162591
0.726970 0.109238 0.098982 -0.246292 -0.063468 0.967115
0.761304 0.140490 0.034587 -0.110988 0.016043 -0.993692
0.870500 0.116854 0.098982 0.221547 0.123273 0.967327
0.786509 0.420251 0.032627 0.088075 -0.904369 -0.417563
0.464061 0.386945 0.034587 -0.042356 -0.239237 -0.970037
0.854662 0.236726 0.025972 0.559469 0.288760 -0.776925
0.121725 0.541370 0.095989 -0.008575 0.979231 0.202568
0.162967 0.546021 0.050489 -0.032611 0.973872 -0.224745
0.700024 0.427380 0.102289 0.034790 -0.804637 0.592747
0.671088 0.546794 0.094501 0.068856 0.648495 0.758099
0.467803 0.546485 0.040604 -0.004679 0.830034 -0.557693
0.905205 0.138469 0.034587 0.314102 0.199185 -0.928259
0.481409 0.383434 0.098982 -0.016014 -0.339488 0.940474
0.768826 0.292671 0.025972 0.306146 0.066886 -0.949632
0.567023 0.428907 0.034587 -0.028619 -0.058778 -0.997861
0.723101 0.546873 0.031599 0.017672 0.633075 -0.773889
0.357235 0.474887 0.102289 -0.017873 -0.026875 0.999479
0.827701 0.288995 0.025972 0.629105 0.206951 -0.749265
0.586276 0.420251 0.048136 0.044779 -0.906333 -0.420184
0.388172 0.366347 0.055275 -0.095300 -0.904016 -0.416741
0.879924 0.145417 0.034587 0.251037 0.167597 -0.953358
0.699657 0.515977 0.102289 0.067965 0.235279 0.969549
0.771461 0.349631 0.025972 0.119885 0.855717 -0.503365
0.751562 0.474584 0.030040 0.143427 0.091289 -0.985442
0.607540 0.494386 0.102289 0.051400 0.092594 0.994376
0.920429 0.128016 0.098982 0.326577 0.159216 0.931664
0.149797 0.541437 0.078714 -0.018407 0.998088 -0.059001
0.463809 0.461327 0.102289 0.022990 -0.130166 0.991226
0.385139 0.491082 0.098982 -0.063036 0.118895 0.990904
0.470647 0.255203 0.050388 -0.048212 -0.738397 -0.672640
0.790755 0.087253 0.025972 -0.298570 -0.044420 -0.953354
0.487721 0.439374 0.030040 0.104295 -0.259715 -0.960037
0.458260 0.411330 0.034587 -0.038658 -0.159553 -0.986432
0.158107 0.416903 0.098982 -0.113115 -0.166160 0.979590
0.308118 0.546242 0.048623 -0.017840 0.927871 -0.372476
0.740187 0.042463 0.034587 -0.218402 -0.382822 -0.897635
0.766676 0.465494 0.075236 0.409632 -0.910136 0.062085
0.777925 0.079548 0.034587 0.060426 0.077776 -0.995138
0.831331 0.370585 0.098982 0.188213 -0.078029 0.979024
0.440117 0.542123 0.038865 -0.021117 0.770451 -0.637150
0.615526 0.475540 0.034563 -0.283957 -0.688558 -0.667275
0.813731 0.025000 0.092992 -0.084905 -0.898562 0.430554
0.808619 0.488317 0.100574 0.123270 0.037288 0.991672
0.674003 0.542676 0.058099 0.020097 0.801283 -0.597948
0.840914 0.492949 0.075338 -0.408657 -0.295151 0.863647
0.851730 0.255813 0.033558 0.649164 0.356624 -0.671866
0.869210 0.121663 0.098982 0.216986 0.121920 0.968531
0.776331 0.306569 0.092403 -0.919528 -0.383812 0.084599
0.835855 0.516975 0.075338 -0.449006 -0.079298 0.890003
0.464923 0.420251 0.084028 -0.014802 -0.986813 0.161187
0.704992 0.309795 0.104503 -0.566975 -0.031978 0.823114
0.507213 0.387435 0.034587 -0.019872 -0.230914 -0.972771
0.723846 0.166348 0.098982 -0.398683 -0.134011 0.907245
0.248287 0.545418 0.102289 0.007349 0.867755 0.496938
0.972149 0.079893 0.067927 0.995183 -0.017926 0.096378
0.783836 0.160981 0.034587 -0.050833 0.032941 -0.998164
0.731599 0.485225 0.030040 0.118816 0.163451 -0.979370
0.616674 0.532456 0.025971 -0.521721 0.140469 -0.841472
0.534492 0.250444 0.060236 -0.040089 -0.963130 -0.266032
0.923874 0.060518 0.098982 0.220455 -0.307036 0.925813
0.645935 0.439670 0.030040 0.139803 -0.341234 -0.929524
0.543689 0.502657 0.098982 -0.027179 0.147800 0.988644
0.889316 0.428527 0.098982 0.564310 0.165339 0.808837
0.854761 0.299757 0.098982 0.234408 0.027444 0.971751
0.466411 0.468034 0.030040 0.050181 -0.071742 -0.996160
0.086413 0.425134 0.098982 -0.149639 -0.071251 0.986170
0.901527 0.051273 0.104503 0.200395 0.275170 0.940278
0.250972 0.541676 0.077522 -0.010370 0.984773 -0.173535
0.304086 0.541801 0.098919 0.007777 0.849521 0.527498
0.432461 0.359241 0.034587 -0.039210 -0.507774 -0.860598
0.791399 0.228876 0.104503 0.204064 0.083353 0.975403
0.748368 0.167681 0.104503 -0.474527 -0.184967 0.860588
0.757552 0.268726 0.034587 -0.090907 -0.101644 -0.990659
0.327117 0.542557 0.030040 -0.099152 0.583457 -0.806069
0.543868 0.408631 0.034587 -0.020134 -0.144801 -0.989256
0.711712 0.540441 0.102289 0.057669 0.382781 0.922037
0.931248 0.117768 0.098982 0.344184 0.106276 0.932868
0.778149 0.248842 0.104503 0.229926 0.118445 0.965974
0.944404 0.088352 0.111552 0.340340 0.927164 0.156638
0.799898 0.251524 0.034587 -0.038458 -0.016244 -0.999128
0.461568 0.330717 0.074002 0.873013 0.158763 0.461131
0.308645 0.492612 0.034587 -0.101669 0.157162 -0.982326
0.135164 0.420251 0.062182 -0.071464 -0.967357 -0.243133
0.353909 0.537459 0.098982 -0.030840 0.437915 0.898487
0.906798 0.113131 0.025972 0.086111 -0.252863 -0.963662
0.591230 0.511997 0.034587 -0.033487 0.281042 -0.959111
0.730123 0.554735 0.104502 0.371809 0.508111 0.776905
0.929639 0.125325 0.025972 0.633918 0.236018 -0.736508
0.717403 0.255470 0.098982 -0.196189 -0.121533 0.973005
0.925786 0.038133 0.062377 -0.112969 -0.986153 -0.121409
0.046987 0.545419 0.102289 -0.012772 0.973469 0.228460
0.026202 0.478925 0.064194 -0.101248 -0.994856 -0.003256
0.327203 0.541856 0.040475 -0.030625 0.855774 -0.516442
0.755527 0.440150 0.030040 0.165910 -0.396570 -0.902888
0.619256 0.405521 0.098982 0.050416 -0.204924 0.977479
0.714718 0.308604 0.034587 -0.074349 -0.052722 -0.995838
0.324947 0.420251 0.081933 -0.043329 -0.957623 0.284747
0.884344 0.203467 0.092141 0.745626 0.370414 0.553927
0.589135 0.441606 0.030040 0.131128 -0.245710 -0.960433
0.451046 0.546459 0.074877 0.023813 0.995444 -0.092327
0.043748 0.420251 0.061584 -0.108743 -0.982684 -0.150024
0.725044 0.196829 0.034587 -0.321417 -0.101747 -0.941456
0.561385 0.419636 0.034587 -0.021301 -0.098201 -0.994939
0.143832 0.541422 0.059742 -0.032744 0.980562 -0.193459
0.665175 0.542655 0.065614 0.030721 0.950043 -0.310604
0.667577 0.465494 0.063215 -0.110730 -0.986487 -0.120760
0.891207 0.151458 0.025972 0.531295 0.196087 -0.824182
0.809742 0.116007 0.025972 -0.425521 -0.155080 -0.891562
0.463931 0.537179 0.102289 -0.007921 0.322891 0.946403
0.039585 0.466465 0.096227 -0.156885 0.060697 0.985750
0.960346 0.112352 0.059940 0.871244 0.307276 -0.382773
0.467819 0.358186 0.081800 -0.778718 0.353591 0.518239
0.714816 0.103644 0.098982 -0.311698 -0.090144 0.945895
0.461072 0.307176 0.068669 0.970455 -0.069340 0.231102
0.742331 0.414673 0.034587 0.088893 -0.320520 -0.943061
0.940246 0.089096 0.072161 0.064880 0.997851 0.009148
0.099709 0.486803 0.030040 -0.133276 -0.132934 -0.982123
0.623748 0.451092 0.030040 0.135539 -0.126232 -0.982698
0.703245 0.253498 0.034587 -0.283727 -0.150624 -0.947001
0.484856 0.502667 0.098982 -0.038374 0.150231 0.987906
0.235015 0.546130 0.077012 -0.005269 0.989953 -0.141301
0.574208 0.323776 0.065063 -0.966134 -0.183153 -0.181771
0.768777 0.358775 0.089804 0.210887 0.955141 0.207925
0.741113 0.038634 0.034587 -0.179848 -0.540598 -0.821832
0.324999 0.516921 0.098982 -0.061588 0.199503 0.977960
0.586634 0.543283 0.025971 -0.675860 0.186849 -0.712952
0.148107 0.420251 0.031423 -0.012759 -0.609826 -0.792433
0.521111 0.413783 0.098982 -0.013651 -0.240845 0.970468
0.717968 0.079925 0.034587 -0.114040 0.024774 -0.993167
0.480469 0.485763 0.034587 -0.048428 0.169419 -0.984354
0.479861 0.410414 0.034587 -0.037506 -0.155211 -0.987169
0.810700 0.064608 0.104503 0.057251 0.137738 0.988813
0.828062 0.334084 0.037948 0.775304 0.620715 -0.116687
0.360667 0.457986 0.034587 -0.064151 0.032311 -0.997417
0.770886 0.225116 0.025972 -0.067894 -0.119055 -0.990564
0.462378 0.381788 0.034587 -0.043250 -0.256392 -0.965605
0.569977 0.420251 0.086500 0.001834 -0.993733 0.111769
0.619558 0.427762 0.034587 0.010317 -0.060368 -0.998123
0.152719 0.401833 0.034587 -0.081406 -0.240544 -0.967218
0.725416 0.546877 0.085655 0.081365 0.739108 0.668655
0.586220 0.534902 0.075821 -0.795332 0.560228 0.231498
0.126954 0.479108 0.102289 -0.083363 -0.045476 0.995481
0.122022 0.491447 0.034587 -0.152463 0.112457 -0.981890
0.922093 0.068070 0.086413 -0.980098 -0.188248 0.063019
0.541023 0.420251 0.054535 0.030800 -0.918655 -0.393859
0.883523 0.204784 0.077339 0.871843 0.436488 0.222189
0.687725 0.046677 0.070397 -0.838667 -0.544578 0.008469
0.787507 0.254034 0.025972 0.257483 0.138316 -0.956332
0.692734 0.492582 0.102289 0.078722 0.071753 0.994311
0.727371 0.361676 0.046094 -0.067046 0.969705 -0.234900
0.542766 0.250290 0.063894 -0.046477 -0.996566 -0.068521
0.814800 0.040835 0.104503 -0.514334 -0.272575 0.813120
0.790279 0.527891 0.065204 0.212036 0.976892 -0.026885
0.600384 0.506210 0.055502 -0.930708 -0.299009 -0.210654
0.825847 0.204570 0.098982 0.044702 0.062266 0.997058
0.761772 0.230855 0.025972 -0.108338 -0.137904 -0.984503
0.866037 0.051061 0.025972 -0.061932 -0.500741 -0.863379
0.504512 0.433263 0.034587 -0.031741 -0.065835 -0.997326
0.749367 0.316220 0.025972 -0.376887 0.189330 -0.906703
0.608264 0.440852 0.102289 0.065372 -0.343982 0.936698
0.034206 0.479451 0.073355 -0.070335 -0.951840 0.298420
0.084298 0.453781 0.034587 -0.138353 -0.019672 -0.990188
0.126847 0.526084 0.098982 -0.094007 0.233972 0.967688
0.306970 0.420251 0.063313 -0.023688 -0.934143 -0.356112
0.881717 0.074671 0.104503 0.520645 0.109338 0.846743
0.757243 0.480356 0.104502 0.236035 -0.669278 0.704524
0.262883 0.423304 0.030040 0.017130 -0.589595 -0.807517
0.460489 0.420251 0.049521 0.021787 -0.867533 -0.496903
0.794822 0.307025 0.098982 0.117644 0.001440 0.993055
0.237452 0.485898 0.034587 -0.117365 0.119428 -0.985882
0.747938 0.540074 0.064624 0.643031 0.764467 0.045851
0.730823 0.178942 0.098982 -0.353426 -0.120362 0.927687
0.610564 0.485591 0.072233 -0.741706 -0.586444 0.325509
0.436267 0.484636 0.030040 0.005529 0.047225 -0.998869
0.570536 0.527861 0.030040 -0.023399 0.399770 -0.916317
0.804211 0.190622 0.104503 -0.064018 -0.152825 0.986178
0.932946 0.125457 0.095949 0.606632 0.207932 0.767308
0.208227 0.541575 0.079933 -0.012439 0.994014 -0.108540
0.242633 0.367591 0.087965 -0.142763 -0.923446 0.356182
0.233763 0.458548 0.030040 -0.027606 -0.249619 -0.967950
0.132384 0.420251 0.048941 -0.040953 -0.777352 -0.627732
0.606066 0.364921 0.076719 0.264466 0.907148 0.327322
0.477009 0.541901 0.098982 0.019416 0.647477 0.761837
0.669623 0.425275 0.098982 0.063863 -0.125058 0.990092
0.892549 0.190296 0.051892 0.837754 0.397332 -0.374559
0.809200 0.376012 0.098982 0.149699 -0.076531 0.985765
0.725049 0.025000 0.043076 -0.044156 -0.990132 -0.133002
0.564494 0.369166 0.057093 0.045996 0.976158 -0.212132
0.100568 0.534561 0.030040 -0.207891 0.159860 -0.965001
0.792327 0.232745 0.034587 -0.090201 -0.020606 -0.995710
