0.098373 0.426274 0.607040 -0.142165 0.168706 -0.975360
0.095103 0.532162 0.839292 -0.567546 -0.821637 0.052950
0.164413 0.304484 0.173521 0.997621 -0.047887 -0.049585
0.065538 0.661068 0.216895 -0.902353 0.430840 -0.011672
0.120763 0.611471 0.484620 0.545731 -0.807465 0.224005
0.025000 0.337997 0.160350 -0.995019 0.000000 0.099685
0.165969 0.628094 0.167511 0.777185 0.627815 0.042813
0.094884 0.398713 0.397591 -0.128703 0.685229 0.716866
0.118268 0.470530 0.597206 0.390283 -0.609327 -0.690217
0.072305 0.305738 0.337362 -0.286521 -0.293619 0.911972
0.142463 0.632136 0.876298 -0.999972 -0.002500 -0.007034
0.154328 0.277628 0.135367 0.991165 -0.024611 -0.130332
0.082513 0.613811 0.701323 -0.592313 -0.796015 0.124600
0.069159 0.635716 0.519589 -0.974231 -0.214538 0.069629
0.038830 0.407589 0.342087 -0.172904 0.000000 0.984939
0.036272 0.625115 0.492149 -1.000000 0.000000 0.000000
0.064154 0.649143 0.214886 -1.000000 0.000000 0.000000
0.156463 0.531132 0.607657 0.980903 -0.083981 0.175431
0.178891 0.237762 0.107878 0.292095 0.000000 0.956389
0.152548 0.459869 0.203564 0.927764 0.127862 -0.350579
0.170345 0.598824 0.608285 1.000000 0.000000 0.000000
0.047869 0.368080 0.330854 -0.912461 0.000000 0.409163
0.137192 0.545189 0.814351 -0.947485 0.319039 0.022050
0.147675 0.592736 0.693586 -0.605388 -0.795924 -0.003232
0.054069 0.478682 0.230418 -0.719573 0.198605 -0.665410
0.088523 0.506954 0.198826 -0.061299 0.376832 -0.924251
0.095059 0.619148 0.702581 0.071638 0.956485 0.282851
0.154328 0.237317 0.134787 0.991113 -0.037290 -0.127691
0.082286 0.678530 0.353693 -0.512869 0.858404 0.010357
0.104180 0.392357 0.328406 0.000624 -0.263604 0.964631
0.042204 0.544779 0.299320 -0.999834 0.003381 0.017899
0.164558 0.532178 0.485307 0.990697 -0.113419 0.075201
0.164413 0.535840 0.297115 0.999953 0.009276 -0.002810
0.127615 0.085105 0.107553 -0.020495 -0.989767 0.141214
0.101205 0.606921 0.550253 -0.056333 -0.973719 0.220677
0.130216 0.532443 0.934331 0.873965 -0.399903 0.276156
0.142463 0.608651 0.367948 -0.999253 -0.029361 -0.025120
0.052289 0.117835 0.050370 -0.988347 -0.015781 -0.151399
0.128367 0.666972 0.448672 0.710804 0.691642 0.128020
0.178420 0.411249 0.169593 0.300655 0.000000 0.953733
0.042568 0.545490 0.455135 -0.960376 0.231032 0.155894
0.121467 0.652543 0.905529 -0.873022 -0.487107 0.023622
0.150052 0.107642 0.286631 0.405067 -0.200078 0.892126
0.118217 0.080475 0.030649 0.120450 -0.286521 -0.950472
0.164691 0.396723 0.351239 0.986780 0.017948 0.161072
0.095885 0.279963 0.305320 0.008418 -0.307495 0.951513
0.054662 0.579885 0.629823 0.997926 0.064285 -0.003428
0.089934 0.156682 0.034122 -0.112075 0.308420 -0.944625
0.163850 0.064747 0.270154 0.809735 -0.586431 0.020681
0.137464 0.635781 0.600802 0.982843 -0.181166 0.034626
0.118556 0.363065 0.485652 0.030382 0.999192 0.026324
0.064154 0.615546 0.356559 1.000000 0.000000 0.000000
0.085511 0.628183 0.110053 0.772083 0.513265 0.374764
0.055400 0.057629 0.197847 -0.228497 0.973005 0.032409
0.110807 0.661362 0.799306 -0.347089 -0.937475 -0.025869
0.147802 0.521149 0.624888 0.986720 -0.158429 0.035834
0.152548 0.078992 0.230562 0.992600 -0.046829 -0.112034
0.096133 0.366491 0.530277 -0.127185 0.973222 -0.191473
0.065288 0.035954 0.173481 -0.120280 -0.968650 -0.217371
0.137717 0.601894 0.690599 0.936142 -0.351277 0.015588
0.060146 0.644396 0.860811 -0.925127 0.379658 -0.000001
0.100935 0.501474 0.777854 -0.040365 -0.999185 0.000000
0.162438 0.548116 0.169524 0.766642 -0.571586 0.292487
0.124648 0.641579 0.628928 -0.991644 0.122369 0.040851
0.154328 0.184458 0.096277 0.993897 -0.050318 -0.098171
0.077449 0.548616 0.334780 0.759538 0.649435 0.036539
0.052289 0.081512 0.107683 -0.980538 -0.189559 -0.051114
0.091769 0.659275 0.639305 0.607311 -0.791773 -0.065345
0.175557 0.540582 0.212748 -0.682025 0.427155 0.593616
0.040194 0.627995 0.222741 -0.300360 0.953098 -0.037265
0.160361 0.280628 0.318908 0.760544 -0.187967 0.621483
0.036272 0.607127 0.200840 -1.000000 0.000000 0.000000
0.152548 0.360419 0.223067 0.967486 0.083669 -0.238686
0.075391 0.579685 0.510880 -0.914146 -0.396430 0.084737
0.145286 0.523273 0.834128 0.927237 -0.374475 0.000000
0.117393 0.088477 0.232886 -0.040546 -0.975850 -0.214644
0.115521 0.607953 0.940879 -0.404947 0.864672 0.297253
0.047434 0.630678 0.590750 -0.403096 0.914727 -0.028071
0.065871 0.566760 0.942132 -0.735765 -0.627383 0.255030
0.054662 0.547017 0.470740 0.992702 0.114142 0.038901
0.115563 0.623990 0.949942 -0.633747 0.773316 0.018629
0.102739 0.683448 0.172261 -0.056574 0.979657 -0.192539
0.152548 0.285495 0.157139 0.853348 -0.090461 -0.513433
0.027539 0.180670 0.085724 0.397332 0.000000 0.917675
0.124894 0.490581 0.431937 0.210363 -0.965100 0.155981
0.054069 0.362165 0.168439 -0.653075 0.156042 -0.741043
0.124758 0.523301 0.337962 -0.391287 0.907403 0.153344
0.147437 0.257404 0.319489 0.392990 -0.227254 0.891019
0.086063 0.653847 0.577656 0.847989 -0.528344 -0.042051
0.065860 0.026855 0.275385 -0.130929 -0.989957 -0.053326
0.050529 0.632637 0.607599 -0.601272 0.798955 -0.012009
0.055137 0.572343 0.487790 -0.989661 -0.142963 0.011532
0.061801 0.569007 0.285182 -0.906710 -0.421277 -0.020091
0.025000 0.398056 0.313736 -0.996988 0.000000 0.077553
0.042204 0.215797 0.182383 -0.992717 -0.112016 -0.044334
0.054069 0.152082 0.246733 -0.990118 -0.136930 -0.030292
0.136760 0.530815 0.844272 -0.920208 0.390319 0.029475
0.133782 0.315058 0.340270 0.285246 -0.305046 0.908615
0.064154 0.617069 0.273952 1.000000 0.000000 0.000000
0.064154 0.600744 0.396914 1.000000 0.000000 0.000000
0.092565 0.057629 0.160963 -0.019067 0.995847 -0.089028
0.105939 0.546123 0.360672 0.327577 0.120497 0.937109
0.079962 0.517012 0.848448 0.590535 0.805662 -0.046663
0.121106 0.573213 0.140260 -0.681977 0.558274 0.472481
0.164413 0.215058 0.155910 0.992728 -0.095262 -0.073600
0.089338 0.660209 0.085631 0.074334 0.057538 0.995572
0.042204 0.099378 0.200287 -0.987496 -0.152236 -0.040935
0.096751 0.399315 0.496132 0.000000 -0.731958 -0.681349
0.149992 0.558328 0.445360 0.317440 0.948278 -0.000194
0.045022 0.303519 0.324181 -0.506525 -0.240887 0.827892
0.073621 0.659157 0.835479 -0.891156 0.450092 0.057081
0.151955 0.581345 0.344357 -0.999408 0.002577 -0.034314
0.125867 0.638850 0.525070 0.992813 -0.118636 -0.015750
0.052723 0.563074 0.143323 -0.074055 -0.965137 -0.251052
0.052289 0.102956 0.061794 -0.991400 -0.100593 -0.083705
0.059255 0.558328 0.246799 -0.487515 0.873032 -0.012024
0.071447 0.628043 0.700375 -0.936572 -0.344154 0.066266
0.137604 0.637383 0.659576 0.989772 -0.139596 0.029395
0.026119 0.532173 0.189700 0.965101 0.000000 0.261880
0.089667 0.537578 0.930920 -0.889842 -0.455151 0.031910
0.181617 0.324824 0.241594 0.999488 0.011364 0.029925
0.154090 0.551784 0.537574 -0.960513 0.276402 -0.031899
0.120448 0.397980 0.596740 0.008861 0.498004 -0.867129
0.140249 0.057629 0.240819 0.166206 0.985722 -0.026957
0.164413 0.163774 0.246440 0.999044 -0.032180 -0.029605
0.113107 0.192158 0.046719 0.073040 0.352513 -0.932952
0.174352 0.548712 0.347538 0.973110 0.229226 -0.022617
0.145864 0.621258 0.124081 0.291318 0.452915 -0.842616
0.147802 0.537408 0.574575 0.996372 -0.080756 0.026875
0.038567 0.546233 0.270890 -0.146127 0.000000 0.989266
0.074425 0.570264 0.212638 -0.727425 0.632722 -0.265548
0.167943 0.135691 0.270843 -0.573244 0.000000 0.819385
0.104347 0.569879 0.448672 0.243325 -0.937483 -0.248835
0.064154 0.612761 0.772240 1.000000 0.000000 0.000000
0.064936 0.497900 0.461730 -0.389709 -0.919294 0.055005
0.091915 0.534648 0.907898 -0.764512 -0.643454 0.038593
0.177829 0.335067 0.309878 0.109007 0.000000 0.994041
0.116433 0.658165 0.769397 -0.641647 -0.766705 -0.021284
0.122973 0.593771 0.645630 0.931990 -0.021295 -0.361857
0.111193 0.607763 0.603613 0.224594 -0.952679 0.204844
0.065816 0.088477 0.117901 0.369549 -0.919503 0.133968
0.050741 0.156782 0.292273 -0.476615 -0.177856 0.860933
0.142463 0.628726 0.232854 -0.975977 -0.172563 -0.133004
0.048216 0.529397 0.122228 0.943001 0.000000 0.332789
0.041910 0.296176 0.317671 -0.999961 0.001321 -0.008718
0.037296 0.275498 0.112130 -0.593627 0.000000 0.804741
0.064154 0.620563 0.544911 1.000000 0.000000 0.000000
0.043939 0.075081 0.099347 -0.690579 0.000000 0.723257
0.089619 0.568769 0.483319 -0.150837 -0.978531 0.140449
0.152548 0.216505 0.176546 0.908181 -0.090925 -0.408583
0.150716 0.637531 0.211512 0.752882 0.656827 -0.041793
0.042204 0.166603 0.219678 -0.995777 -0.087019 -0.029244
0.137956 0.587990 0.207194 -0.832764 0.553012 -0.026112
0.154090 0.531822 0.577321 -0.997395 -0.071840 0.006455
0.025455 0.403548 0.176916 -0.742513 0.000000 0.669832
0.083950 0.632554 0.690423 0.833470 0.459086 0.307519
0.092964 0.285358 0.083805 -0.077719 0.368420 -0.926405
0.132194 0.622464 0.824540 0.875083 -0.476254 0.086089
0.170345 0.575731 0.418612 0.999971 0.007605 -0.000007
0.148731 0.640118 0.387158 0.778669 0.627286 -0.013662
0.100451 0.683448 0.908240 -0.045047 0.998981 0.002602
0.152548 0.163019 0.201062 0.958657 -0.064735 -0.277104
0.143649 0.570500 0.628670 0.958053 0.285725 -0.022266
0.139547 0.496276 0.600314 0.349644 -0.936872 -0.004435
0.183990 0.380977 0.364986 0.987680 0.000000 0.156490
0.057683 0.459988 0.334089 -0.868311 -0.078202 0.489816
0.147802 0.516961 0.532091 0.992168 -0.122327 0.025258
0.096665 0.466691 0.627621 -0.056368 -0.434761 0.898780
0.151480 0.570285 0.398028 0.948220 -0.317602 0.002626
0.147372 0.530010 0.868892 0.970884 -0.239549 0.000000
0.027274 0.378200 0.163701 -0.966801 0.000000 0.255531
0.025000 0.513281 0.162915 -0.987000 0.000000 0.160718
0.162541 0.177065 0.281347 -0.738476 0.000000 0.674279
0.082078 0.592736 0.307231 -0.034707 -0.994924 -0.094455
0.162358 0.629362 0.354619 0.404620 0.913912 -0.032355
0.092850 0.367285 0.576816 -0.074861 -0.960106 0.269431
0.070190 0.631631 0.692810 -0.963191 -0.262851 0.056329
0.112685 0.558680 0.954139 0.577829 0.813501 0.065804
0.096281 0.057629 0.186842 -0.002916 0.998628 -0.052285
0.105136 0.491149 0.485039 0.015120 -0.999828 0.010730
0.047000 0.630498 0.308123 -0.404512 0.913247 -0.048476
0.168778 0.553717 0.426405 0.985273 0.170677 0.010340
0.118557 0.550527 0.837335 0.955207 0.284147 0.082702
0.066565 0.270382 0.085071 -0.457702 0.329280 -0.825884
0.161605 0.110964 0.053495 -0.033651 0.000000 0.999434
0.134776 0.072621 0.262730 0.160510 -0.435745 0.885642
0.181153 0.408020 0.177581 0.807243 0.000113 0.590219
0.042204 0.543140 0.276721 -0.999984 0.003739 0.004270
0.170345 0.626085 0.651418 1.000000 0.000000 0.000000
0.167517 0.444298 0.157365 0.290906 0.000000 0.956752
0.128999 0.506666 0.789611 0.517216 -0.855855 0.000000
0.147802 0.543759 0.868924 0.996366 0.027295 0.080686
0.164674 0.465353 0.347531 0.988781 -0.091459 0.118096
0.163350 0.064747 0.201788 0.693058 -0.709802 0.125900
0.181617 0.442094 0.288629 0.995765 0.014478 0.090788
0.025000 0.324214 0.209488 -0.991724 0.000000 0.128390
0.159322 0.115463 0.270100 -0.070340 0.000000 0.997523
0.170345 0.611295 0.738516 1.000000 0.000000 0.000000
0.048004 0.630914 0.669422 -0.452811 0.891340 -0.021801
0.181617 0.332825 0.253100 0.999619 0.011754 0.024973
0.134764 0.293346 0.333941 0.291279 -0.277587 0.915479
0.107574 0.501551 0.787711 0.072662 -0.997357 0.000000
0.046112 0.458865 0.354868 -0.972988 0.000000 0.230857
0.084135 0.670091 0.643095 -0.610869 0.776265 0.155728
0.150570 0.587990 0.243652 0.494478 0.868275 -0.039876
0.072703 0.625349 0.639401 -0.902123 -0.422651 0.086831
0.172352 0.372483 0.366057 0.810752 0.000000 0.585389
0.152548 0.355406 0.191350 0.925014 0.049124 -0.376743
0.097009 0.661721 0.757205 0.354350 -0.933808 -0.049385
0.134476 0.656210 0.862079 0.937532 0.345944 0.036844
0.137242 0.584523 0.279394 -0.879542 0.475502 -0.017395
0.122363 0.679448 0.353437 0.474185 0.880425 -0.000097
0.101048 0.683448 0.353863 -0.065081 0.997306 -0.033836
0.151480 0.582150 0.419495 0.968762 0.247986 0.001548
0.042204 0.325732 0.201439 -0.999258 -0.023067 -0.030853
0.042204 0.523670 0.319873 -0.999423 0.002662 0.033859
0.090407 0.658322 0.668250 0.665305 -0.744798 -0.051430
0.170345 0.581390 0.597976 1.000000 0.000000 0.000000
0.124097 0.668960 0.442324 0.235341 0.294320 0.926278
0.125260 0.588646 0.965508 -0.289113 0.298729 0.909491
0.038477 0.548836 0.266791 0.404583 0.000000 0.914501
0.181617 0.184058 0.099747 0.997775 0.000814 0.066672
0.168829 0.075657 0.130907 0.000000 0.000000 1.000000
0.110611 0.621313 0.963081 -0.399477 0.916501 0.021077
0.165420 0.289140 0.115445 -0.046320 0.000000 0.998927
0.091412 0.459992 0.604052 -0.006355 -0.417871 -0.908484
0.095244 0.352822 0.507268 -0.047160 -0.997483 0.052942
0.045110 0.629715 0.212926 -0.372661 0.927034 -0.041606
0.144993 0.573753 0.390361 0.275925 0.961076 -0.014115
0.151955 0.578717 0.819169 -0.880451 0.474093 -0.006463
0.093524 0.660295 0.675253 0.521595 -0.850662 -0.065672
0.160499 0.630132 0.906834 0.380118 0.924935 -0.002463
0.080826 0.528981 0.316441 0.546600 0.820150 0.169065
0.058032 0.569007 0.353982 -0.802869 -0.596152 0.001869
0.181617 0.101459 0.182450 0.999488 0.000179 0.032001
0.054069 0.397656 0.262692 -0.967433 0.075587 -0.241580
0.054069 0.090748 0.130820 -0.933596 -0.046633 -0.355280
0.025000 0.307580 0.199144 -0.990789 0.000000 0.135415
0.142463 0.620923 0.828366 -0.999987 -0.001262 -0.004857
0.142463 0.600314 0.728880 -0.999998 -0.000479 -0.001841
0.133940 0.657359 0.451547 0.885116 0.454659 0.099270
0.047446 0.548836 0.242450 0.931971 0.000000 0.362533
0.106291 0.530255 0.718413 0.158161 -0.984204 0.079546
0.132468 0.659911 0.528632 0.857880 0.503898 0.100641
0.170345 0.589006 0.452552 1.000000 0.000000 0.000000
0.036272 0.573967 0.851173 -1.000000 0.000000 0.000000
0.142463 0.630643 0.453996 -0.987668 -0.123247 -0.096550
0.181617 0.333427 0.235702 0.999349 0.011803 0.034091
0.054069 0.093280 0.204533 -0.982686 -0.139846 -0.121538
0.154328 0.529918 0.177895 0.990950 -0.009064 -0.133926
0.158846 0.563074 0.161406 0.086302 -0.990839 -0.103876
0.078743 0.518606 0.840988 0.649546 0.756697 -0.074158
0.153059 0.292067 0.103781 0.923967 0.140421 -0.355763
0.039238 0.526625 0.330850 -0.967925 0.019591 0.250474
0.042196 0.548836 0.154396 0.672459 0.000000 0.740134
0.093444 0.491474 0.499020 -0.114176 -0.993443 0.005866
0.107659 0.607117 0.795145 0.098541 -0.985854 0.135578
0.140355 0.284009 0.304747 0.308698 -0.309462 0.899410
0.054662 0.574913 0.118742 0.562403 0.745011 -0.358693
0.179500 0.534314 0.246742 -0.326442 0.183616 0.927212
0.072460 0.703191 0.202141 -0.882047 0.397606 0.252789
0.074424 0.545729 0.206988 -0.627465 0.531610 -0.568927
0.058815 0.551459 0.464529 -0.983554 -0.012887 0.180156
0.025000 0.417209 0.225228 -0.994679 0.000000 0.103026
0.041940 0.177440 0.272665 -0.999932 0.001445 -0.011538
0.103282 0.606739 0.470164 0.018293 -0.968788 0.247214
0.063741 0.592736 0.768943 0.074659 -0.992006 0.101740
0.128543 0.599432 0.653665 0.795115 -0.466427 -0.387605
0.116571 0.522222 0.356223 0.047505 -0.220725 0.974178
0.054662 0.588346 0.230094 0.987209 -0.159150 -0.009432
0.107689 0.057629 0.122654 -0.004415 0.985652 -0.168734
0.170345 0.620649 0.662122 1.000000 0.000000 0.000000
0.164413 0.139462 0.169891 0.990995 -0.109351 -0.077279
0.146638 0.069416 0.285893 0.282954 -0.703473 0.651968
0.025000 0.105107 0.186477 -0.990261 0.000000 0.139223
0.170345 0.623414 0.302273 0.998975 0.045260 -0.000041
0.075984 0.579685 0.518022 -0.912665 -0.377119 0.157558
0.069375 0.578404 0.229940 0.879804 0.475018 -0.017402
0.151553 0.069724 0.111535 -0.292035 -0.953971 0.068223
0.156463 0.516854 0.575042 0.987180 -0.141347 -0.074140
0.150593 0.396121 0.140400 0.778217 0.154168 -0.608778
0.090723 0.624222 0.667841 0.581897 0.804646 0.118074
0.152548 0.300507 0.207147 0.956240 0.050420 -0.288207
0.131195 0.621036 0.587599 0.843703 -0.517873 0.141323
0.162347 0.257713 0.102277 0.000000 0.000000 1.000000
0.164694 0.445000 0.351622 0.987759 -0.051878 0.147111
0.066991 0.663702 0.349910 -0.864000 0.503468 0.004889
0.164680 0.410145 0.342285 0.988755 0.006643 0.149394
0.126896 0.676812 0.317564 0.540300 0.841469 -0.002288
0.116106 0.688191 0.191186 -0.160692 0.589491 -0.791630
0.163574 0.508482 0.188275 0.999121 0.003974 -0.041739
0.048258 0.631019 0.520958 -0.500249 0.865526 -0.024833
0.123958 0.678704 0.245316 0.494295 0.869172 -0.014591
0.042204 0.251660 0.221110 -0.999001 -0.037067 -0.024979
0.039503 0.627846 0.558677 -0.289196 0.955997 0.049355
0.043787 0.161030 0.277669 -0.818269 0.000000 0.574836
0.107394 0.510948 0.789466 -0.112758 0.990554 -0.078033
0.146369 0.644642 0.141873 0.913286 0.404255 -0.049866
0.093018 0.509283 0.054762 -0.034683 0.904186 -0.425728
0.180554 0.531818 0.163004 -0.836199 0.112845 0.536691
0.181617 0.321422 0.235268 0.999400 0.011199 0.032776
0.104255 0.662657 0.650757 -0.022346 -0.994500 -0.102324
0.164603 0.326057 0.264865 0.995105 -0.031991 0.093501
0.137190 0.545601 0.785489 -0.935619 0.353005 -0.001884
0.119919 0.469017 0.461073 -0.251364 -0.421980 -0.871062
0.136040 0.037173 0.159821 0.110797 -0.983015 -0.146306
0.172757 0.526592 0.405900 0.953650 -0.300506 0.015715
0.152548 0.076412 0.199479 0.957128 -0.133436 -0.257102
0.094192 0.515614 0.264915 -0.024924 0.998188 0.054768
0.044386 0.548148 0.226375 0.041133 0.000000 0.999154
0.052289 0.136375 0.127257 -0.983772 -0.161600 -0.077956
0.074749 0.357760 0.361525 -0.205521 -0.809002 0.550705
0.044538 0.057629 0.222446 -0.307643 0.947054 0.091891
0.181617 0.464293 0.199086 0.983127 0.004085 0.182880
0.042204 0.539989 0.339405 -0.999060 0.002611 0.043271
0.131811 0.558893 0.361119 0.169023 -0.036844 0.984923
0.151480 0.576575 0.201672 0.970843 0.238522 -0.023897
0.063536 0.057629 0.205400 -0.961589 -0.241248 -0.130944
0.116890 0.624920 0.725369 -0.680205 0.732997 -0.006030
0.164869 0.528886 0.123333 0.911761 -0.298253 0.282376
0.164413 0.105580 0.239517 0.997353 -0.058912 -0.042623
0.164413 0.199651 0.192524 0.996179 -0.067863 -0.054981
0.170634 0.176948 0.278057 0.054655 0.000000 0.998505
0.066102 0.587990 0.263715 0.600376 0.799539 -0.016905
0.058815 0.553919 0.444363 -0.977850 -0.011351 0.208997
0.050743 0.632801 0.467018 -0.623692 0.781483 -0.017107
0.042204 0.133789 0.148058 -0.976463 -0.206180 -0.063329
0.048087 0.076952 0.201909 0.708565 0.000000 0.705646
0.074714 0.583352 0.661617 -0.985347 -0.170296 -0.009537
0.161715 0.443704 0.351169 -0.032325 0.000000 0.999477
0.128726 0.592736 0.226684 -0.125208 -0.988838 -0.080763
0.137242 0.571774 0.317721 -0.942983 0.332552 -0.013889
0.044847 0.273513 0.304278 0.795795 0.000000 0.605567
0.130505 0.557309 0.294006 0.021345 0.956398 0.291285
0.054662 0.587227 0.591908 0.959300 -0.282324 0.006031
0.054662 0.586863 0.379764 0.987030 -0.160470 -0.004712
0.118173 0.393632 0.507170 0.366162 0.677880 0.637499
0.076731 0.360148 0.509597 -0.885951 0.430514 -0.172476
0.040158 0.441625 0.349503 -0.989200 0.000000 0.146570
0.042204 0.241148 0.184323 -0.994580 -0.094950 -0.042372
0.071733 0.655335 0.602537 -0.934840 0.349528 0.062490
0.069791 0.629467 0.922595 0.847835 0.232911 -0.476370
0.101109 0.683448 0.226612 -0.073060 0.989558 -0.124246
0.064962 0.659834 0.156881 -0.905297 0.423653 -0.030904
0.094048 0.088477 0.192368 0.115464 -0.993312 0.000269
0.081478 0.508828 0.352874 -0.043249 -0.209787 0.976790
0.085088 0.654927 0.469380 -0.793682 0.604222 -0.070596
0.036272 0.622620 0.854233 -1.000000 0.000000 0.000000
0.143930 0.240078 0.294299 0.537072 -0.276719 0.796857
0.123826 0.592736 0.353648 0.009037 -0.998798 0.048165
0.142958 0.391423 0.133258 0.525385 0.234390 -0.817943
0.056470 0.499674 0.258305 -0.857893 0.227727 -0.460608
0.179762 0.421331 0.330363 0.134366 0.000000 0.990932
0.094022 0.608139 0.848570 -0.263429 -0.955485 0.132864
0.107524 0.578235 0.127799 -0.039536 0.638622 0.768504
0.076884 0.313872 0.097961 -0.275799 0.353710 -0.893770
0.054069 0.473357 0.300600 -0.978205 0.099684 -0.182148
0.102273 0.365719 0.525197 -0.056941 0.983230 -0.173251
0.146055 0.573753 0.774227 0.493047 0.869992 -0.004410
0.025613 0.528975 0.174951 0.589652 0.000000 0.807658
0.174012 0.084168 0.229588 -0.131938 0.000000 0.991258
0.096532 0.531499 0.765521 -0.463151 -0.883845 0.065642
0.102380 0.481465 0.346710 -0.021585 -0.225418 0.974023
0.064154 0.606876 0.199569 1.000000 0.000000 0.000000
0.113464 0.532550 0.557346 0.292521 -0.328504 -0.898063
0.054069 0.089073 0.149871 -0.952495 -0.073120 -0.295645
0.041906 0.250988 0.308380 -0.999964 0.001232 -0.008337
0.100022 0.515614 0.220153 -0.093668 0.993334 0.067190
0.052289 0.194078 0.147457 -0.985650 -0.131582 -0.105735
0.055137 0.573023 0.178814 -0.915695 -0.401627 -0.014107
0.181617 0.127904 0.238652 0.999980 0.001455 0.006187
0.069407 0.542267 0.932396 0.907612 0.416808 0.050111
0.036272 0.590717 0.368277 -1.000000 0.000000 0.000000
0.122873 0.246067 0.298358 0.081080 -0.344134 0.935413
0.049299 0.556381 0.481065 -0.402482 0.877341 0.261306
0.068638 0.587990 0.543552 0.759697 0.648819 0.043518
0.114090 0.667965 0.118378 -0.103716 -0.769834 -0.629760
0.031273 0.378395 0.157237 -0.916727 0.000000 0.399515
0.117245 0.672966 0.611500 0.412941 0.897340 0.155758
0.078601 0.518801 0.765111 0.712237 0.661826 -0.233888
0.164142 0.508713 0.373485 0.018246 0.874092 0.485418
0.060745 0.592736 0.879559 0.378891 -0.924327 0.045391
0.152548 0.150445 0.161467 0.870896 -0.180710 -0.457038
0.099154 0.662296 0.472798 0.243397 -0.960306 -0.136270
0.170345 0.609340 0.634373 1.000000 0.000000 0.000000
0.166853 0.517987 0.350431 0.164063 0.968200 0.188868
0.112766 0.653381 0.448672 0.034298 0.185310 -0.982081
0.037407 0.460670 0.356130 -0.045565 0.000000 0.998961
0.045438 0.482065 0.133830 -0.889226 0.000000 0.457469
0.036272 0.603163 0.141764 -1.000000 0.000000 0.000000
0.040996 0.628170 0.240428 -0.299609 0.953838 -0.020678
0.041957 0.298585 0.290755 -0.999913 0.001607 -0.013113
0.164705 0.509105 0.441511 0.959036 -0.281722 0.029717
0.042204 0.067004 0.243515 -0.993737 -0.109462 -0.022489
0.054069 0.102028 0.217926 -0.985334 -0.148281 -0.084439
0.087784 0.549538 0.944715 -0.958907 0.275854 0.066341
0.106305 0.510674 0.884955 -0.145386 0.988536 0.040730
0.062649 0.527897 0.263598 -0.903974 0.336743 -0.263506
0.077349 0.245374 0.143338 -0.484744 -0.003881 -0.874648
0.042100 0.488251 0.318784 -0.998205 -0.044707 0.039861
0.090133 0.592736 0.305216 -0.068402 -0.994702 -0.076736
0.032658 0.373549 0.325490 0.750858 0.000000 0.660464
0.025000 0.463167 0.328704 -0.979316 0.000000 0.202336
0.142463 0.644014 0.428411 0.999855 -0.017011 -0.000055
0.151942 0.376437 0.352127 -0.999422 0.000000 0.033980
0.060915 0.524616 0.747516 -0.908017 -0.418932 0.000669
0.111927 0.512090 0.847929 -0.288147 0.957584 -0.002220
0.162551 0.629282 0.246233 0.409601 0.911389 -0.039962
0.068900 0.632152 0.645873 -0.972115 0.026918 -0.232954
0.064154 0.636938 0.380703 -1.000000 0.000000 0.000000
0.154328 0.084958 0.082583 0.993300 -0.080325 -0.083078
0.134399 0.623449 0.448672 0.885234 -0.444150 0.138174
0.043083 0.535436 0.335442 -0.258030 0.952632 0.160973
0.132313 0.565210 0.359367 0.215101 0.032121 0.976063
0.161474 0.074964 0.092907 0.000000 0.000000 1.000000
0.120826 0.064747 0.088788 -0.242055 -0.968384 0.060348
0.052289 0.241566 0.146407 -0.989446 -0.096864 -0.107771
0.152548 0.461712 0.308422 0.994784 0.045888 0.091099
0.054069 0.334854 0.293021 -0.999394 -0.023836 -0.025364
0.076731 0.463749 0.601971 -0.270351 -0.465021 -0.843010
0.152548 0.315844 0.227295 0.976400 0.066624 -0.205438
0.093065 0.674369 0.855814 -0.190709 0.976237 0.102914
0.144400 0.587990 0.303601 -0.242095 0.969631 -0.034720
0.115163 0.695836 0.212557 -0.074229 0.487589 0.869912
0.121843 0.363029 0.486369 0.060273 0.997973 0.020439
0.164401 0.107216 0.141838 0.984450 -0.145556 -0.098341
0.105993 0.064747 0.069365 -0.222109 -0.970682 -0.091895
0.096300 0.621235 0.934795 0.309304 0.950891 0.011707
0.055137 0.580708 0.540040 -0.910503 0.413231 0.014975
0.025000 0.161339 0.098008 -0.990240 0.000000 0.139371
0.168783 0.079756 0.192325 0.383200 0.000000 0.923665
0.156463 0.532892 0.576978 0.995322 -0.080951 -0.052745
0.170345 0.590607 0.882426 1.000000 0.000000 0.000000
0.170345 0.576257 0.380742 0.999901 0.014043 -0.000618
0.171443 0.532268 0.366019 0.932978 0.359449 0.018656
0.055137 0.585747 0.586052 -0.656898 0.753788 0.016998
0.142463 0.631317 0.592941 -0.993340 -0.090057 -0.071876
0.100944 0.662533 0.535411 0.150631 -0.980496 -0.126247
0.164413 0.511681 0.261656 0.999911 0.007011 -0.011357
0.054069 0.426022 0.269245 -0.957345 0.095682 -0.272645
0.105852 0.606959 0.711699 0.059100 -0.984792 0.163379
0.123304 0.515878 0.831860 -0.518188 0.853821 -0.049712
0.086390 0.503500 0.797612 -0.322124 -0.946697 0.000000
0.181617 0.487664 0.253102 0.995206 0.013822 0.096818
0.147802 0.510313 0.555640 0.983988 -0.178195 0.003758
0.043925 0.027284 0.270579 -0.240295 -0.966378 -0.091501
0.164413 0.495528 0.193138 0.999484 0.003550 -0.031932
0.062349 0.651493 0.319175 -0.967159 0.254152 0.003273
0.036272 0.598339 0.335592 -1.000000 0.000000 0.000000
0.129886 0.389093 0.609085 0.974341 -0.134798 0.180250
0.164413 0.234440 0.212788 0.998581 -0.037400 -0.037924
0.164413 0.548043 0.319240 0.999940 0.010603 0.002909
0.130578 0.620156 0.462149 0.822943 -0.541843 0.170796
0.042259 0.055138 0.135318 -0.255043 0.962635 -0.091027
0.041616 0.483293 0.365994 0.473993 0.000000 0.880528
0.143299 0.633598 0.448672 0.970423 -0.155438 0.184710
0.081794 0.252233 0.325506 -0.214679 -0.238618 0.947087
0.183990 0.378676 0.376086 0.993870 0.000000 0.110552
0.124026 0.101250 0.112741 0.353472 -0.353343 -0.866144
0.109824 0.543036 0.359722 0.312797 0.160711 0.936125
0.152548 0.163123 0.180126 0.918538 -0.121431 -0.376221
0.132499 0.485295 0.405592 0.276319 -0.851897 0.444882
0.054069 0.182522 0.264461 -0.991489 -0.130155 0.002965
0.146394 0.644581 0.901666 0.923836 0.382789 -0.000001
0.116972 0.488472 0.574420 0.142896 -0.923973 -0.354761
0.032218 0.449889 0.345875 0.000000 0.000000 1.000000
0.093531 0.622467 0.964013 0.439051 0.898455 -0.003545
0.025000 0.271605 0.238551 -0.993986 0.000000 0.109503
0.102426 0.683448 0.426647 -0.043627 0.998995 -0.010309
0.142463 0.633004 0.781578 -0.999591 -0.020436 -0.019984
0.179345 0.089903 0.132469 0.851009 0.000000 0.525152
0.173393 0.235995 0.289203 0.119343 0.000000 0.992853
0.119343 0.632307 0.098643 -0.482677 0.468641 0.739864
0.058815 0.523742 0.414900 -0.987150 -0.040649 0.154541
0.036272 0.622030 0.364089 -1.000000 0.000000 0.000000
0.025000 0.334184 0.180379 -0.995821 0.000000 0.091328
0.085620 0.491370 0.598970 -0.170351 -0.985366 -0.005808
0.154328 0.507563 0.149245 0.988686 -0.078544 -0.127789
0.154328 0.492379 0.176926 0.990415 0.006545 -0.137967
0.042204 0.225836 0.191334 -0.994808 -0.093675 -0.039787
0.025000 0.250898 0.223120 -0.989814 0.000000 0.142364
0.164413 0.040385 0.249417 0.790442 -0.611488 0.035845
0.025000 0.317665 0.159394 -0.994511 0.000000 0.104631
0.045202 0.075974 0.148297 -0.621779 0.000000 0.783193
0.036272 0.581478 0.355545 -1.000000 0.000000 0.000000
0.122957 0.613008 0.867653 0.498059 -0.860275 0.108924
0.099160 0.258099 0.329406 -0.048923 -0.246448 0.967920
0.112219 0.374000 0.559592 -0.057606 0.947676 -0.313993
0.167930 0.405590 0.341519 0.000000 0.000000 1.000000
0.137123 0.057629 0.181338 0.116973 0.986319 -0.116154
0.080994 0.528058 0.335697 0.541981 0.836181 0.084005
0.138762 0.642989 0.924795 -0.997622 -0.067690 -0.012996
0.181159 0.096941 0.155270 0.865057 0.000084 0.501674
0.041909 0.284251 0.315358 -0.999963 0.001288 -0.008566
0.164689 0.212026 0.287273 0.978221 -0.048757 0.201759
0.164434 0.488383 0.333637 0.999837 0.000616 0.018070
0.025000 0.238241 0.195674 -0.994413 0.000000 0.105561
0.071674 0.505782 0.716347 -0.247747 -0.968539 0.023553
0.146022 0.386863 0.367187 -1.000000 0.000000 0.000000
0.065934 0.272146 0.086156 -0.468966 0.327019 -0.820445
0.146039 0.573753 0.206460 -0.042260 0.998629 -0.030899
0.032596 0.081166 0.064699 0.073509 0.000000 0.997295
0.181617 0.404302 0.187079 0.985952 0.001931 0.167019
0.102430 0.618865 0.161626 0.205502 0.050290 -0.977364
0.179118 0.359023 0.156427 0.607499 0.000000 0.794320
0.109276 0.057629 0.242576 0.006368 0.999654 0.025507
0.063442 0.562866 0.222634 -0.939163 0.341204 -0.039396
0.064154 0.629375 0.260146 1.000000 0.000000 0.000000
0.152360 0.065689 0.108566 -0.309262 -0.948755 0.064966
0.147802 0.548387 0.767660 0.997002 -0.077381 -0.000319
0.161972 0.040789 0.119328 0.198412 -0.964608 -0.173676
0.115100 0.623666 0.905031 -0.603030 0.797655 0.010055
0.181617 0.387648 0.212864 0.999730 0.012314 0.019712
0.089720 0.407970 0.387637 -0.270446 0.573428 0.773330
0.180502 0.220528 0.104594 -0.883024 0.000015 0.469329
0.113837 0.557795 0.873843 0.648712 0.757493 0.073337
0.062027 0.649728 0.728578 -0.969719 0.244145 0.006152
0.025000 0.277415 0.162608 -0.993700 0.000000 0.112072
0.164413 0.347023 0.201798 0.999615 -0.007553 -0.026711
0.090197 0.489649 0.434893 -0.147853 -0.979492 0.136880
0.161693 0.295389 0.322187 0.860632 -0.172802 0.479012
0.125843 0.696662 0.196652 -0.442490 0.410878 -0.797109
0.128100 0.541687 0.277455 -0.883128 0.426968 0.194379
0.129672 0.500824 0.063979 0.114701 -0.923862 -0.365134
0.118110 0.551606 0.688853 0.921984 0.376700 0.089679
0.107448 0.508151 0.199078 0.298390 0.385102 -0.873304
0.068241 0.076850 0.105901 0.234366 -0.935075 0.265907
0.065843 0.191780 0.054310 -0.477841 0.309744 -0.822026
0.163020 0.322395 0.128046 -0.795033 0.000000 0.606566
0.052289 0.233244 0.092714 -0.986825 0.009904 -0.161485
0.154328 0.172925 0.079238 0.991020 -0.008318 -0.133458
0.085199 0.669147 0.210802 -0.369380 -0.763522 0.529710
0.177853 0.247385 0.286451 0.940869 0.000000 0.338771
0.114939 0.088477 0.143385 0.061070 -0.995558 0.071660
0.094971 0.446940 0.467358 0.005038 -0.287050 -0.957902
0.125166 0.641383 0.692716 -0.100792 0.994888 0.006158
0.061754 0.502609 0.618524 0.494710 -0.867298 0.055289
0.165867 0.661735 0.199171 0.263187 0.449082 0.853849
0.042204 0.278068 0.188384 -0.996902 -0.068338 -0.038928
0.142463 0.616509 0.149604 -0.997872 0.000656 -0.065195
0.159392 0.170465 0.293705 0.638261 -0.163809 0.752190
0.121055 0.653131 0.677984 -0.867740 -0.496957 -0.007752
0.056878 0.584677 0.928627 -0.972446 0.000000 0.233126
0.147802 0.537288 0.761719 0.987467 -0.157828 -0.000111
0.105681 0.606945 0.604834 0.069248 -0.976862 0.202347
0.036096 0.395575 0.334656 0.927087 0.000000 0.374847
0.152548 0.240625 0.264725 0.999711 0.013453 -0.019908
0.054069 0.347716 0.262294 -0.990398 0.027387 -0.135507
0.104052 0.442398 0.468760 0.000000 -0.309406 -0.950930
0.061433 0.647503 0.429684 -0.963961 0.265756 0.012347
0.158518 0.521974 0.187245 0.996545 0.005827 -0.082845
0.054069 0.226306 0.201399 -0.971326 -0.009345 -0.237568
0.082882 0.669214 0.657488 -0.647215 0.747830 0.147864
0.038209 0.569315 0.904190 -0.288716 0.000000 0.957415
0.124191 0.591556 0.695721 0.591386 0.198623 0.781544
0.154189 0.634094 0.144977 0.683691 0.728246 -0.047157
0.167379 0.552096 0.374854 0.995114 0.098365 0.008505
0.166674 0.546934 0.218375 -0.723014 -0.332383 0.605617
0.100769 0.510558 0.866270 0.065803 0.997829 0.002796
0.042204 0.080489 0.250222 -0.995543 -0.092406 -0.018858
0.116657 0.624757 0.660264 -0.574768 0.817949 -0.024527
0.163631 0.257596 0.310755 0.955040 -0.079274 0.285682
0.062781 0.587990 0.404673 0.266593 0.963809 0.000315
0.153506 0.634618 0.897665 0.629019 0.777388 -0.001769
0.036143 0.432674 0.161110 -0.886394 0.000000 0.462931
0.097342 0.531163 0.753261 -0.411327 -0.908924 0.068310
0.177242 0.541776 0.369195 0.952118 0.305070 0.020072
0.054662 0.580275 0.611498 0.998522 0.054217 -0.003698
0.058267 0.640615 0.194295 -0.798955 0.599998 -0.040912
0.114401 0.657551 0.093170 -0.057829 0.247813 0.967080
0.064704 0.527997 0.092538 -0.428845 0.572828 -0.698542
0.151480 0.570098 0.540377 0.896388 -0.443158 0.009944
0.115493 0.503422 0.455820 -0.005908 -0.501153 -0.865339
0.097066 0.614500 0.975000 0.639557 0.489887 0.592434
0.181617 0.480424 0.324588 0.988454 0.081108 0.127984
0.159971 0.630351 0.447261 0.405580 0.913334 -0.036416
0.054069 0.493882 0.307886 -0.976211 0.110730 -0.186418
0.056236 0.239002 0.313765 -0.422996 -0.216614 0.879860
0.133010 0.671858 0.398738 0.716374 0.697715 -0.001261
0.059545 0.642944 0.138532 -0.905814 0.421863 -0.039152
0.117781 0.057629 0.156340 0.046799 0.990419 -0.129925
0.066439 0.327898 0.341546 -0.332936 -0.318006 0.887708
0.156157 0.549637 0.501141 0.600663 0.500164 0.623731
0.083074 0.592736 0.333564 -0.071101 -0.995754 -0.058467
0.179823 0.294412 0.294404 0.145100 0.000000 0.989417
0.054069 0.223907 0.253554 -0.994765 -0.078401 -0.065549
0.079135 0.616747 0.814999 -0.740141 -0.666540 0.088971
0.142463 0.619058 0.760038 -0.999988 -0.001245 -0.004791
0.142463 0.612264 0.643493 -0.999991 -0.001063 -0.004089
0.042296 0.049933 0.156912 -0.401187 0.902222 -0.158254
0.175724 0.310701 0.305969 0.649882 0.000000 0.760035
0.143175 0.562256 0.463414 0.952411 0.303459 0.028750
0.069375 0.587858 0.576723 0.794197 0.605647 0.049429
0.137242 0.577326 0.322287 -0.917442 0.397640 -0.013507
0.064154 0.626827 0.674652 1.000000 0.000000 0.000000
0.181617 0.498540 0.250585 0.995057 0.013649 0.098362
0.090330 0.592736 0.383494 -0.150561 -0.988375 0.021114
0.132296 0.672572 0.236787 0.693920 0.718719 -0.043801
0.064154 0.630402 0.317425 1.000000 0.000000 0.000000
0.052289 0.538336 0.163774 -0.992104 -0.043201 -0.117741
0.108451 0.607246 0.645630 0.703787 0.594067 -0.389575
0.180552 0.234544 0.277686 -0.003390 0.000031 0.999994
0.152548 0.126320 0.200992 0.959570 -0.092111 -0.265973
0.054662 0.588480 0.311414 0.978579 -0.205799 -0.005442
0.163265 0.075750 0.136007 0.000000 0.000000 1.000000
0.167456 0.439505 0.348521 -0.426138 0.000000 0.904658
0.113935 0.682587 0.258314 0.220555 0.973662 -0.057771
0.111199 0.511906 0.784013 -0.237760 0.969196 -0.064263
0.115126 0.633223 0.448672 -0.819908 0.561977 -0.109238
0.143649 0.566814 0.692343 0.993345 0.113634 -0.018760
0.059701 0.029245 0.248616 -0.185663 -0.976825 -0.106499
0.111566 0.419211 0.492286 0.245755 0.433644 0.866924
0.137521 0.646333 0.945637 0.994108 0.108241 0.005838
0.137770 0.550050 0.289027 0.882693 0.436819 -0.173326
0.025190 0.526309 0.314755 -0.980856 0.000000 0.194732
0.082100 0.639689 0.456474 0.954535 0.295692 -0.037802
0.041972 0.354585 0.297944 -0.999894 0.001799 -0.014413
0.164413 0.193612 0.214080 0.997767 -0.050653 -0.043536
0.054069 0.143508 0.233401 -0.989419 -0.128673 -0.067036
0.056093 0.558328 0.425326 -0.251024 0.967975 0.003232
0.117247 0.530579 0.561318 0.665327 -0.720141 0.196815
0.064154 0.639477 0.837791 -0.983530 -0.180745 0.000000
0.135309 0.563074 0.905644 0.287503 -0.443310 -0.849010
0.144073 0.652562 0.186817 0.956091 0.291895 -0.026208
0.062887 0.654440 0.936697 -0.956183 0.276001 0.097662
0.093265 0.674423 0.486259 -0.323458 0.921898 0.213258
0.025000 0.198936 0.244062 -0.994596 0.000000 0.103823
0.142463 0.596391 0.655310 -0.999999 -0.000379 -0.001458
0.181617 0.511100 0.172157 0.995917 0.010861 0.089615
0.042515 0.628640 0.505283 -0.333835 0.942557 -0.011838
0.069420 0.592736 0.203059 0.235542 -0.947967 -0.214193
0.181617 0.390549 0.218572 0.997075 0.013805 0.075173
0.042204 0.100996 0.175805 -0.981231 -0.185684 -0.052034
0.065512 0.057629 0.158534 -0.133621 0.989632 -0.052667
0.054069 0.197973 0.167391 -0.933644 0.006623 -0.358140
0.147802 0.513323 0.602104 0.983441 -0.180598 0.015081
0.090505 0.536486 0.842128 -0.835970 -0.546693 0.047763
0.163433 0.322617 0.128203 -0.835173 0.000000 0.549987
0.132415 0.258815 0.076846 0.323829 0.350384 -0.878844
0.182496 0.386270 0.382023 0.829896 0.000000 0.557918
0.106023 0.620263 0.942296 -0.159862 0.987136 0.002376
0.106031 0.568769 0.519406 -0.123889 -0.823038 0.554310
0.169292 0.545600 0.263100 0.231506 0.815179 0.530932
0.110186 0.501657 0.901359 0.117167 -0.993112 0.000000
0.134796 0.627241 0.600224 0.930182 -0.354610 0.094933
0.062993 0.495626 0.347091 -0.497723 -0.160826 0.852295
0.054069 0.106865 0.189991 -0.977581 -0.108476 -0.180470
0.154328 0.209434 0.118391 0.992385 -0.044540 -0.114836
0.043258 0.144441 0.284962 -0.515812 -0.158026 0.842001
0.080188 0.532494 0.244087 0.548086 0.721259 0.423541
0.061420 0.647471 0.319115 -0.951027 0.308988 -0.008601
0.064154 0.640985 0.648398 -0.999991 -0.004235 0.000000
0.123345 0.634009 0.676731 -0.947843 0.318689 -0.005496
0.042159 0.528337 0.366224 -0.997903 -0.018436 0.062052
0.052737 0.634331 0.363024 -0.687095 0.725809 -0.033188
0.151011 0.637147 0.890344 0.784183 0.620529 0.000549
0.163662 0.417312 0.157650 0.000000 0.000000 1.000000
0.070537 0.630336 0.853405 -0.968251 -0.247415 0.035721
0.114095 0.682544 0.283789 0.220257 0.974217 -0.048869
0.042175 0.443909 0.220709 -0.999847 -0.010268 -0.014167
0.180737 0.461332 0.168252 0.346709 0.000046 0.937973
0.097479 0.206968 0.317735 -0.071796 -0.224964 0.971718
0.085904 0.057629 0.169451 -0.038803 0.997058 -0.066105
0.134829 0.563515 0.249846 0.704875 0.524522 -0.477523
0.072813 0.204025 0.289722 -0.019840 -0.330754 0.943508
0.071702 0.123754 0.117519 -0.735138 -0.078617 -0.673343
0.134394 0.656386 0.715844 0.924710 0.376372 0.057052
0.170345 0.587832 0.237280 0.990624 0.105784 -0.086451
0.181617 0.241795 0.125846 0.999159 0.002052 0.040954
0.164630 0.365033 0.292090 0.993786 -0.054339 0.097142
0.143719 0.587990 0.422544 -0.324794 0.945611 -0.018118
0.177819 0.537613 0.173541 -0.892401 0.024997 0.450550
0.076790 0.354127 0.494124 -0.950495 -0.303293 -0.067619
0.042253 0.175006 0.280585 -0.900600 0.000000 0.434649
0.163457 0.075936 0.097949 -0.954793 0.000000 0.297271
0.117570 0.552911 0.873694 0.893962 0.441142 0.078906
0.137051 0.351482 0.115691 0.408175 0.332901 -0.850041
0.151955 0.577175 0.784621 -0.848448 0.529203 -0.008946
0.096034 0.560035 0.923180 -0.467499 0.883016 0.041557
0.107876 0.663653 0.522946 0.222868 0.974669 -0.018733
0.061078 0.198823 0.133456 -0.760821 0.026204 -0.648433
0.127795 0.266939 0.078706 0.247762 0.358951 -0.899871
0.164413 0.074318 0.183050 0.989505 -0.120465 -0.079798
0.087618 0.624980 0.497645 -0.695106 -0.717613 -0.043123
0.166550 0.489482 0.126762 0.045467 0.046830 0.997868
0.151983 0.067573 0.119769 -0.364748 -0.929147 0.060372
0.054662 0.574665 0.268302 0.846680 0.531464 -0.026042
0.181617 0.168930 0.219469 0.999764 0.003539 0.021419
0.098325 0.592736 0.215450 0.003736 -0.985524 -0.169496
0.027371 0.298306 0.132819 0.206185 0.000000 0.978513
0.150450 0.089155 0.110174 0.675350 -0.346068 -0.651260
0.061598 0.647902 0.911328 -0.958640 0.284556 0.006135
0.063747 0.606910 0.116949 -0.039460 -0.197592 -0.979490
0.152548 0.100951 0.148587 0.831097 -0.250641 -0.496444
0.136819 0.162747 0.280848 0.190834 -0.389211 0.901164
0.103620 0.315025 0.158124 0.151459 -0.029071 -0.988036
0.107642 0.686235 0.908227 0.416235 -0.829827 -0.371666
0.029691 0.428483 0.338023 0.051079 0.000000 0.998695
0.081316 0.677929 0.220390 -0.516241 0.856253 -0.018027
0.068766 0.553292 0.261527 -0.874226 0.455219 -0.168836
0.045005 0.280214 0.306159 0.793293 0.000000 0.608841
0.036272 0.571979 0.679062 -1.000000 0.000000 0.000000
0.170080 0.346256 0.140573 0.007977 0.000000 0.999968
0.041917 0.180624 0.286023 -0.999955 0.001291 -0.009428
0.064154 0.625327 0.335726 1.000000 0.000000 0.000000
0.076731 0.469591 0.622646 -0.954002 -0.283038 0.098841
0.170345 0.582172 0.511095 1.000000 0.000000 0.000000
0.164413 0.036205 0.249464 0.551720 -0.832746 0.046255
0.036272 0.618059 0.553551 -1.000000 0.000000 0.000000
0.161156 0.629860 0.559124 0.397126 0.917501 -0.021978
0.035961 0.415672 0.340298 0.920947 0.000000 0.389689
0.068584 0.314449 0.311663 -0.165476 -0.295543 0.940889
0.120309 0.680405 0.392941 0.446104 0.894981 0.000840
0.036272 0.579526 0.611565 -1.000000 0.000000 0.000000
0.150066 0.205681 0.134911 0.767100 -0.207758 -0.606955
0.181617 0.150460 0.155822 0.998637 0.002672 0.052124
0.180829 0.099983 0.073370 0.999462 0.000040 0.032808
0.070241 0.651325 0.958664 -0.958878 0.283503 0.013338
0.054731 0.636006 0.245493 -0.729246 0.682544 -0.048312
0.066792 0.176654 0.282847 -0.218388 -0.360087 0.906997
0.137517 0.506346 0.709046 0.305145 -0.951432 0.040784
0.056082 0.637759 0.890932 -0.803640 0.595071 0.007256
0.089668 0.554164 0.566575 -0.865980 0.491810 0.090558
0.058793 0.641296 0.886441 -0.849209 0.528044 0.003572
0.086848 0.568586 0.133002 0.337702 0.724881 0.600420
0.064481 0.587990 0.407188 0.453107 0.891428 0.007112
0.164562 0.436898 0.271380 0.997444 -0.029420 0.065117
0.127631 0.500846 0.678223 0.159192 -0.966644 0.200640
0.165775 0.115724 0.053484 0.000000 0.000000 1.000000
0.058815 0.552076 0.832612 -0.963794 0.253057 0.084048
0.042032 0.371312 0.266836 -0.999796 0.002196 -0.020101
0.151358 0.636694 0.796707 0.719978 0.693977 -0.005269
0.136659 0.653766 0.916923 -0.949045 -0.315091 0.005551
0.121170 0.354547 0.517835 0.115529 -0.984610 0.131134
0.151480 0.571084 0.253262 0.987295 -0.158832 -0.004498
0.054069 0.406850 0.264552 -0.963842 0.082413 -0.253408
0.054662 0.579068 0.171121 0.922868 0.384234 -0.026058
0.057604 0.424377 0.326624 -0.869652 -0.099770 0.483479
0.055137 0.571032 0.515397 -0.984258 -0.176155 0.014377
0.142463 0.643886 0.170573 0.926051 -0.350409 -0.140154
0.055524 0.437968 0.184224 -0.546062 0.198657 -0.813850
0.154328 0.098772 0.059876 0.994505 -0.054063 -0.089646
0.030621 0.262122 0.292451 0.812000 0.000000 0.583657
0.052289 0.228654 0.131440 -0.991192 -0.097817 -0.089282
0.037563 0.211628 0.086411 -0.365560 0.000000 0.930788
0.147802 0.522396 0.523494 0.994929 -0.089797 0.045298
0.042718 0.188633 0.075146 0.997321 0.000000 0.073155
0.025000 0.347042 0.239012 -0.994815 0.000000 0.101705
0.113317 0.622575 0.700652 -0.320511 0.558428 0.765134
0.122072 0.671532 0.942186 -0.530522 -0.842493 0.093553
0.131388 0.563052 0.295623 0.525052 0.847496 0.077915
0.042204 0.140934 0.257448 -0.999489 -0.029213 -0.012994
0.139985 0.608586 0.965508 -0.249091 -0.423399 0.871027
0.166622 0.489928 0.126378 0.044857 0.049151 0.997784
0.142687 0.650875 0.758332 0.327121 -0.944983 0.000000
0.052289 0.216825 0.076343 -0.949612 0.105880 -0.295002
0.095271 0.621656 0.543458 0.449638 0.885784 -0.114942
0.142463 0.618723 0.429297 -0.996361 -0.066412 -0.053422
0.144542 0.498070 0.444999 0.353505 -0.932592 0.072850
0.087416 0.544999 0.708828 -0.990753 -0.057243 0.123015
0.083780 0.649845 0.850658 0.928282 -0.347494 0.132441
0.108034 0.530650 0.892654 0.204523 -0.976807 0.063396
0.068900 0.630023 0.476877 -0.969433 0.226212 0.095020
0.164413 0.213298 0.220033 0.998576 -0.038368 -0.037054
0.120715 0.671328 0.548695 0.509794 0.845009 0.161464
0.143175 0.562984 0.189646 0.998456 0.054813 -0.009016
0.154328 0.300436 0.138964 0.990814 -0.017746 -0.134065
0.041983 0.344044 0.288067 -0.999878 0.001850 -0.015527
0.152548 0.431463 0.255438 0.988710 0.080553 -0.126351
0.069396 0.540605 0.770656 0.913998 0.378324 -0.146554
0.036272 0.602420 0.375048 -1.000000 0.000000 0.000000
0.042071 0.503934 0.354491 -0.996518 -0.058281 0.059618
0.128027 0.665474 0.844554 0.776748 0.623189 0.091092
0.164710 0.259578 0.309931 0.984771 -0.049182 0.166756
0.110887 0.057629 0.197616 0.507555 -0.686761 0.520334
0.167310 0.627803 0.884001 0.281914 0.957542 0.060307
0.165366 0.248545 0.099174 0.001366 0.000000 0.999999
0.152071 0.635765 0.645222 0.713108 0.700751 -0.020585
0.161068 0.541179 0.498437 0.703273 0.343526 0.622412
0.064154 0.642804 0.766717 -0.999849 -0.017356 0.000000
0.160713 0.154781 0.145861 0.986131 -0.110895 -0.123481
0.130901 0.618967 0.938637 -0.735885 0.623176 0.264811
0.042053 0.304623 0.238013 -0.999753 0.002258 -0.022093
0.042072 0.390973 0.248892 -0.999713 0.002472 -0.023820
0.088743 0.625860 0.749126 0.723548 0.688564 -0.048570
0.036272 0.613456 0.386792 -1.000000 0.000000 0.000000
0.073980 0.621447 0.957415 0.725176 0.591488 0.352508
0.039238 0.527577 0.405327 -0.854277 -0.406421 0.324088
0.033196 0.319010 0.310693 0.903993 0.000000 0.427547
0.142463 0.594941 0.136828 -0.645284 -0.752489 -0.131793
0.181617 0.242351 0.232099 0.999679 0.007222 0.024277
0.152548 0.341522 0.186098 0.917143 0.025873 -0.397718
0.053421 0.320249 0.115029 -0.886643 0.168161 -0.430798
0.170345 0.588773 0.640549 1.000000 0.000000 0.000000
0.045062 0.491643 0.124902 0.790845 0.000000 0.612017
0.151480 0.573360 0.491639 0.964447 -0.264120 0.009135
0.025000 0.347821 0.186349 -0.999853 0.000000 0.017164
0.121341 0.525180 0.353063 -0.256987 0.861997 0.436942
0.054069 0.482287 0.310776 -0.986180 0.093947 -0.136468
0.167101 0.605842 0.132092 0.623037 0.295496 -0.724228
0.170345 0.592930 0.164886 0.999988 0.004670 -0.001078
0.042157 0.409055 0.203381 -0.999488 0.003022 -0.031861
0.094736 0.048316 0.103481 -0.043062 -0.506146 -0.861372
0.025000 0.436370 0.224685 -0.994975 0.000000 0.100125
0.036272 0.596452 0.669927 -1.000000 0.000000 0.000000
0.069617 0.648995 0.639128 -0.976933 0.212648 0.019575
0.148642 0.640210 0.808425 0.839886 0.542506 0.016703
0.151955 0.588448 0.275307 -0.874343 -0.485088 -0.014607
0.154328 0.065474 0.131403 0.989114 -0.091058 -0.115592
0.176415 0.099248 0.258350 0.920682 0.000000 0.390313
0.081368 0.526002 0.242983 0.341596 0.888985 0.304988
0.025000 0.278665 0.204730 -0.993764 0.000000 0.111502
0.025000 0.114422 0.186724 -0.990564 0.000000 0.137054
0.122940 0.399902 0.624282 0.130012 0.344926 0.929582
0.063442 0.560027 0.376953 -0.821251 0.570302 -0.017369
0.029898 0.289516 0.298990 0.890751 0.000000 0.454493
0.142653 0.592736 0.493507 -0.180938 -0.981012 -0.069834
0.152548 0.418221 0.309613 0.993445 0.031421 0.109907
0.142804 0.103124 0.288919 0.344634 -0.187995 0.919720
0.087889 0.609448 0.940001 0.439481 0.842988 0.310205
0.076740 0.579685 0.492307 -0.808280 -0.588778 0.004922
0.054069 0.401168 0.232752 -0.880023 0.120915 -0.459282
0.154328 0.502822 0.155639 0.988680 -0.062989 -0.136178
0.093461 0.054926 0.053169 -0.516500 -0.458825 0.722985
0.064154 0.624607 0.822604 1.000000 0.000000 0.000000
0.055137 0.584167 0.205592 -0.990253 0.138132 -0.017832
0.062686 0.653339 0.154150 -0.947975 0.317352 -0.025103
0.064154 0.637171 0.705486 -0.999997 -0.002552 0.000000
0.164685 0.199016 0.281901 0.976138 -0.048830 0.211589
0.025000 0.440512 0.221592 -0.994758 0.000000 0.102259
0.180248 0.208649 0.099085 -0.985776 0.000000 0.168067
0.119501 0.671914 0.638534 0.474003 0.869024 0.141838
0.122972 0.462138 0.602827 0.386114 -0.476011 -0.790145
0.038894 0.627714 0.880775 -0.271001 0.959704 0.074347
0.046354 0.390825 0.152478 -0.911908 0.000000 0.410394
0.112221 0.608039 0.697516 0.228987 -0.958265 0.171152
0.169125 0.121561 0.053720 0.003270 0.000000 0.999995
0.093125 0.356660 0.360274 -0.101242 -0.446989 0.888792
0.072043 0.428613 0.369566 -0.072346 0.652115 0.754660
0.144898 0.573753 0.616379 0.545185 0.838273 -0.008531
0.164629 0.251319 0.262411 0.986606 -0.038483 0.158514
0.070303 0.641383 0.467309 -0.903475 0.428016 0.023142
0.060895 0.646204 0.140258 -0.926463 0.373744 -0.044509
0.096243 0.675221 0.574636 -0.197638 0.961475 0.191065
0.054069 0.202542 0.176342 -0.950533 -0.000018 -0.310623
0.073806 0.161632 0.125560 -0.661953 -0.058315 -0.747273
0.069375 0.569803 0.238187 0.938014 0.346240 -0.015735
0.113724 0.088477 0.210114 -0.044370 -0.984759 -0.168171
0.135876 0.653192 0.682240 0.949854 0.308587 0.050513
0.025000 0.517226 0.150526 -0.984634 0.000000 0.174630
0.106312 0.057629 0.120792 -0.148958 -0.445010 -0.883050
0.047369 0.039930 0.128949 -0.136479 -0.942169 -0.306090
