0.736867 0.025000 0.468032 -0.002267 -0.999350 -0.035972
0.619846 0.129963 0.391523 -0.613059 0.780025 -0.125381
0.675599 0.124763 0.652420 -0.023807 0.914771 -0.403270
0.288933 0.077102 0.806663 -0.134033 -0.321926 -0.937229
0.610486 0.135943 0.654177 0.156218 0.979318 0.128578
0.143458 0.037076 0.757998 -0.111659 -0.993303 -0.029676
0.688390 0.104807 0.091847 0.105724 0.971554 -0.211910
0.344654 0.075427 0.633345 -0.405131 -0.153724 -0.901242
0.703147 0.053828 0.280847 0.109167 -0.993035 -0.044315
0.064096 0.035483 0.874167 -0.156751 -0.987174 0.030273
0.279015 0.066004 0.766049 -0.276411 -0.048350 -0.959822
0.597460 0.107913 0.066546 -0.222213 0.596818 -0.770993
0.548109 0.098772 0.763264 -0.230410 0.882156 0.410746
0.196234 0.035483 0.760464 -0.000268 -0.971473 0.237152
0.747859 0.025000 0.354292 0.188159 -0.981534 -0.034467
0.880726 0.035483 0.552835 0.134781 -0.988985 0.061175
0.687979 0.079462 0.071274 -0.318975 -0.025403 -0.947423
0.737566 0.053828 0.277158 0.277466 -0.958555 -0.064686
0.613365 0.103318 0.157021 -0.877550 0.140113 -0.458557
0.793743 0.085957 0.583385 0.477804 0.014672 0.878344
0.680241 0.135070 0.307065 0.025740 0.998911 -0.038915
0.831274 0.063157 0.730287 0.254401 -0.123881 0.959132
0.703037 0.035483 0.634975 0.057305 -0.982105 0.179406
0.646894 0.085419 0.620986 -0.592703 0.028600 0.804913
0.478017 0.103667 0.749405 -0.215717 0.262702 -0.940454
0.677263 0.125461 0.631207 0.006563 0.993039 0.117604
0.590459 0.114014 0.164698 -0.554205 0.828837 -0.076723
0.159708 0.074887 0.786475 0.324819 -0.426473 0.844164
0.749825 0.060315 0.116992 0.687438 -0.690306 -0.225624
0.805559 0.124574 0.240694 0.496826 0.866225 -0.053089
0.830263 0.086608 0.235316 0.983595 0.145411 -0.106754
0.583747 0.148562 0.654798 0.223303 0.292344 0.929877
0.044803 0.066864 0.886037 -0.515642 -0.413526 -0.750407
0.824306 0.076233 0.609426 -0.132796 0.011568 -0.991076
0.784516 0.125461 0.563883 -0.010945 0.983152 0.182464
0.690728 0.125461 0.658510 0.028789 0.978057 -0.206338
0.727920 0.125461 0.722402 0.038419 0.969873 0.240561
0.701831 0.125461 0.387353 -0.097034 0.994927 -0.026540
0.212317 0.102648 0.839530 -0.144590 0.748566 -0.647103
0.713521 0.121092 0.056461 0.140458 0.990033 -0.010309
0.631366 0.135069 0.204549 -0.149153 0.970443 -0.189719
0.505894 0.036607 0.701107 -0.130403 -0.768458 -0.626473
0.342140 0.091891 0.558639 0.939506 0.249411 -0.234783
0.642782 0.125460 0.241084 -0.191991 0.980971 -0.028916
0.725468 0.125460 0.110017 0.047940 0.987018 -0.153287
0.676634 0.135070 0.245648 -0.064838 0.990620 -0.120281
0.608088 0.053828 0.225505 -0.236452 -0.970999 -0.035367
0.681483 0.107115 0.253021 -0.033155 0.998607 -0.041053
0.136290 0.035483 0.833362 -0.053008 -0.994007 -0.095606
0.044554 0.087065 0.833165 0.107801 -0.109932 0.988076
0.706994 0.035483 0.113299 -0.007650 -0.979554 -0.201036
0.720485 0.025000 0.547339 -0.013055 -0.999122 0.039805
0.770036 0.107115 0.400575 0.254801 0.964471 -0.069802
0.582201 0.098642 0.188215 -0.868707 0.495325 0.001216
0.895547 0.121305 0.533687 0.195013 0.976386 -0.092954
0.660824 0.035483 0.508911 -0.078000 -0.996790 0.018035
0.830277 0.066281 0.218669 0.909304 -0.393777 -0.134558
0.797675 0.125461 0.568670 -0.006882 0.977014 0.213064
0.588249 0.035483 0.446572 -0.193104 -0.980952 -0.021052
0.719210 0.107115 0.144656 0.187721 0.962520 -0.195746
0.686992 0.124980 0.639802 -0.043748 0.390172 0.919702
0.692055 0.125461 0.440305 -0.088383 0.995933 -0.017501
0.787971 0.050276 0.192328 0.372228 -0.920709 -0.117227
0.480478 0.035483 0.661725 -0.083864 -0.984153 -0.156235
0.316332 0.103150 0.832666 0.303198 0.951562 -0.050995
0.575333 0.061163 0.680929 -0.225426 -0.022349 -0.974004
0.078192 0.125461 0.896453 -0.132645 0.986866 0.092196
0.173013 0.076688 0.753511 -0.120793 -0.557260 -0.821505
0.675793 0.121092 0.062101 0.050855 0.990353 -0.128901
0.079294 0.095525 0.806838 0.131561 0.686571 0.715061
0.530944 0.047713 0.750327 0.041843 -0.869151 -0.492773
0.689051 0.048158 0.089446 0.301145 -0.694204 0.653753
0.703097 0.135070 0.340968 0.071191 0.996525 -0.043244
0.719993 0.048110 0.632080 0.388301 -0.185426 0.902685
0.900923 0.086743 0.695601 0.481263 0.183038 0.857253
0.646592 0.035483 0.648483 0.048151 -0.983014 0.177100
0.807077 0.133219 0.568167 0.255156 0.839510 0.479706
0.672680 0.025000 0.401146 0.006560 -0.999710 -0.023181
0.674479 0.035483 0.181333 -0.071552 -0.988631 -0.132244
0.625898 0.039851 0.078770 -0.041239 -0.998226 0.042945
0.785955 0.070433 0.743308 0.247439 -0.068250 0.966497
0.619521 0.104653 0.668838 0.206429 0.442982 0.872442
0.593482 0.047129 0.193648 -0.602005 -0.798457 -0.007548
0.428161 0.064667 0.723208 -0.251848 -0.031009 -0.967270
0.760557 0.111009 0.050774 -0.101398 0.515406 -0.850926
0.427684 0.125461 0.726810 -0.066454 0.906905 -0.416062
0.576515 0.121092 0.073551 -0.169562 0.875251 -0.452972
0.340675 0.125461 0.749792 -0.094915 0.875654 -0.473520
0.242092 0.106242 0.849988 0.061198 0.997141 -0.044328
0.871617 0.076081 0.488958 0.815961 -0.002940 -0.578099
0.693311 0.125461 0.433195 -0.099395 0.994792 -0.022585
0.843192 0.125461 0.680566 0.177683 0.978609 0.103700
0.804332 0.125461 0.637584 0.054223 0.992005 -0.113956
0.625508 0.039851 0.079540 -0.037767 -0.997500 0.059719
0.649385 0.125461 0.409313 -0.195438 0.980102 -0.034693
0.792513 0.079827 0.419705 0.992448 0.048330 -0.112744
0.230526 0.079931 0.881427 0.320056 0.028909 0.946957
0.792668 0.135070 0.562182 0.139088 0.978477 0.152441
0.648840 0.107115 0.290975 -0.191423 0.980363 0.047388
0.548811 0.118094 0.784014 0.302982 0.927275 0.219915
0.643601 0.035483 0.470407 -0.097469 -0.995234 0.002901
0.037900 0.104059 0.814829 -0.304024 0.845207 0.439538
0.521370 0.048587 0.786766 0.002570 0.592955 0.805232
0.569692 0.110309 0.800129 0.138655 0.378674 0.915085
0.659227 0.101348 0.100044 -0.026410 0.982564 -0.184037
0.690875 0.053828 0.457307 -0.236896 -0.967617 0.087161
0.608174 0.120563 0.778039 -0.010940 0.742363 0.669908
0.744393 0.025000 0.529685 0.014979 -0.999831 0.010663
0.173099 0.097052 0.919210 0.270265 0.263292 0.926085
0.204677 0.035533 0.737534 -0.108183 -0.989781 -0.092899
0.565924 0.058775 0.134199 -0.907707 -0.391501 -0.150981
0.193270 0.052107 0.908814 0.232423 -0.398706 0.887138
0.668145 0.025000 0.383359 -0.012353 -0.999553 -0.027209
0.564856 0.064788 0.488361 -0.937784 -0.228974 0.261023
0.856961 0.125461 0.531231 0.119117 0.989378 -0.083317
0.784776 0.099977 0.586448 0.489033 0.094943 0.867083
0.650944 0.035483 0.235755 -0.197720 -0.980073 -0.019058
0.607899 0.077771 0.114472 -0.718713 -0.572660 -0.394349
0.648822 0.134666 0.597520 -0.112046 0.984782 0.132853
0.195663 0.054271 0.910421 0.248581 -0.306604 0.918805
0.816819 0.035483 0.652777 0.089541 -0.993296 -0.073110
0.106411 0.120727 0.921399 -0.005934 0.892942 0.450133
0.090521 0.057962 0.768994 -0.281431 -0.695733 -0.660873
0.527768 0.124551 0.695220 0.053055 0.909411 0.412500
0.749872 0.059708 0.583075 -0.167126 -0.965684 0.198806
0.747912 0.062892 0.055666 -0.241424 -0.250191 -0.937614
0.836261 0.025000 0.518866 0.182586 -0.983105 0.012935
0.590246 0.035483 0.581965 -0.116727 -0.962874 -0.243409
0.401949 0.056414 0.853445 0.289732 -0.086890 0.953156
0.405643 0.118691 0.837837 0.375840 0.674490 0.635459
0.719444 0.062039 0.032914 -0.105261 -0.252552 -0.961841
0.882013 0.035483 0.627740 0.086339 -0.988325 -0.125539
0.141191 0.118592 0.752995 -0.221517 0.915643 -0.335453
0.208280 0.035483 0.797699 -0.142827 -0.872253 -0.467734
0.726383 0.025000 0.545803 -0.003690 -0.999306 0.037075
0.673463 0.125460 0.156511 -0.034449 0.981962 -0.185912
0.877998 0.082475 0.710482 -0.052643 -0.134181 -0.989558
0.727219 0.135069 0.167959 0.003255 0.990935 -0.134303
0.590973 0.096366 0.799330 0.210622 0.143318 0.967005
0.583602 0.094712 0.070224 -0.316076 0.210941 -0.924986
0.789884 0.055698 0.584703 0.473546 -0.138502 0.869811
0.830146 0.097338 0.378646 0.886089 0.450458 -0.109245
0.776719 0.072471 0.048049 -0.231201 -0.088426 -0.968879
0.507804 0.039594 0.593713 -0.179581 -0.906707 -0.381619
0.677677 0.039851 0.055536 -0.071272 -0.934657 -0.348335
0.525836 0.082004 0.736901 0.086027 0.715910 0.692873
0.695008 0.122082 0.646816 -0.020804 0.867889 -0.496322
0.321876 0.125461 0.779311 0.013360 0.996397 -0.083748
0.700187 0.035483 0.515152 -0.039546 -0.998666 0.033212
0.713712 0.041906 0.748917 0.207725 -0.589854 0.780335
0.772717 0.125461 0.387940 0.048709 0.997827 -0.044379
0.632057 0.135070 0.549194 -0.224032 0.972924 0.056827
0.413473 0.069042 0.791547 0.391228 0.903476 0.175135
0.096251 0.096633 0.799881 0.115428 0.827153 0.549995
0.635470 0.125461 0.453558 -0.135071 0.990832 -0.002732
0.885727 0.073776 0.677697 0.749968 0.097513 -0.654247
0.707786 0.025000 0.410554 0.104143 -0.994334 -0.021302
0.573830 0.125461 0.417883 -0.402761 0.904138 -0.142542
0.260415 0.093910 0.771438 -0.303562 0.057031 -0.951103
0.937026 0.086450 0.691343 -0.489072 0.164933 0.856508
0.756734 0.035483 0.621433 0.061375 -0.983665 0.169221
0.621216 0.035483 0.603958 -0.055667 -0.992211 -0.111439
0.641562 0.062197 0.491016 -0.690832 -0.697326 0.191016
0.805910 0.135070 0.522675 0.115592 0.992889 0.028454
0.640781 0.050248 0.103400 0.224794 -0.530060 0.817621
0.784478 0.109582 0.065358 0.413909 0.907648 -0.069673
0.943361 0.066932 0.678960 0.268968 -0.951291 -0.150669
0.622718 0.035483 0.141938 -0.177104 -0.979040 -0.100574
0.290512 0.035483 0.780660 -0.060002 -0.973397 -0.221128
0.734373 0.125460 0.156180 0.049558 0.989696 -0.134332
0.514670 0.047713 0.790230 0.242333 -0.966273 -0.087128
0.459119 0.131961 0.706260 -0.306720 0.951394 -0.027792
0.711224 0.053828 0.292565 0.127719 -0.990999 -0.040117
0.652525 0.025000 0.279437 -0.154877 -0.985321 -0.071796
0.184862 0.086934 0.752163 -0.123274 0.080728 -0.989084
0.638820 0.054247 0.662744 -0.206425 -0.195051 -0.958824
0.348299 0.125461 0.807993 0.115747 0.986313 0.117424
0.658803 0.035483 0.135344 -0.087260 -0.984256 -0.153708
0.832738 0.093664 0.750632 0.139016 -0.415007 0.899135
0.932063 0.063162 0.498740 0.164709 -0.897008 -0.410180
0.722571 0.107115 0.131088 0.208374 0.954876 -0.211644
0.599085 0.121092 0.091691 -0.148430 0.987819 0.046722
0.740382 0.107115 0.403685 0.132319 0.991060 -0.017110
0.738482 0.125460 0.091694 0.069969 0.986720 -0.146590
0.719672 0.125460 0.210550 0.016806 0.990904 -0.133514
0.747000 0.107115 0.167612 0.284522 0.933380 -0.218743
0.913086 0.057391 0.503711 0.190646 -0.887042 -0.420489
0.621097 0.058462 0.088827 -0.383652 -0.399746 -0.832475
0.631309 0.125461 0.425809 -0.188856 0.981769 -0.021524
0.762613 0.025000 0.134167 0.140226 -0.986487 -0.084737
0.633149 0.070307 0.431426 -0.866070 -0.450170 0.217416
0.642220 0.047452 0.054092 -0.247866 -0.667928 -0.701737
0.562999 0.125461 0.706528 0.053131 0.996878 -0.058404
0.313854 0.072796 0.665674 -0.438299 -0.201274 -0.876004
0.749295 0.111303 0.609661 0.466714 0.164418 0.868990
0.296530 0.094403 0.761065 -0.298218 0.064360 -0.952325
0.435709 0.035483 0.784307 0.051289 -0.992512 0.110862
0.697836 0.125461 0.734447 0.015229 0.952785 0.303264
0.181688 0.116272 0.735835 -0.217198 0.892456 -0.395407
0.477198 0.063527 0.439189 -0.356775 -0.305239 -0.882916
0.814142 0.044717 0.391956 0.690964 -0.719938 -0.065250
0.537371 0.088880 0.691869 -0.224678 0.046590 -0.973319
0.712375 0.025000 0.301386 0.073240 -0.996228 -0.046543
0.093078 0.074057 0.819379 -0.447111 -0.067263 -0.891946
0.603281 0.035483 0.145585 -0.277335 -0.959945 -0.039879
0.357306 0.035483 0.705691 -0.060389 -0.998030 -0.017029
0.611160 0.074969 0.611713 -0.955473 -0.078825 0.284355
0.249745 0.065378 0.825032 -0.113199 -0.688095 -0.716736
0.332132 0.035483 0.785861 -0.004170 -0.998243 -0.059100
0.559784 0.123713 0.648439 -0.157502 -0.921997 -0.353715
0.793179 0.025000 0.493158 0.071500 -0.996264 -0.048427
0.792198 0.084969 0.417468 0.879643 0.460113 -0.120516
0.238313 0.085930 0.692949 -0.504416 0.182936 -0.843859
0.399361 0.051963 0.624286 -0.293420 -0.709286 -0.640951
0.182825 0.035483 0.861521 -0.086054 -0.991022 0.102324
0.478349 0.098380 0.442089 -0.260896 0.595266 -0.759995
0.720977 0.135070 0.335790 0.112994 0.992653 -0.043262
0.715309 0.035483 0.382144 -0.075862 -0.996856 -0.022881
0.652199 0.053828 0.385318 -0.297306 -0.953223 0.054539
0.611154 0.107115 0.221221 -0.302345 0.951724 0.052994
0.803215 0.033300 0.158960 0.389576 -0.915470 -0.100724
0.794224 0.125461 0.647761 0.067765 0.995242 -0.070015
0.756087 0.053828 0.340946 0.257433 -0.965879 -0.028389
0.858433 0.107989 0.744429 0.073350 0.890108 0.449808
0.704740 0.135069 0.123443 -0.043828 0.981304 -0.187410
0.746453 0.081241 0.093081 0.876740 0.174868 -0.448049
0.743278 0.125461 0.588617 -0.026969 0.994548 0.100735
0.661182 0.053828 0.406451 -0.290829 -0.954549 0.065224
0.326715 0.049310 0.867524 0.320898 -0.442012 0.837645
0.579920 0.035483 0.535867 -0.151854 -0.980611 -0.123864
0.523779 0.124419 0.653443 -0.251355 -0.816008 -0.520530
0.621321 0.029724 0.200783 -0.606164 -0.787141 -0.113909
0.718879 0.025000 0.611564 0.150974 -0.941212 0.302203
0.785415 0.037138 0.409265 0.087467 -0.995463 -0.037443
0.763362 0.125461 0.526826 0.030899 0.997894 0.057035
0.845444 0.084263 0.726215 0.280895 0.112564 0.953114
0.600777 0.035483 0.703447 0.027974 -0.991537 -0.126776
0.335272 0.083155 0.585202 -0.994226 -0.015951 0.106111
0.064640 0.066646 0.801574 -0.115321 -0.991159 -0.065606
0.758014 0.143524 0.681530 -0.510894 0.414961 -0.752858
0.749734 0.078718 0.630859 -0.163457 0.032588 -0.986012
0.464455 0.068696 0.822426 0.239020 -0.116020 0.964059
0.842903 0.125461 0.513486 0.099420 0.971149 -0.216762
0.132038 0.057148 0.760958 -0.126674 -0.840319 -0.527085
0.298183 0.117253 0.870274 0.339900 0.660566 0.669418
0.482867 0.047713 0.789964 -0.091921 -0.980683 -0.172658
0.595068 0.048722 0.431311 -0.990242 -0.135771 -0.031403
0.681117 0.088304 0.643210 0.062891 0.068220 0.995686
0.532447 0.078446 0.734990 0.084684 0.682628 0.725842
0.090217 0.081152 0.951993 -0.663953 0.267733 0.698202
0.739565 0.064211 0.633761 -0.202021 0.014200 -0.979278
0.674527 0.093420 0.095744 0.153017 0.911802 -0.381054
0.710700 0.125461 0.639645 0.055845 0.948791 0.310929
0.584356 0.125461 0.471893 -0.165461 0.986104 0.014851
0.376551 0.067996 0.622675 -0.398946 -0.317611 -0.860213
0.607562 0.035483 0.531240 -0.130445 -0.987718 -0.086013
0.795037 0.025000 0.359643 0.310193 -0.950105 -0.032886
0.443279 0.119346 0.778369 -0.303948 0.918295 -0.253673
0.637811 0.121568 0.082733 -0.696221 0.309702 -0.647581
0.661634 0.125461 0.506528 -0.072648 0.996575 0.039515
0.445964 0.035483 0.786429 0.048154 -0.989664 0.135082
0.521071 0.038581 0.800519 0.140552 -0.883221 0.447399
0.721029 0.035483 0.215148 -0.005100 -0.990192 -0.139622
0.810982 0.120648 0.719539 0.182591 0.862182 0.472549
0.736127 0.088383 0.634770 -0.116930 0.013173 -0.993053
0.784602 0.125461 0.458557 0.048644 0.998223 -0.034415
0.192547 0.070984 0.791606 0.188303 -0.112630 0.975631
0.881261 0.035483 0.576776 0.091427 -0.985393 0.143675
0.839571 0.053828 0.737622 -0.095411 -0.954517 -0.282479
0.724787 0.125461 0.539515 -0.026299 0.998705 0.043544
0.708698 0.125461 0.365895 -0.082350 0.996297 -0.024708
0.742023 0.039851 0.037179 -0.038496 -0.796922 -0.602855
0.811723 0.079879 0.613575 0.344893 -0.000489 0.938642
0.634731 0.025000 0.173536 -0.244353 -0.966471 -0.078904
0.734814 0.097474 0.635688 0.288278 0.191875 0.938126
0.340851 0.071255 0.600774 -0.940070 -0.237385 0.244779
0.857807 0.035483 0.605971 0.018028 -0.949715 -0.312597
0.715990 0.125461 0.647812 0.018316 0.966960 -0.254271
0.830822 0.125451 0.489210 0.339259 0.909827 -0.238994
0.639773 0.025000 0.215860 -0.211657 -0.974513 -0.074342
0.660295 0.107115 0.538130 -0.275043 0.934259 0.226961
0.410818 0.097266 0.768609 -0.515174 0.439893 -0.735588
0.829973 0.062222 0.215995 0.864695 -0.483017 -0.137829
0.684254 0.107115 0.342615 -0.072082 0.996960 0.029574
0.624978 0.135070 0.453475 -0.169947 0.985171 -0.023571
0.801115 0.035483 0.517229 0.046925 -0.997556 -0.051768
0.256996 0.116378 0.773075 0.062982 0.743516 0.665746
0.811649 0.042056 0.209268 0.568438 -0.815449 -0.109185
0.643911 0.025000 0.361481 -0.116047 -0.992144 -0.046737
0.856109 0.099282 0.478754 0.744292 0.416361 -0.522181
0.552570 0.096080 0.079875 -0.430568 0.251946 -0.866680
0.213905 0.055575 0.859066 0.075675 -0.988693 0.129459
0.728293 0.135069 0.099619 -0.009424 0.982774 -0.184570
0.747533 0.107115 0.309636 0.213980 0.970940 -0.107179
0.733978 0.084262 0.059235 -0.282193 0.040719 -0.958493
0.238180 0.103104 0.900518 0.294392 0.283054 0.912805
0.758830 0.135070 0.528040 0.028516 0.999536 -0.010686
0.403673 0.072491 0.628395 0.932275 -0.354905 0.070036
0.281252 0.055575 0.828791 0.076261 -0.983889 -0.161698
0.180415 0.084387 0.795094 0.156132 0.036877 0.987048
0.598497 0.092680 0.461131 -0.990327 0.073329 0.117791
0.461783 0.085333 0.594166 -0.450594 0.158410 -0.878562
0.614438 0.095822 0.298887 -0.553907 0.822381 0.129906
0.723449 0.135069 0.235258 0.139001 0.989749 -0.032799
0.750062 0.125461 0.534559 0.008631 0.998502 0.054033
0.829323 0.053828 0.736056 -0.169162 -0.861171 -0.479343
0.189706 0.125461 0.872525 -0.054543 0.977084 0.205748
0.802243 0.128540 0.357603 0.399363 0.914890 -0.059041
0.886924 0.035483 0.689660 0.215224 -0.926567 0.308468
0.352165 0.110861 0.643408 -0.281606 0.731483 -0.620992
0.573807 0.035483 0.681334 0.139523 -0.878796 0.456345
0.712630 0.135070 0.507049 -0.057523 0.998287 -0.010695
0.797904 0.026969 0.343495 0.342824 -0.938498 -0.041151
0.754318 0.125460 0.238785 0.057891 0.993610 -0.096891
0.433299 0.110776 0.616199 -0.319826 0.743650 -0.587109
0.873557 0.120444 0.595565 0.024208 0.868224 -0.495581
0.196096 0.051278 0.789780 -0.284900 -0.084457 -0.954829
0.529590 0.081930 0.694102 -0.250821 0.051196 -0.966679
0.886154 0.105644 0.592173 0.289327 0.465308 0.836528
0.671172 0.035483 0.618515 -0.000908 -0.999978 0.006534
0.190449 0.077282 0.780982 0.391114 -0.089923 0.915939
0.664453 0.035483 0.748564 0.118146 -0.955673 0.269686
0.678626 0.035483 0.663156 0.001775 -0.966911 -0.255107
0.560586 0.092245 0.796828 -0.000133 0.479824 0.877365
0.391053 0.082567 0.620315 0.959757 0.154139 -0.234750
0.408068 0.071024 0.769395 -0.482600 -0.003485 -0.875834
0.639119 0.035483 0.657119 0.092811 -0.948695 0.302266
0.110878 0.106242 0.873445 -0.161908 0.945313 -0.283142
0.711636 0.053828 0.345299 0.043342 -0.999055 -0.003169
0.551382 0.067497 0.082932 -0.689228 -0.262331 -0.675387
0.646228 0.035483 0.436804 -0.137587 -0.989968 -0.032152
0.523883 0.049449 0.737690 0.111317 0.414583 0.903177
0.301412 0.094793 0.760304 0.168087 0.146701 0.974795
0.134116 0.109530 0.807315 0.266991 0.563585 0.781721
0.894228 0.107989 0.732504 0.148501 0.988045 -0.041399
0.514365 0.091006 0.433817 0.092416 0.148760 -0.984546
0.779986 0.049328 0.047603 -0.047737 -0.706888 -0.705713
0.647946 0.135070 0.532067 -0.143327 0.988654 0.044944
0.552269 0.035483 0.435266 -0.545230 -0.828502 -0.127702
0.577674 0.088031 0.169707 -0.965350 0.259970 -0.022691
0.731263 0.025000 0.369958 0.150602 -0.988114 -0.030833
0.707502 0.025000 0.225593 -0.057281 -0.992845 -0.104773
0.719661 0.025000 0.311553 0.096645 -0.994334 -0.044275
0.669848 0.035483 0.452439 -0.089377 -0.995867 -0.016169
0.480947 0.135943 0.678984 -0.218181 0.889832 -0.400744
0.631934 0.135069 0.138987 -0.161686 0.957858 -0.237416
0.598535 0.069672 0.186237 -0.569198 -0.820435 -0.053853
0.820267 0.091317 0.733449 0.277343 0.180601 0.943644
0.715763 0.135070 0.348496 0.098562 0.994139 -0.044431
0.642966 0.035483 0.620069 -0.011705 -0.999804 -0.015990
0.796609 0.025712 0.312526 0.307728 -0.950392 -0.045366
0.425277 0.125461 0.749933 0.039592 0.998400 -0.040380
0.469985 0.035483 0.720006 -0.068907 -0.923801 -0.376622
0.785067 0.081711 0.366901 0.954354 0.242935 -0.173754
0.075561 0.048745 0.830351 -0.444083 -0.673551 -0.590863
0.200820 0.090103 0.754785 0.453134 0.426639 -0.782719
0.343459 0.071828 0.633745 -0.397372 -0.245383 -0.884241
0.816639 0.113026 0.264919 0.700403 0.709493 -0.077816
0.574319 0.050561 0.511878 -0.621297 -0.764940 -0.169874
0.564466 0.035483 0.449463 -0.398745 -0.913983 -0.075088
0.081929 0.064303 0.873762 -0.344317 -0.516474 -0.784029
0.167485 0.089746 0.783547 0.310955 0.607267 0.731118
0.626531 0.053828 0.277351 -0.237188 -0.971424 -0.008767
0.690852 0.125461 0.634580 0.023015 0.985018 0.170909
0.562412 0.108068 0.684698 -0.109682 0.027213 -0.993594
0.384234 0.125461 0.791755 0.143449 0.982844 0.115930
0.688408 0.035483 0.401960 -0.111727 -0.992878 -0.041353
0.068536 0.109736 0.820853 0.104721 0.532843 0.839709
0.742582 0.042668 0.633119 -0.098853 -0.719695 -0.687217
0.815938 0.046600 0.259573 0.664775 -0.739592 -0.105245
0.415819 0.057208 0.818975 -0.527750 -0.846166 0.074043
0.830097 0.097924 0.438715 0.868762 0.483219 -0.108404
0.841476 0.125461 0.520018 0.100928 0.982616 -0.155819
0.174129 0.035483 0.822239 -0.047741 -0.993670 -0.101687
0.690748 0.117492 0.088902 0.106499 0.811634 0.574376
0.616034 0.032757 0.607147 -0.720459 -0.602870 0.342763
0.256562 0.091357 0.868182 0.315321 0.506945 0.802234
0.082801 0.055181 0.822126 0.129725 -0.481605 0.866734
0.662464 0.135070 0.244351 -0.088871 0.987051 -0.133539
0.499277 0.035483 0.683451 0.022030 -0.985925 0.165733
0.648133 0.135069 0.148608 -0.133061 0.967050 -0.217048
0.781818 0.125461 0.362133 0.067002 0.996825 -0.043024
0.615336 0.104450 0.614502 -0.912345 0.126965 0.389238
0.563895 0.135943 0.658942 -0.018704 0.993525 -0.112064
0.774554 0.105514 0.624262 0.252429 0.466497 0.847738
0.849582 0.071299 0.737735 0.309186 0.299293 0.902678
0.678777 0.053828 0.324348 -0.072441 -0.997371 -0.001660
0.633353 0.053828 0.317248 -0.271644 -0.962270 0.015688
0.318785 0.035483 0.825576 -0.021830 -0.990959 0.132376
0.830258 0.076430 0.241207 0.986227 -0.121271 -0.112472
0.792127 0.078647 0.583937 0.473221 -0.022666 0.880652
0.432781 0.125461 0.751321 0.058004 0.998029 0.023934
0.613221 0.045471 0.234126 -0.941282 -0.187974 -0.280452
0.681510 0.025000 0.100320 -0.224867 -0.964980 -0.135085
0.294586 0.118106 0.762267 0.059369 0.784442 0.617354
0.361571 0.063437 0.614861 0.644888 -0.745528 -0.168249
0.241449 0.058342 0.831693 -0.067210 -0.862475 -0.501617
0.641102 0.035483 0.286036 -0.214272 -0.976512 -0.022632
0.604704 0.039851 0.071000 -0.137759 -0.978081 -0.156142
0.442905 0.064589 0.451860 -0.512297 -0.332079 -0.792008
0.546086 0.125461 0.683893 0.032757 0.952198 0.303719
0.695015 0.025000 0.335409 0.040362 -0.998441 -0.038557
0.561015 0.055017 0.480997 -0.889581 -0.353785 0.288932
0.809947 0.132294 0.666150 -0.601789 0.785691 -0.143319
0.702325 0.025000 0.462886 -0.055448 -0.998244 -0.020838
0.054708 0.123433 0.893105 -0.298801 0.954306 -0.004150
0.811215 0.125461 0.529653 0.076320 0.997040 -0.009321
0.163642 0.084651 0.741929 -0.029947 -0.221642 -0.974668
0.749705 0.053828 0.342957 0.224419 -0.974203 -0.023785
0.739139 0.107115 0.521834 0.061302 0.994525 0.084624
0.444435 0.116305 0.759002 -0.370269 0.594946 -0.713400
0.479703 0.080650 0.438718 -0.285042 0.065086 -0.956303
0.420376 0.064169 0.726098 0.260985 -0.170087 0.950241
0.075983 0.096633 0.795190 -0.075862 0.996966 0.017408
0.550940 0.112969 0.788183 0.314329 0.811212 0.493084
0.071736 0.125461 0.869240 -0.150768 0.986535 -0.063385
0.048843 0.119411 0.871872 -0.521882 0.835162 -0.173618
0.613420 0.077006 0.127414 -0.895467 0.007557 -0.445064
0.671281 0.125460 0.218271 -0.053111 0.983979 -0.170189
0.707661 0.115096 0.066264 -0.130397 0.824009 -0.551368
0.572527 0.099965 0.103279 -0.478348 0.554114 0.681279
0.694039 0.125461 0.528012 -0.053031 0.997817 0.039346
0.788749 0.025000 0.386657 0.304910 -0.952005 -0.026749
0.613051 0.112358 0.325568 -0.964275 0.142059 -0.223591
0.444690 0.035483 0.645751 -0.090990 -0.980016 -0.176890
0.118785 0.071318 0.793204 0.153418 -0.833323 0.531070
0.749754 0.125461 0.395669 -0.005929 0.999652 -0.025692
0.257135 0.056298 0.772318 -0.270572 -0.089071 -0.958570
0.703290 0.053828 0.326446 0.035402 -0.999300 -0.012084
0.730792 0.125460 0.129357 0.050806 0.988275 -0.143986
0.242461 0.105964 0.702615 -0.319452 0.715227 -0.621611
0.391225 0.041022 0.734480 0.227823 -0.612128 0.757229
0.751072 0.035483 0.409114 -0.013897 -0.999770 -0.016322
0.674885 0.035483 0.610451 -0.008288 -0.999907 -0.010865
0.616474 0.151343 0.633674 0.520220 0.624903 -0.582123
0.361405 0.092637 0.499135 -0.522796 0.341928 -0.780878
0.606506 0.072254 0.484350 -0.984868 -0.035799 0.169570
0.641069 0.125461 0.579970 -0.115023 0.992182 -0.048426
0.620704 0.125461 0.289262 -0.236060 0.971151 -0.033776
0.602321 0.107115 0.212949 -0.330855 0.941738 0.060540
0.481345 0.135943 0.708638 0.040747 0.974494 0.220685
0.780898 0.135070 0.490095 0.039561 0.997262 -0.062478
0.734767 0.035533 0.635702 0.118776 -0.935312 0.333293
0.360764 0.035483 0.750988 -0.110712 -0.882796 -0.456524
0.131099 0.111480 0.789556 -0.167091 0.898781 0.405307
0.586295 0.105728 0.283609 -0.770432 0.636336 -0.038866
0.761071 0.125461 0.717391 0.080690 0.967934 0.237893
0.334069 0.063437 0.571947 -0.778717 -0.626114 -0.039761
0.427620 0.087630 0.763807 -0.432117 0.206153 -0.877938
0.701272 0.135070 0.305668 0.074143 0.996465 -0.039508
0.036941 0.092319 0.811200 -0.609905 0.742140 0.277929
0.489398 0.048587 0.800572 0.236670 0.461516 0.854979
0.318361 0.053921 0.754670 -0.266568 -0.048676 -0.962586
0.874761 0.107989 0.732130 0.017237 0.987448 -0.157004
0.222465 0.099733 0.872835 0.224772 0.744162 0.629047
0.055653 0.058845 0.918655 -0.031194 -0.897331 0.440256
0.745290 0.096126 0.615612 0.467221 0.080714 0.880448
0.049535 0.081346 0.862722 -0.951127 -0.269585 -0.150602
0.192387 0.125461 0.872916 -0.042395 0.981366 0.187415
0.316259 0.089017 0.664805 -0.412433 0.321276 -0.852456
0.561487 0.103589 0.790455 0.344573 0.575344 0.741787
0.416199 0.062749 0.820317 -0.577948 -0.793026 0.192578
0.786195 0.025000 0.353144 0.285896 -0.957640 -0.034483
0.618022 0.128040 0.228180 -0.642652 0.640159 -0.420944
0.082578 0.052954 0.816140 0.096697 -0.750775 0.653442
0.508784 0.059297 0.740613 -0.105424 -0.555967 -0.824491
0.163616 0.118801 0.745127 -0.193102 0.922204 -0.335038
0.573911 0.125461 0.704432 0.060436 0.997499 -0.036660
0.098532 0.094974 0.757291 -0.238418 0.281695 -0.929411
0.877043 0.067205 0.647692 0.447841 0.143273 -0.882560
0.828205 0.125461 0.545866 0.092339 0.993045 0.073036
0.687403 0.044155 0.069950 -0.724363 -0.296433 -0.622436
0.797358 0.125461 0.664467 0.106459 0.994261 0.010521
0.888225 0.035483 0.676437 0.193760 -0.954274 0.227638
0.474066 0.097977 0.439778 -0.240825 0.362934 -0.900157
0.655706 0.135070 0.390001 -0.046272 0.997849 -0.046436
0.571392 0.133799 0.682491 0.334053 0.362940 0.869875
0.774715 0.053828 0.480815 0.113277 -0.991841 0.058486
0.613426 0.086576 0.123956 -0.879909 0.059478 -0.471405
0.509195 0.059308 0.581970 -0.401277 -0.473222 -0.784243
0.741369 0.125460 0.195178 0.050189 0.991656 -0.118739
0.447013 0.112709 0.818126 -0.043249 0.616371 0.786267
0.086690 0.092510 0.916153 0.139174 0.307094 0.941448
0.659253 0.127716 0.076821 -0.236192 0.843385 -0.482613
0.758799 0.076028 0.628792 0.336353 -0.035238 0.941076
0.328993 0.125461 0.825535 0.141301 0.980533 0.136342
0.560331 0.056628 0.685857 0.308918 -0.275793 0.910224
0.604943 0.035483 0.647889 -0.008310 -0.999667 0.024430
0.474628 0.098818 0.819518 0.248578 0.205185 0.946630
0.609420 0.035483 0.409482 -0.215383 -0.974695 -0.059836
0.039995 0.058420 0.822749 -0.271371 -0.799479 0.535903
0.301878 0.125461 0.806353 0.023726 0.987556 0.155471
0.684113 0.125461 0.415390 -0.132374 0.990741 -0.030156
0.549047 0.125461 0.592428 -0.151340 0.975342 -0.160638
0.761807 0.128634 0.050945 0.003533 0.926978 -0.375098
0.778344 0.025000 0.191486 0.203540 -0.976441 -0.071651
0.378319 0.039070 0.737680 -0.191907 -0.621990 -0.759144
0.746077 0.107115 0.458289 0.125959 0.991861 0.018576
0.803686 0.126924 0.335955 0.434661 0.898621 -0.059590
0.674933 0.135069 0.159735 -0.086081 0.978750 -0.186112
0.748648 0.125461 0.636633 0.017357 0.962201 -0.271787
0.763484 0.117278 0.593720 0.501490 0.199197 0.841919
0.832578 0.035483 0.562029 0.068740 -0.994882 0.074064
0.622656 0.121092 0.075400 -0.076656 0.980469 -0.181120
0.662476 0.094185 0.048588 -0.143992 0.203409 -0.968448
0.593704 0.110681 0.111036 -0.210205 0.705927 0.676374
0.050510 0.095965 0.905528 -0.592922 0.677159 0.435775
0.670566 0.117519 0.653769 -0.029512 0.731115 -0.681616
0.744230 0.056695 0.077314 0.632570 -0.742842 -0.219182
0.235843 0.050492 0.894875 0.251900 -0.444098 0.859839
0.689168 0.025000 0.134043 -0.193655 -0.971790 -0.134619
0.838201 0.035483 0.595847 0.066057 -0.987676 0.141891
0.290754 0.035483 0.815398 -0.005889 -0.998901 0.046497
0.754451 0.047266 0.630042 0.265578 -0.673207 0.690116
0.337763 0.069605 0.749852 0.231507 -0.120414 0.965352
0.652639 0.105195 0.100034 0.116485 0.507061 0.854003
0.748794 0.035483 0.120516 0.056483 -0.973223 -0.222813
0.671061 0.125461 0.444787 -0.106548 0.994231 -0.012313
0.203392 0.035483 0.787879 0.185796 -0.662319 0.725819
0.740743 0.107115 0.250088 0.218526 0.965046 -0.144678
0.614774 0.118561 0.061824 -0.105945 0.842434 -0.528280
0.901538 0.124335 0.630563 0.164616 0.979203 -0.118584
0.767318 0.035483 0.384132 0.035040 -0.998016 -0.052311
0.065639 0.086429 0.827079 0.184550 -0.035867 0.982168
0.535669 0.123713 0.678511 0.017134 -0.999837 -0.005642
0.430113 0.036165 0.722856 -0.151946 -0.741652 -0.653349
0.754576 0.068599 0.581725 -0.113780 -0.935023 0.335835
0.791764 0.089345 0.414395 0.741957 0.660319 -0.116097
0.220437 0.035483 0.871935 -0.101601 -0.974245 0.201304
0.728761 0.113883 0.750580 0.134635 0.594936 0.792417
0.475053 0.122247 0.710377 0.058297 0.875818 0.479107
0.605283 0.028205 0.419058 -0.681808 -0.731078 -0.025731
0.782346 0.122709 0.302718 0.128707 0.990427 -0.049895
0.718173 0.035483 0.499683 -0.033028 -0.997873 -0.056194
0.625614 0.065434 0.378052 -0.678439 -0.723017 0.130254
0.860777 0.049950 0.538609 0.875934 -0.119438 0.467411
0.725987 0.059972 0.081279 0.600637 -0.760736 -0.245997
0.768511 0.125461 0.633601 0.034456 0.974673 -0.220964
0.662825 0.135069 0.081189 -0.122613 0.959337 -0.254241
0.411321 0.036160 0.632863 -0.135875 -0.951738 -0.275197
0.834330 0.125461 0.630301 0.063925 0.988633 -0.136079
0.625027 0.134189 0.121025 -0.228765 0.929664 -0.288776
0.603934 0.123713 0.672613 0.349685 -0.614775 0.706946
0.369274 0.036416 0.841773 -0.015321 -0.947946 0.318061
0.735507 0.053828 0.449335 -0.012989 -0.998273 0.057284
0.665066 0.125460 0.082299 -0.028856 0.977038 -0.211104
0.516166 0.123713 0.659288 -0.227131 -0.876403 -0.424651
0.481845 0.104953 0.749619 0.090989 0.889389 0.448005
0.830097 0.094986 0.438989 0.899185 0.423836 -0.108765
0.162229 0.121178 0.748228 -0.163982 0.945217 -0.282268
0.783850 0.135070 0.556499 0.121795 0.984354 0.127334
0.615488 0.125461 0.751222 -0.081064 0.936415 0.341403
0.748012 0.053828 0.257473 0.357373 -0.930209 -0.083644
0.468183 0.091798 0.508492 0.756674 0.309055 -0.576134
0.240539 0.044066 0.777807 0.224741 -0.489458 0.842569
0.333680 0.111690 0.866170 0.347541 0.479489 0.805795
0.455169 0.047713 0.819564 0.173558 -0.715469 0.676744
0.808533 0.094356 0.533308 0.540079 0.841605 -0.003909
0.403231 0.098380 0.476630 -0.408626 0.527747 -0.744653
0.204373 0.095801 0.910227 0.278587 0.246265 0.928301
0.727843 0.053828 0.096110 0.515293 -0.837027 -0.184009
0.613779 0.035358 0.600244 -0.818451 -0.465433 0.336914
0.717163 0.093590 0.592461 -0.235319 0.883360 0.405339
0.257219 0.062328 0.772304 -0.276340 -0.065847 -0.958801
0.123965 0.080251 0.933321 0.238534 0.053426 0.969664
0.709625 0.125461 0.644362 -0.007775 0.940143 -0.340691
0.570533 0.035483 0.571031 -0.135907 -0.961500 -0.238846
0.414320 0.064520 0.813681 -0.642439 -0.766316 0.005661
0.811593 0.041785 0.296168 0.596034 -0.798315 -0.086237
0.749068 0.133386 0.592565 0.156363 0.925090 0.346063
0.573691 0.141265 0.664152 0.255581 -0.178892 0.950093
0.681719 0.025000 0.555366 -0.075216 -0.994983 0.065963
0.601496 0.125460 0.136575 -0.254413 0.955182 -0.151333
0.715042 0.053828 0.174951 0.342076 -0.931031 -0.127145
0.831642 0.035483 0.642945 0.079457 -0.990268 -0.114264
0.902120 0.060862 0.692262 0.379181 -0.664811 0.643621
0.163884 0.087400 0.921856 0.259349 0.170790 0.950562
0.477525 0.084947 0.577403 -0.851189 0.157938 0.500533
0.777887 0.038709 0.176927 0.148997 -0.971036 -0.186785
0.110457 0.071191 0.814144 0.294517 -0.114689 0.948739
0.626999 0.135070 0.484953 -0.192499 0.981217 0.012557
0.224106 0.040867 0.782532 0.219970 -0.534728 0.815892
0.762619 0.035483 0.687828 0.123028 -0.989806 0.071746
0.282808 0.090563 0.811975 -0.140262 0.215514 -0.966375
0.741874 0.056862 0.633658 0.344210 -0.310488 0.886068
0.791865 0.053828 0.526403 0.118253 -0.989694 0.080759
0.214217 0.061862 0.785375 0.206980 -0.222043 0.952815
0.608933 0.035483 0.191568 -0.285992 -0.958221 -0.004627
0.142548 0.067863 0.775655 0.023864 -0.993738 -0.109158
0.629242 0.035483 0.518216 -0.109217 -0.993465 -0.033151
0.830243 0.086323 0.259389 0.983268 0.147726 -0.106585
0.617789 0.125461 0.696679 0.056410 0.997106 0.050973
0.967178 0.081480 0.519673 0.642985 0.004360 0.765866
0.427800 0.078613 0.605533 -0.435674 -0.021172 -0.899855
0.331918 0.041038 0.751532 0.231699 -0.569198 0.788879
0.681403 0.135070 0.567349 -0.070295 0.996187 0.051677
0.135299 0.105586 0.863393 -0.173963 0.886692 -0.428386
0.607037 0.155726 0.641626 0.252196 0.672067 0.696221
0.614751 0.097979 0.301099 -0.500330 0.856452 0.127124
0.183849 0.125077 0.744686 -0.124792 0.970803 -0.204861
0.881529 0.035483 0.608146 0.041526 -0.964981 -0.259011
0.680388 0.025000 0.625256 0.106978 -0.891968 0.439259
0.624453 0.085901 0.667420 0.285983 0.034617 0.957609
0.821377 0.035677 0.711387 0.189622 -0.926099 0.326165
0.632203 0.025000 0.129026 -0.274604 -0.957703 -0.086012
0.748963 0.053828 0.180242 0.479778 -0.866691 -0.136598
0.667943 0.028396 0.074913 -0.459861 -0.854779 -0.240585
0.682206 0.053828 0.117607 0.284561 -0.946324 -0.153284
0.808999 0.121304 0.342512 0.540785 0.838229 -0.070166
0.668735 0.071604 0.097372 0.360714 -0.814243 -0.454855
0.794273 0.025000 0.569152 0.207988 -0.930919 0.300218
0.613471 0.058007 0.099857 -0.894151 -0.085199 -0.439586
0.754235 0.087088 0.752422 0.251496 0.092661 0.963413
0.765276 0.075776 0.578655 0.104701 -0.812109 0.574035
0.762281 0.025000 0.259171 0.188421 -0.980471 -0.056336
0.577969 0.082499 0.333263 -0.994397 -0.010670 -0.105170
0.478072 0.104405 0.750710 0.094296 0.886100 0.453801
0.573703 0.092249 0.682012 0.256048 0.107378 0.960682
0.613078 0.091444 0.310910 -0.976133 0.035178 -0.214304
0.599401 0.036619 0.353104 -0.284202 -0.956501 -0.065843
0.195170 0.045131 0.730766 -0.256145 -0.924638 -0.281839
0.579779 0.093543 0.205602 -0.933469 0.358326 -0.015450
0.726778 0.135069 0.107739 -0.010237 0.983644 -0.179834
0.646921 0.039851 0.089834 0.081532 -0.938707 0.334937
0.655079 0.135070 0.288726 -0.091645 0.990065 -0.106642
0.628829 0.090908 0.057814 -0.229962 0.155220 -0.960741
0.754880 0.125460 0.213458 0.064474 0.992626 -0.102648
0.447492 0.048645 0.827273 0.148330 -0.370280 0.917001
0.811235 0.041377 0.287168 0.584467 -0.806651 -0.087821
0.729008 0.025000 0.082459 -0.169747 -0.968948 -0.179793
0.394408 0.078286 0.616702 -0.424975 -0.049248 -0.903864
0.645861 0.107115 0.369832 -0.245833 0.962262 0.116701
0.438128 0.063437 0.464860 -0.095819 -0.837891 0.537362
0.893916 0.075327 0.712288 0.289531 0.034703 0.956539
0.702937 0.035483 0.153944 -0.021810 -0.985158 -0.170261
0.723168 0.135070 0.333410 0.118454 0.992025 -0.043076
0.796914 0.133155 0.078980 0.362370 0.931790 -0.021323
0.695873 0.107115 0.291591 0.006637 0.999408 -0.033754
0.526646 0.124553 0.695543 0.052952 0.909328 0.412696
0.302806 0.125461 0.760313 -0.104891 0.865159 -0.490406
0.413152 0.036082 0.728175 0.173044 -0.771790 0.611879
0.854575 0.057603 0.717169 -0.040099 -0.560830 -0.826959
0.600796 0.077684 0.674222 0.292206 -0.035336 0.955702
0.090557 0.096633 0.784786 -0.153867 0.912504 -0.379028
0.100242 0.048418 0.825179 -0.243047 -0.801340 -0.546610
0.729644 0.035483 0.575208 -0.030141 -0.999311 -0.021680
0.539789 0.049036 0.577311 -0.311684 -0.729988 -0.608252
0.810859 0.132410 0.670857 0.858652 -0.163616 -0.485744
0.667724 0.135070 0.504223 -0.129435 0.991500 0.013193
0.589499 0.035483 0.114430 -0.455409 -0.889767 -0.030288
0.651356 0.035483 0.239274 -0.201191 -0.979449 -0.014219
0.465184 0.100823 0.712643 -0.208912 0.081074 -0.974568
0.217752 0.115684 0.895069 0.275526 0.657230 0.701523
0.785490 0.044497 0.252001 0.252414 -0.961672 -0.107120
0.551308 0.112142 0.774929 -0.167008 0.863245 0.476358
0.659936 0.053828 0.486272 -0.424177 -0.897374 0.121626
0.405925 0.077488 0.852340 0.318585 0.065736 0.945612
0.074450 0.065420 0.764157 -0.281574 -0.329092 -0.901340
0.596192 0.136217 0.655357 0.425378 -0.642958 0.636913
0.608590 0.035483 0.479045 -0.127807 -0.991723 0.012316
0.878667 0.071299 0.742456 0.306761 0.535547 0.786821
0.599628 0.100565 0.193977 -0.445745 0.893866 0.048109
0.583006 0.125461 0.604647 -0.099684 0.991110 -0.088109
0.461700 0.125461 0.703000 0.009468 0.968837 0.247517
0.513404 0.068917 0.576899 -0.450955 -0.219083 -0.865241
0.617529 0.144280 0.648484 0.573720 0.064845 0.816480
0.838789 0.125461 0.504261 0.091421 0.972776 -0.212951
0.718394 0.025000 0.494273 -0.060111 -0.998124 -0.011595
0.061594 0.088799 0.828382 -0.712069 -0.022259 -0.701757
0.381136 0.035483 0.708908 -0.015563 -0.993849 0.109646
0.690465 0.125461 0.618889 0.002174 0.995262 0.097209
0.625802 0.025000 0.400255 -0.117117 -0.992854 -0.022904
0.821376 0.107989 0.749984 -0.007355 0.550596 0.834739
0.274625 0.035483 0.838449 -0.044806 -0.990756 0.128041
0.665389 0.035483 0.455886 -0.090250 -0.995841 -0.012511
0.724425 0.135069 0.163595 -0.002331 0.990143 -0.140044
0.286040 0.089657 0.810498 -0.139117 0.170408 -0.975504
0.824867 0.056586 0.284094 0.823574 -0.555722 -0.113570
0.627729 0.053828 0.144349 -0.019373 -0.994587 -0.102089
0.633845 0.125461 0.636188 -0.014284 0.998264 0.057134
0.681056 0.107115 0.569503 -0.210386 0.952236 0.221326
0.844336 0.134196 0.672153 0.063408 0.997031 0.043680
0.587252 0.035483 0.135920 -0.490249 -0.871490 0.012690
0.612184 0.104494 0.062476 -0.209117 0.502628 -0.838830
0.661769 0.107115 0.400483 -0.198583 0.973197 0.115982
0.728031 0.025000 0.295420 0.112529 -0.992487 -0.048030
0.563508 0.035483 0.593132 -0.112311 -0.966127 -0.232348
0.419360 0.059217 0.831161 -0.032126 -0.364394 0.930691
0.746190 0.025000 0.586972 0.121567 -0.964628 0.233911
0.211924 0.035483 0.738032 -0.097045 -0.993333 -0.062220
0.464674 0.066595 0.713361 0.269594 -0.133429 0.953685
0.821630 0.107931 0.313335 0.769576 0.632112 -0.090482
0.874217 0.112383 0.506634 0.136733 0.786654 -0.602063
0.479252 0.093138 0.555471 -0.698220 0.581055 0.418169
0.760235 0.135069 0.191056 0.230116 0.972729 -0.029068
0.856163 0.060628 0.554140 0.714459 -0.136709 0.686191
0.673167 0.125461 0.410227 -0.152059 0.987870 -0.031473
0.601126 0.087211 0.204586 -0.795861 0.603652 0.046999
0.162996 0.080891 0.739688 -0.068672 -0.305633 -0.949670
0.516902 0.125461 0.737335 0.054495 0.978190 0.200438
0.120664 0.080215 0.753887 -0.772714 -0.422510 -0.473708
0.116347 0.093776 0.774015 -0.195193 0.679518 -0.707216
0.846205 0.125461 0.648513 0.113700 0.992477 -0.045404
0.821716 0.107905 0.240764 0.788097 0.608642 -0.091964
0.613336 0.069719 0.172397 -0.931738 -0.042851 -0.360594
0.651570 0.035512 0.659623 0.131983 -0.905459 0.403392
0.634210 0.135070 0.420000 -0.119810 0.991891 -0.042404
0.740717 0.107115 0.430380 0.118810 0.992907 0.004586
0.241597 0.035483 0.859262 -0.080276 -0.981324 0.174812
0.817602 0.078989 0.575236 0.486299 -0.036639 0.873024
0.129109 0.055575 0.874488 -0.141535 -0.953280 -0.266880
0.715341 0.105507 0.763448 0.248184 0.284163 0.926097
0.679385 0.125461 0.582472 -0.085716 0.996318 0.001760
0.726907 0.107115 0.350590 0.105648 0.993668 -0.038248
0.252625 0.035483 0.809965 -0.014104 -0.999045 -0.041354
0.642342 0.035483 0.500632 -0.095679 -0.995085 0.025507
0.896557 0.050450 0.589182 0.290855 -0.673093 0.679962
0.678756 0.025000 0.193219 -0.171716 -0.978646 -0.112983
0.735651 0.035483 0.491252 -0.040101 -0.999151 -0.009497
0.759043 0.127009 0.590739 0.443891 0.509105 0.737410
0.595103 0.039851 0.098610 -0.090776 -0.820269 0.564728
0.709664 0.055035 0.763796 0.194888 -0.071067 0.978248
0.399406 0.036803 0.636815 -0.141272 -0.947473 -0.286946
0.863180 0.107989 0.716921 -0.187756 0.577190 -0.794732
0.772638 0.125052 0.099334 0.121557 0.985976 -0.114345
0.708546 0.035483 0.638185 0.088426 -0.961061 0.261805
0.665604 0.025000 0.125112 -0.231657 -0.965854 -0.116024
0.611614 0.125460 0.278637 -0.251216 0.967314 -0.034551
0.756379 0.125461 0.275695 0.052223 0.994924 -0.086020
0.681255 0.135070 0.479820 -0.107596 0.993842 -0.026478
0.589125 0.051304 0.291308 -0.664123 -0.743055 -0.082527
0.778977 0.135069 0.180671 0.272696 0.961682 -0.028370
0.342335 0.063437 0.521044 -0.670697 -0.611372 -0.419989
0.813488 0.043985 0.390177 0.677629 -0.732575 -0.064442
0.516914 0.125461 0.736844 0.057323 0.979321 0.194022
0.403469 0.125461 0.761317 0.058655 0.997432 0.041089
0.475359 0.035483 0.752427 0.035645 -0.999117 -0.022222
0.637123 0.066193 0.663777 0.316262 -0.122287 0.940757
0.671142 0.110409 0.770873 0.169955 0.440469 0.881534
0.772833 0.107115 0.333168 0.300148 0.945238 -0.128203
0.486394 0.110328 0.747011 -0.186638 0.336700 -0.922930
0.131999 0.125461 0.897535 -0.106102 0.970000 0.218730
0.780668 0.121332 0.727527 0.146483 0.865138 0.479666
0.430526 0.048587 0.785521 0.373773 0.894518 0.245216
0.903228 0.125019 0.672988 0.228925 0.969111 0.091749
0.579278 0.073693 0.240943 -0.984413 -0.173770 -0.027109
0.587840 0.035483 0.449336 -0.190076 -0.981601 -0.018184
0.665177 0.135069 0.163055 -0.101690 0.976115 -0.191985
0.860884 0.035483 0.599008 0.094472 -0.971410 0.217803
0.717466 0.025000 0.612582 0.152647 -0.936798 0.314814
0.749870 0.053828 0.312128 0.276452 -0.959937 -0.045772
0.720468 0.135070 0.353800 0.108192 0.993105 -0.045123
0.793047 0.100018 0.423494 0.456094 0.884814 -0.095299
0.342499 0.098380 0.563713 0.790628 0.496994 -0.357638
0.798586 0.125461 0.705215 0.116854 0.976118 0.183136
0.778465 0.053828 0.496214 0.105560 -0.992165 0.066825
0.594377 0.135943 0.639937 -0.035986 0.976654 -0.211783
0.655486 0.077139 0.050503 -0.208890 -0.026594 -0.977578
0.437417 0.066570 0.721199 0.262254 -0.135840 0.955390
0.164527 0.125461 0.773166 -0.066122 0.994534 0.080806
0.634266 0.035483 0.461198 -0.120394 -0.992705 -0.006546
0.513470 0.099685 0.740477 0.075535 0.857546 0.508832
0.598753 0.053683 0.463354 -0.977593 -0.133683 0.162608
0.106828 0.035483 0.898977 -0.149280 -0.975345 0.162533
0.576586 0.135943 0.677911 0.287737 0.677267 0.677139
0.745268 0.025000 0.500730 -0.006973 -0.999810 -0.018207
0.718790 0.135070 0.235501 0.128364 0.991188 -0.032692
0.887886 0.077850 0.685161 0.794679 0.015789 -0.606825
0.773880 0.125239 0.136225 0.111668 0.988212 -0.104721
0.815282 0.125461 0.585143 0.016867 0.980366 0.196461
0.600950 0.078703 0.203346 -0.987923 -0.154687 0.008926
0.587201 0.121092 0.074178 -0.151452 0.906108 -0.395007
0.646643 0.088533 0.620846 -0.584125 0.050737 0.810076
0.795825 0.029628 0.054290 0.091307 -0.963476 -0.251750
0.076320 0.054604 0.824095 -0.567149 -0.206958 -0.797189
0.478279 0.035483 0.684250 -0.006403 -0.995608 0.093399
0.889404 0.066932 0.632086 -0.714426 -0.647791 -0.264504
0.777893 0.035483 0.340532 0.059985 -0.994183 -0.089449
0.165916 0.063432 0.798137 0.429153 -0.032813 0.902636
0.239235 0.060457 0.698569 -0.426568 -0.628452 -0.650452
0.697585 0.101238 0.598078 -0.225905 0.929852 0.290417
0.416267 0.119790 0.801737 0.291181 0.933094 0.211069
0.677405 0.037694 0.643790 0.163411 -0.257840 0.952268
0.751557 0.053828 0.296409 0.310127 -0.948938 -0.057773
0.856652 0.052557 0.551530 0.742445 -0.158702 0.650837
0.762332 0.053828 0.317573 0.324519 -0.944661 -0.047982
0.095791 0.106731 0.778388 -0.109013 0.921393 -0.373030
0.806562 0.025000 0.545482 0.166166 -0.980886 0.101248
0.349222 0.070412 0.745891 -0.269473 -0.020664 -0.962786
0.629276 0.059943 0.403992 -0.554314 -0.824816 0.111420
0.752200 0.125461 0.355725 0.028071 0.997167 -0.069791
0.720412 0.053828 0.561428 -0.272242 -0.950698 0.148515
0.847186 0.125461 0.677671 0.130191 -0.988552 0.076263
0.698442 0.069139 0.089022 0.593186 -0.707427 -0.384288
0.613306 0.089484 0.188550 -0.922024 0.058160 -0.382739
0.762507 0.135070 0.365203 0.200253 0.978600 -0.047330
0.627158 0.053828 0.189590 -0.091821 -0.993438 -0.068196
0.761645 0.087525 0.627436 -0.106388 0.005968 -0.994307
0.286768 0.035483 0.801525 -0.005795 -0.999340 -0.035874
0.101245 0.057482 0.768219 -0.259713 -0.765718 -0.588409
0.455492 0.050962 0.824987 0.174073 -0.328115 0.928461
0.666146 0.029021 0.628941 0.047986 -0.797724 0.601111
0.108869 0.100296 0.754344 -0.209340 0.364487 -0.907373
0.408831 0.062476 0.794296 -0.643389 -0.547861 -0.534695
0.508602 0.078133 0.740665 -0.096626 -0.271832 -0.957481
0.647941 0.035483 0.468277 -0.095054 -0.995472 0.000630
0.624560 0.053828 0.231056 -0.170083 -0.984642 -0.039401
0.787244 0.135069 0.072162 0.288886 0.956787 -0.033208
0.730863 0.115299 0.636824 0.137353 0.777160 0.614131
0.237151 0.080530 0.693369 -0.516305 0.006276 -0.856382
0.754533 0.107115 0.239156 0.277911 0.944628 -0.174479
0.645792 0.107115 0.340700 -0.230721 0.968543 0.093232
0.751772 0.098704 0.753129 0.258700 0.225702 0.939219
0.775791 0.125461 0.412570 0.047234 0.998246 -0.035698
0.747789 0.125460 0.226007 0.051897 0.993050 -0.105637
0.627768 0.109422 0.613674 -0.529571 0.223087 0.818405
0.640186 0.135070 0.277699 -0.118930 0.984653 -0.127724
0.760801 0.039585 0.594636 0.448943 -0.201680 0.870503
0.151872 0.037467 0.803301 0.199044 -0.583403 0.787415
0.698024 0.039851 0.062391 0.032542 -0.984735 -0.170993
0.727561 0.035649 0.738254 0.142478 -0.937746 0.316752
0.743419 0.107115 0.174915 0.267467 0.940826 -0.208106
0.607146 0.077740 0.113287 0.122984 -0.044488 0.991411
0.257617 0.056480 0.859340 0.248684 -0.778190 0.576695
0.417660 0.077246 0.825335 -0.322831 -0.108984 0.940161
0.556652 0.125461 0.686019 0.049079 0.926499 0.373084
0.075544 0.083865 0.812174 0.188605 -0.024783 0.981740
0.391961 0.035483 0.682769 -0.114903 -0.970972 -0.209786
0.790130 0.081448 0.402805 0.968758 0.206716 -0.137031
0.399921 0.035483 0.694485 -0.056874 -0.998018 -0.026924
0.619638 0.044868 0.668366 -0.159629 -0.564086 -0.810139
0.573139 0.093404 0.403234 -0.966606 0.186232 -0.176043
0.895235 0.085528 0.717771 0.781370 -0.548899 0.296937
0.699607 0.070384 0.645248 -0.213785 0.032068 -0.976354
0.478754 0.088149 0.818339 0.275873 0.116753 0.954077
0.534829 0.035483 0.720708 0.013565 -0.991376 -0.130346
0.563075 0.125461 0.611160 -0.097311 0.990110 -0.101060
0.572919 0.046413 0.485370 -0.538844 -0.831536 0.134891
0.427061 0.035483 0.765752 0.026534 -0.999437 -0.020549
0.674667 0.035483 0.678480 0.031869 -0.986399 -0.161247
0.476549 0.067596 0.709947 0.271623 -0.124710 0.954289
0.585635 0.123336 0.137860 -0.481914 0.841756 -0.243322
0.059426 0.106235 0.915581 0.049010 0.739007 0.671913
0.720649 0.046080 0.639369 -0.134966 -0.584266 -0.800261
0.280528 0.035483 0.713090 -0.119941 -0.978106 -0.170069
0.597747 0.035483 0.747061 0.119118 -0.978077 0.170810
0.743476 0.087641 0.073948 0.493203 0.094072 0.864813
0.756832 0.078896 0.166678 0.927908 0.043844 -0.370221
