0.128778 0.417750 0.187680 -0.169531 -0.905615 0.388743
0.034875 0.045752 0.083430 -0.987659 0.087702 0.129759
0.066476 0.428658 0.389966 0.999191 0.036981 0.015792
0.121777 0.393545 0.174862 -0.976809 -0.028635 -0.212187
0.086642 0.363615 0.324609 -0.444008 -0.896010 0.004780
0.112319 0.264460 0.203712 0.985461 0.154542 -0.070592
0.098815 0.164616 0.104832 -0.027525 0.541152 -0.840474
0.121897 0.433933 0.186815 0.433430 -0.841017 0.323774
0.076627 0.224227 0.232175 -0.957906 0.119120 -0.261203
0.118972 0.486532 0.350910 -0.746573 -0.665145 0.014511
0.089856 0.279867 0.230070 -0.213169 0.976690 -0.025205
0.135131 0.113746 0.052324 0.869079 -0.143770 -0.473320
0.113877 0.364219 0.280389 -0.998455 0.030391 -0.046517
0.134682 0.481128 0.251207 -0.596181 0.802610 0.019636
0.069362 0.516678 0.069022 -0.196265 0.897075 -0.395900
0.117037 0.070369 0.135459 0.999804 0.006248 -0.018776
0.029676 0.525703 0.221485 -0.450539 0.824752 -0.341757
0.080489 0.465679 0.515176 -0.313856 -0.926914 -0.205729
0.093226 0.432138 0.229049 -0.309910 -0.945168 -0.103020
0.145504 0.282867 0.250715 0.999351 0.029908 0.020086
0.115853 0.544110 0.468253 0.924868 0.375634 0.059311
0.076052 0.258421 0.196886 -0.973362 -0.214453 -0.081089
0.079010 0.465327 0.556286 -0.279744 0.959135 0.042472
0.115852 0.432643 0.160312 -0.980258 0.135466 0.144023
0.105977 0.354038 0.182518 0.931387 -0.318951 -0.175469
0.157328 0.456214 0.364342 0.916166 -0.387787 0.101294
0.066476 0.136558 0.082129 0.903042 -0.359790 0.234661
0.046355 0.376872 0.336894 -0.919612 -0.139805 0.367107
0.123120 0.495450 0.382484 -0.195268 -0.155917 -0.968277
0.104128 0.367488 0.226276 -0.022439 0.538326 -0.842438
0.088722 0.500428 0.311961 0.106237 0.087597 -0.990475
0.073239 0.090850 0.054445 0.527875 -0.538632 0.656676
0.118353 0.301205 0.133249 0.613502 0.391517 -0.685806
0.082276 0.430753 0.472455 -0.966658 -0.096391 0.237236
0.084392 0.314020 0.233489 0.622729 -0.754646 0.206681
0.072401 0.559053 0.143321 -0.719386 0.687730 -0.097531
0.118738 0.522244 0.782103 0.881760 0.471661 0.005885
0.085217 0.374379 0.368127 0.154974 0.651470 -0.742678
0.048701 0.509955 0.105494 0.966922 0.190137 -0.170026
0.128957 0.539895 0.458970 0.725421 0.686108 0.054965
0.043282 0.496928 0.533736 -0.241825 0.967476 0.074230
0.072401 0.147251 0.114493 0.925667 -0.208559 0.315665
0.089449 0.450739 0.074694 -0.190878 -0.723493 -0.663418
0.115852 0.414195 0.164371 -0.891487 0.294171 0.344549
0.117195 0.527269 0.694655 0.771775 0.634241 0.045851
0.109728 0.324917 0.176214 -0.183613 0.982128 -0.041361
0.107180 0.241266 0.155859 -0.324989 -0.518116 0.791163
0.102926 0.254637 0.195448 -0.683268 0.505158 0.527220
0.150166 0.452992 0.400853 -0.963593 0.078084 0.255717
0.048701 0.548377 0.077867 -0.986879 0.139571 -0.081173
0.104003 0.536396 0.303158 0.843713 0.520490 -0.131294
0.157328 0.489748 0.323987 0.920122 0.390319 0.032035
0.109476 0.511049 0.347802 -0.983378 -0.168850 -0.066764
0.052301 0.473013 0.441988 -0.176840 -0.967030 0.183251
0.080833 0.445952 0.285544 0.681069 -0.355368 0.640202
0.052485 0.481128 0.261906 0.635174 0.772235 0.014385
0.086227 0.546138 0.448424 0.871200 0.490816 -0.010476
0.113961 0.170935 0.053180 0.164436 -0.468698 0.867919
0.095814 0.397932 0.328687 0.110807 0.966742 -0.230501
0.066476 0.187219 0.067041 0.996585 0.017745 -0.080638
0.139553 0.483855 0.542057 0.904421 -0.425776 0.027163
0.075680 0.563696 0.260960 -0.318524 0.947629 0.023254
0.059867 0.055493 0.187086 -0.447527 -0.894259 0.004581
0.072401 0.076088 0.069674 0.705485 -0.703381 0.086862
0.063545 0.466388 0.566590 -0.776781 -0.625243 0.075376
0.072402 0.511077 0.495479 -0.967655 0.051413 0.246983
0.136018 0.518653 0.259779 0.535223 -0.839116 0.097056
0.042749 0.242939 0.197857 -0.999967 0.005406 0.006019
0.156253 0.486537 0.382484 0.894092 0.277534 -0.351532
0.073651 0.507895 0.299532 -0.932452 -0.323311 -0.161257
0.086397 0.432943 0.223681 -0.341446 -0.521610 0.781881
0.121777 0.202469 0.251306 -0.995623 -0.050645 0.078550
0.121777 0.231041 0.255757 -0.997597 -0.038187 0.057807
0.131652 0.482656 0.150011 -0.730085 0.663207 0.164721
0.136464 0.136412 0.198060 0.882958 -0.153994 0.443477
0.121575 0.542049 0.087509 -0.461521 -0.756888 0.462730
0.056604 0.490271 0.304967 0.951081 -0.308924 0.003290
0.139553 0.516826 0.461306 0.786736 0.601766 0.137561
0.072401 0.536374 0.204766 0.949330 0.311942 0.038264
0.072401 0.453999 0.430681 0.952783 0.274367 -0.130103
0.128731 0.498903 0.404442 -0.058395 0.997317 -0.044136
0.145504 0.290231 0.214890 0.999789 0.020034 -0.004610
0.080219 0.289343 0.257950 -0.769094 -0.638776 -0.021447
0.136147 0.518653 0.455142 0.785316 -0.614653 -0.074032
0.139553 0.485829 0.435266 0.994260 -0.104647 -0.022290
0.117037 0.341014 0.295966 0.999972 0.004093 -0.006241
0.115852 0.525352 0.386285 -0.992066 -0.116160 0.048081
0.096922 0.512676 0.192222 0.372333 -0.680966 -0.630597
0.135861 0.496928 0.438245 -0.174371 0.982753 0.061573
0.099618 0.411575 0.391887 0.194990 -0.522877 0.829807
0.066476 0.411874 0.247687 0.988880 0.000466 -0.148716
0.121703 0.086699 0.096267 0.600316 0.752803 -0.270015
0.075185 0.201002 0.215852 -0.881426 0.470513 -0.041296
0.121194 0.437676 0.245379 0.200682 -0.978844 -0.039877
0.101801 0.206860 0.238719 0.451326 -0.890509 0.057431
0.115852 0.520564 0.179802 0.911368 -0.388410 0.136181
0.157328 0.490581 0.263643 0.917170 0.398495 -0.000725
0.117037 0.340882 0.307016 0.999909 -0.007376 0.011342
0.103469 0.526103 0.567763 -0.435813 -0.894764 -0.097285
0.117037 0.093423 0.128193 0.998294 0.028585 -0.050906
0.072401 0.517305 0.111760 0.899095 0.263135 -0.349839
0.117465 0.253520 0.171716 -0.617156 -0.632106 0.468573
0.134034 0.336342 0.330526 0.873085 -0.191971 0.448184
0.115852 0.476774 0.106641 -0.831855 0.417602 0.365550
0.115852 0.546850 0.300347 0.994357 -0.094355 -0.048494
0.030925 0.445515 0.199061 -0.763407 -0.645701 -0.016716
0.077533 0.560130 0.191434 0.211106 0.871613 0.442409
0.089426 0.458688 0.190288 0.351560 0.075786 0.933093
0.117037 0.393125 0.347120 0.999713 -0.006543 0.023039
0.145231 0.144277 0.178971 0.990366 -0.039752 0.132644
0.068932 0.277538 0.124347 -0.580713 -0.358913 0.730722
0.042749 0.201215 0.141243 -0.999587 -0.028466 0.003949
0.091438 0.291562 0.177312 -0.004197 0.549522 -0.835469
0.062989 0.512295 0.530642 0.990778 -0.135339 -0.006513
0.099699 0.479766 0.698219 0.197798 -0.979261 0.043863
0.084795 0.195462 0.249585 -0.370268 -0.507863 0.777803
0.067583 0.485174 0.254764 0.572812 -0.819381 -0.022363
0.083656 0.082571 0.175702 -0.379421 -0.507011 0.773938
0.079097 0.205948 0.252253 -0.653699 -0.414523 0.633126
0.115852 0.177349 0.120083 -0.736766 -0.371988 0.564625
0.101139 0.170767 0.229992 0.333740 -0.651213 0.681571
0.108129 0.313280 0.169368 -0.919821 0.341580 0.193010
0.115852 0.167101 0.198544 -0.999512 0.014843 -0.027477
0.133036 0.375793 0.171686 0.866911 -0.094657 -0.489393
0.121777 0.119252 0.203862 -0.982693 -0.074301 0.169684
0.083567 0.528528 0.338011 0.235541 -0.950100 0.204524
0.128182 0.455353 0.544346 -0.290445 0.953940 -0.075096
0.145504 0.420144 0.302338 0.998422 0.056005 -0.004149
0.121777 0.367476 0.257620 -0.997833 0.023978 -0.061276
0.084704 0.189837 0.104583 -0.229764 -0.958221 -0.170355
0.030925 0.488728 0.339439 -0.911520 0.409436 0.038636
0.145504 0.296005 0.187399 0.999675 0.011869 -0.022544
0.097809 0.526554 0.054952 -0.142463 -0.984378 0.103463
0.110432 0.486976 0.817176 0.590271 -0.807144 -0.009978
0.117037 0.392410 0.269450 0.867848 0.272034 -0.415737
0.139553 0.497100 0.495720 0.905635 -0.419968 0.058758
0.085936 0.511359 0.457232 0.916684 -0.289342 -0.275629
0.108721 0.502726 0.339437 -0.928328 0.361284 -0.087646
0.072401 0.551505 0.106493 -0.964190 0.088840 -0.249891
0.072401 0.561770 0.254675 -0.821574 0.567359 -0.055864
0.139553 0.513524 0.090904 -0.952453 0.165804 -0.255621
0.149428 0.501535 0.103195 0.990711 -0.133715 -0.024731
0.083136 0.250243 0.216316 0.661797 0.725770 0.187836
0.139553 0.509756 0.376034 0.987284 0.118409 -0.106067
0.079619 0.507203 0.447926 -0.898521 -0.430858 0.083795
0.104965 0.560130 0.114293 0.436933 0.899342 0.016555
0.110384 0.382665 0.304424 -0.977236 -0.137717 0.161383
0.095032 0.535344 0.857364 0.056317 0.998030 -0.027650
0.110378 0.439820 0.110301 -0.740362 0.512724 0.434717
0.081469 0.499830 0.366176 0.859121 0.504876 -0.083728
0.121777 0.260783 0.136714 -0.999495 -0.020365 -0.024374
0.053075 0.489028 0.146893 -0.871020 0.478322 -0.111950
0.121777 0.426336 0.377855 -0.999287 0.037298 0.005869
0.139553 0.511031 0.147148 0.999865 -0.011704 -0.011568
0.038456 0.536352 0.181209 0.292404 -0.075715 -0.953293
0.123745 0.548817 0.250463 -0.101672 -0.346003 0.932708
0.115852 0.467972 0.461481 -0.916363 0.400062 0.015141
0.081534 0.495938 0.742668 0.812389 0.583057 -0.008330
0.089497 0.233746 0.136475 -0.179907 -0.963075 0.200301
0.037064 0.437677 0.375430 -0.710052 -0.691578 0.132464
0.072402 0.525686 0.407519 -0.901732 0.397694 -0.169465
0.156404 0.513606 0.241470 0.147699 -0.707557 0.691049
0.086227 0.535102 0.411683 0.907501 0.321152 0.270745
0.066476 0.319040 0.330500 -0.944764 -0.196712 0.262154
0.115852 0.173499 0.205328 -0.999343 0.017780 -0.031592
0.071216 0.267427 0.261299 -0.999912 -0.008057 0.010528
0.048632 0.551961 0.131921 0.569922 0.669223 0.476791
0.099969 0.379105 0.379356 0.209851 -0.819137 -0.533833
0.136537 0.489028 0.163710 0.776881 0.625655 -0.070791
0.125104 0.542593 0.361899 0.583134 0.810659 0.052787
0.084944 0.366969 0.268462 -0.563636 -0.813515 -0.143205
0.073864 0.214245 0.245742 0.946798 0.173659 -0.270955
0.071216 0.411524 0.330648 -0.998588 0.039030 -0.036046
0.077014 0.422956 0.120426 -0.338501 -0.748571 -0.570139
0.115852 0.433408 0.136576 -0.956906 0.234392 0.171441
0.038825 0.440600 0.158131 -0.931546 -0.362104 -0.033213
0.115852 0.402615 0.171823 -0.903333 0.192548 0.383296
0.109485 0.133846 0.117238 0.968441 0.240157 0.066684
0.090989 0.538615 0.671937 -0.121748 0.990991 0.055799
0.117704 0.490395 0.676968 0.797302 -0.601203 0.053528
0.121777 0.432032 0.393299 0.838747 -0.544518 -0.001595
0.090023 0.358096 0.311396 -0.238622 0.971052 -0.010861
0.121777 0.280744 0.282898 -0.998999 -0.018526 0.040715
0.097730 0.520011 0.471056 0.312448 0.938769 0.145221
0.078052 0.379451 0.346362 -0.962121 -0.066096 0.264489
0.072401 0.535351 0.490589 0.984213 0.166266 0.060671
0.072401 0.343521 0.278600 0.999025 -0.024282 0.036876
0.085791 0.495710 0.394173 0.535335 0.839616 -0.091988
0.073191 0.123654 0.118730 -0.998308 -0.035783 0.045828
0.065177 0.463352 0.474428 -0.918713 -0.382131 0.099705
0.151697 0.561252 0.243816 0.064233 0.649121 0.757968
0.079577 0.173154 0.151209 -0.262094 0.806626 0.529775
0.121777 0.219856 0.209901 -0.999018 -0.038283 0.022312
0.048711 0.485109 0.451401 0.998366 0.053625 0.019749
0.105653 0.255969 0.143623 -0.168059 0.876136 0.451821
0.084412 0.384112 0.398532 -0.241325 -0.144435 0.959636
0.060488 0.219372 0.266305 -0.342102 -0.457365 0.820843
0.143115 0.433403 0.515431 0.974308 -0.200275 0.103026
0.059858 0.437676 0.282641 -0.505242 -0.857783 0.094546
0.100397 0.245102 0.281536 -0.278524 0.522194 -0.806063
0.111676 0.429714 0.111355 0.356483 -0.756885 -0.547763
0.121777 0.080674 0.173825 0.964899 0.214221 0.151919
0.057355 0.026129 0.097674 -0.032559 -0.974252 -0.223097
0.121777 0.171280 0.103899 -0.996497 -0.073517 0.039864
0.058132 0.479805 0.337234 0.492574 0.870262 0.003806
0.133154 0.084846 0.119495 0.569283 0.752129 0.331992
0.094766 0.381640 0.317894 0.328641 0.040688 -0.943578
0.097695 0.434117 0.465799 -0.159012 -0.902388 -0.400515
0.110316 0.222489 0.142432 0.297731 0.517722 -0.802072
0.140020 0.498071 0.180717 -0.396065 0.915538 0.070168
0.084515 0.500563 0.404300 0.713865 0.694789 -0.087553
0.088390 0.560130 0.165579 -0.143705 0.988917 0.037317
0.115852 0.288515 0.247128 -0.998296 -0.032923 0.048182
0.043374 0.437676 0.245726 -0.595632 -0.802166 0.041848
0.148229 0.073944 0.099926 0.869584 -0.471466 0.146776
0.087181 0.534939 0.837053 -0.233971 0.972062 -0.018808
0.056604 0.488986 0.167969 0.991013 -0.075543 0.110396
0.082183 0.495158 0.825778 0.528963 0.848622 0.006237
0.083272 0.194681 0.128554 -0.303093 0.207184 -0.930166
0.089255 0.420954 0.398084 -0.228002 -0.515804 0.825810
0.072401 0.094778 0.144607 0.999874 -0.011541 0.010934
0.065871 0.544498 0.472945 -0.542888 0.835951 0.080360
0.072401 0.520169 0.121379 -0.965659 -0.257981 0.030800
0.030925 0.450720 0.307875 -0.899350 -0.430225 0.077951
0.058130 0.546304 0.214233 -0.442044 0.891480 0.099301
0.072401 0.101044 0.200174 0.926600 0.066330 -0.370153
0.109826 0.299367 0.229028 -0.972378 0.086256 0.216890
0.129978 0.086771 0.096538 0.459225 0.843113 -0.279772
0.115018 0.560130 0.179015 0.231973 0.965050 0.121931
0.072401 0.431228 0.137776 0.961431 0.219946 0.165147
0.143503 0.099479 0.127028 -0.982817 -0.133219 0.127761
0.090337 0.528528 0.333620 0.187827 -0.963252 0.192006
0.139553 0.552566 0.092860 0.989606 0.121393 -0.077093
0.115852 0.287973 0.273181 -0.999986 0.001960 -0.004949
0.139097 0.532793 0.502137 0.897915 0.438200 -0.041590
0.106473 0.506151 0.389909 -0.984107 0.118916 -0.131881
0.110364 0.484214 0.925791 0.564820 -0.824265 -0.039574
0.115852 0.548532 0.074469 0.825800 0.434913 -0.359033
0.082938 0.444869 0.239915 -0.638112 -0.769943 0.000479
0.148032 0.494374 0.539939 0.770921 0.626422 0.115223
0.115852 0.524628 0.264908 -0.990274 -0.133739 0.038347
0.123285 0.498833 0.632454 0.950185 -0.302878 0.073574
0.134828 0.287140 0.296297 0.882335 -0.201174 0.425457
0.044751 0.066599 0.151957 -0.985013 -0.129412 0.114025
0.135754 0.496928 0.118202 -0.640856 0.752160 0.153488
0.077121 0.207206 0.094941 -0.956096 0.276882 -0.096003
0.078403 0.536177 0.578749 0.493855 -0.804791 0.329269
0.075981 0.275184 0.293190 -0.809376 -0.321110 0.491731
0.069266 0.127548 0.050271 -0.584800 -0.083461 0.806873
0.048701 0.527629 0.210017 -0.987012 0.160638 0.001692
0.121777 0.233090 0.157175 0.986631 -0.162206 0.015770
0.081171 0.464192 0.403727 -0.860338 0.307432 0.406577
0.064776 0.095531 0.206198 0.803524 -0.087271 0.588841
0.088133 0.527586 0.711899 0.109572 -0.993828 -0.017339
0.078708 0.040365 0.157126 0.026337 -0.947553 -0.318513
0.115852 0.540752 0.399320 -0.976831 0.207022 0.054256
0.072401 0.543108 0.284154 0.967607 0.251768 0.018701
0.083573 0.355779 0.528900 -0.322743 -0.307653 0.895090
0.121777 0.284980 0.301094 0.996902 0.074079 0.026423
0.151621 0.049303 0.134707 0.642423 -0.210983 0.736735
0.121515 0.461246 0.521200 -0.959104 0.179222 0.219088
0.147823 0.462113 0.101157 0.910547 -0.366922 -0.190452
0.121777 0.197688 0.246431 0.985096 0.053604 0.163437
0.121777 0.277752 0.181256 -0.994290 0.031381 -0.101996
0.114650 0.042877 0.168822 0.396554 -0.906458 0.145184
0.067517 0.043969 0.154440 -0.370312 -0.927566 -0.049904
0.115852 0.448027 0.167118 -0.976978 0.186197 0.104139
0.106075 0.250949 0.223991 -0.729157 0.662935 0.169846
0.071216 0.326733 0.292402 -0.999919 0.006607 -0.010832
0.071216 0.253145 0.248510 -0.999972 -0.005026 0.005606
0.157328 0.481236 0.404146 0.995264 0.024188 0.094152
0.066476 0.347683 0.307101 0.999941 0.009372 0.005397
0.114948 0.431752 0.530197 -0.552937 0.822592 0.132676
0.117054 0.522028 0.867886 0.879769 0.474275 -0.032707
0.132488 0.211284 0.252729 0.869157 -0.234736 0.435276
0.072401 0.138352 0.097374 0.594568 -0.442500 0.671328
0.069498 0.198809 0.255512 -0.703929 -0.382674 0.598369
0.094070 0.147400 0.093646 -0.163707 0.533742 -0.829651
0.145504 0.171814 0.095058 0.998410 -0.056329 0.002216
0.063884 0.474874 0.333354 0.604889 0.796306 0.002285
0.098083 0.282191 0.178969 -0.266466 -0.530417 0.804770
0.082612 0.505595 0.459888 0.951321 0.201794 -0.232952
0.084316 0.552913 0.529288 -0.237496 0.970963 -0.028737
0.084380 0.339178 0.426743 -0.510540 -0.549248 -0.661570
0.145504 0.416887 0.332871 0.996580 0.081999 0.010236
0.149428 0.466989 0.157669 0.971279 -0.206547 -0.118135
0.048701 0.515971 0.433428 -0.996857 0.074488 -0.026984
0.111863 0.301148 0.268897 0.773532 -0.051663 -0.631648
0.082276 0.407472 0.434291 -0.983702 -0.093272 0.153722
0.143323 0.036007 0.129501 0.077137 -0.659343 0.747874
0.115852 0.161710 0.178767 -0.999982 -0.005529 0.002116
0.102027 0.532121 0.198129 0.997889 -0.011467 0.063916
0.097698 0.259115 0.195449 -0.278764 0.194261 0.940507
0.136091 0.545018 0.263689 0.747384 0.661457 0.062389
0.115852 0.415730 0.150823 -0.899217 0.301475 0.317051
0.062496 0.476065 0.241346 0.575347 0.817460 0.027121
0.082276 0.412898 0.187850 -0.602447 0.632720 -0.486542
0.147301 0.436192 0.462298 0.674076 -0.736254 0.059587
0.121777 0.133097 0.049503 0.656967 -0.067927 0.750853
0.044727 0.496928 0.371794 0.044569 0.998830 0.018743
0.079965 0.204406 0.120722 0.008023 0.553579 -0.832758
0.139553 0.504089 0.073031 -0.912831 0.195250 -0.358632
0.089519 0.549464 0.487537 -0.516245 0.802800 0.298333
0.082492 0.564080 0.358258 0.095075 0.986812 0.131010
0.130768 0.104566 0.069175 -0.335015 -0.924122 0.183748
0.093163 0.265105 0.160262 -0.008606 0.551257 -0.834291
0.145504 0.390491 0.275207 0.998633 0.049604 -0.016492
0.048701 0.503069 0.421174 -0.984678 -0.169070 0.042717
0.117037 0.382951 0.331275 0.999999 0.001517 0.000603
0.080256 0.139365 0.122419 0.017903 0.821277 0.570249
0.072401 0.443524 0.211751 0.996918 -0.022544 0.075135
0.091087 0.279126 0.167134 -0.181162 -0.575621 0.797396
0.153459 0.480648 0.459511 0.952030 -0.019811 0.305364
0.139056 0.430741 0.422729 0.434748 -0.864321 -0.252872
0.060777 0.225360 0.084901 -0.253211 0.515146 -0.818846
0.107805 0.197847 0.248324 0.607451 -0.435142 0.664571
0.139553 0.504425 0.167158 -0.783766 0.589268 0.196149
0.117757 0.067279 0.135568 -0.391673 -0.332267 -0.858016
0.086368 0.315325 0.490034 -0.238519 -0.901268 0.361697
0.056314 0.264909 0.289217 -0.861560 -0.223016 0.456046
0.152750 0.496928 0.227064 0.572442 0.819268 0.033319
0.108300 0.514703 0.155048 -0.015386 -0.931824 0.362583
0.107182 0.140058 0.160378 -0.297924 0.842862 0.448135
0.136861 0.116142 0.100204 0.832674 0.502180 -0.233387
0.048701 0.499411 0.163452 -0.987071 -0.152532 -0.049248
0.072401 0.172108 0.135458 0.966412 -0.142082 0.214152
0.123752 0.507070 0.317580 -0.987004 0.052286 -0.151951
0.115852 0.193931 0.242983 -0.838146 0.295671 -0.458356
0.121777 0.181065 0.133460 -0.977689 -0.197460 -0.071655
0.069311 0.057916 0.196254 -0.723852 -0.482668 0.493021
0.079238 0.229984 0.157483 -0.578573 0.812275 0.073915
0.107261 0.218439 0.129830 -0.011653 0.557549 -0.830062
0.056361 0.481128 0.254021 0.506488 0.861671 0.031511
0.153596 0.532479 0.405894 0.658782 0.740428 -0.133317
0.048711 0.481495 0.415556 0.716035 0.698028 0.007179
0.101849 0.265691 0.114984 -0.039185 -0.520951 0.852687
0.078292 0.469853 0.500908 -0.262587 -0.843041 -0.469393
0.042749 0.149737 0.161197 -0.998920 -0.028319 0.036824
0.079503 0.170460 0.108628 -0.449017 0.483824 -0.751198
0.145114 0.308903 0.179785 0.987770 0.072784 -0.137885
0.112408 0.303289 0.237774 0.992602 0.107692 -0.056076
0.087386 0.519491 0.450101 0.492852 -0.855562 -0.158462
0.115852 0.239176 0.171560 -0.921922 -0.213280 0.323374
0.071216 0.394602 0.258206 -0.540741 0.460581 -0.703892
0.094543 0.504882 0.181016 0.356644 0.163385 0.919843
0.053166 0.123868 0.140996 -0.014809 -0.566638 -0.823834
0.081333 0.564080 0.354970 -0.025886 0.994404 0.102425
0.121777 0.427576 0.529873 0.989032 -0.126324 0.076534
0.072401 0.410106 0.362021 0.998467 0.039552 -0.038710
0.121777 0.422692 0.390298 -0.999185 0.034223 0.021390
0.066698 0.507027 0.155353 0.978822 0.200887 0.039400
0.071216 0.297410 0.201307 -0.748798 0.360018 -0.556496
0.058592 0.102606 0.057527 -0.608873 0.677595 -0.412478
0.092768 0.280250 0.211753 -0.079257 0.995249 -0.056545
0.122656 0.518653 0.416149 -0.199126 -0.979932 0.009058
0.048701 0.508022 0.100110 0.959470 0.195796 -0.202683
0.100903 0.147486 0.051832 0.125529 0.158053 0.979419
0.139553 0.499853 0.408030 0.935113 -0.354177 0.011086
0.066476 0.138184 0.191975 0.991304 -0.131437 -0.006344
0.090944 0.424233 0.408064 0.190780 0.551083 -0.812349
0.081859 0.161879 0.100671 0.387667 -0.552683 0.737737
0.082262 0.482535 0.735201 -0.401793 -0.915329 0.027117
0.066476 0.241389 0.151826 -0.973154 0.113962 -0.199962
0.132619 0.496928 0.457581 0.850370 -0.525043 -0.034648
0.066476 0.457330 0.487843 -0.985439 -0.102069 0.135985
0.056602 0.490306 0.118901 0.900635 0.349876 0.257765
0.055443 0.253368 0.279420 -0.869139 -0.221488 0.442199
0.042749 0.411394 0.249221 -0.999556 0.019429 -0.022611
0.107724 0.514703 0.173229 -0.118679 -0.894526 0.430974
0.129306 0.498903 0.427389 0.018318 0.997952 -0.061285
0.113877 0.215281 0.192035 -0.994605 -0.059143 0.085220
0.138697 0.481128 0.346539 -0.663483 0.748191 0.000733
0.157328 0.486885 0.324212 0.966506 0.253724 0.038610
0.110244 0.429281 0.396649 0.683766 -0.378626 0.623784
0.066476 0.455410 0.476359 -0.970476 -0.213794 0.111667
0.119750 0.471807 0.208628 -0.836851 0.546107 0.038040
0.085123 0.394506 0.252062 0.488866 -0.444911 0.750376
0.090803 0.186903 0.119311 -0.172508 0.533641 -0.827930
0.077785 0.490707 0.492067 -0.541687 -0.821839 0.176510
0.056112 0.265111 0.288828 -0.863148 -0.221878 0.453593
0.061143 0.546304 0.196022 -0.594874 -0.605325 0.528873
0.042749 0.279373 0.222383 -0.999784 0.020276 0.004659
0.075502 0.295724 0.134611 0.028017 -0.504848 0.862753
0.075753 0.273168 0.173097 0.644943 -0.436297 0.627450
0.103537 0.095972 0.211037 -0.446972 0.104282 -0.888449
0.125123 0.068196 0.135290 0.006411 -0.382254 -0.924035
0.079281 0.495750 0.839519 0.629540 0.776827 0.014785
0.072737 0.531173 0.630141 -0.702869 0.707422 0.074358
0.125159 0.513096 0.535797 0.962212 0.098481 -0.253870
0.149428 0.489024 0.152762 0.977504 -0.177341 -0.114172
0.068931 0.325236 0.343623 -0.854866 -0.455842 0.247814
0.098579 0.528718 0.050828 0.175944 0.523815 -0.833463
0.121777 0.452289 0.487725 0.987265 -0.146321 0.062427
0.113232 0.174342 0.226124 0.861399 -0.279183 0.424323
0.142395 0.453546 0.109953 0.813731 -0.490595 -0.311704
0.042749 0.201497 0.201185 -0.999654 -0.001650 0.026250
0.135163 0.116570 0.135966 0.727386 0.347160 0.591937
0.131653 0.495816 0.560834 0.883105 -0.274275 0.380656
0.157142 0.526083 0.382484 0.740698 0.616427 -0.267179
0.088236 0.362955 0.308660 -0.339042 -0.940501 -0.022547
0.115852 0.443761 0.382781 -0.996168 -0.017461 -0.085701
0.097860 0.564080 0.236056 0.238061 0.970026 -0.048751
0.094148 0.154789 0.099674 -0.192522 -0.539344 0.819782
0.071216 0.277944 0.277383 -0.999462 -0.019096 0.026648
0.062774 0.542330 0.456468 -0.622034 0.780435 0.063202
0.111556 0.301222 0.183241 -0.027483 0.548947 -0.835405
0.105367 0.107928 0.052907 0.234516 0.947943 0.215420
0.091040 0.535639 0.467797 -0.584531 -0.809969 -0.047687
0.115711 0.350079 0.281710 -0.998737 -0.027499 0.042057
0.117037 0.174340 0.129637 0.924719 0.203689 -0.321566
0.121777 0.405639 0.378036 -0.999316 0.027836 0.024342
0.039870 0.048247 0.122073 -0.861599 0.235133 -0.449843
0.038825 0.426902 0.163104 -0.841357 -0.528282 -0.114173
0.101243 0.025299 0.102176 0.006329 -0.994649 -0.103121
0.105720 0.564361 0.380184 -0.283078 0.874046 0.394855
0.062242 0.541803 0.537310 -0.755264 0.655376 -0.007666
0.101507 0.521376 0.424078 0.535207 0.843431 0.046662
0.048701 0.529162 0.194919 -0.974996 0.220553 0.027208
0.121777 0.356545 0.227057 -0.996389 0.022400 -0.081903
0.066476 0.271676 0.168142 -0.961751 0.116706 -0.247819
0.067177 0.093548 0.173088 -0.926121 0.376885 -0.016028
0.149428 0.476016 0.140512 0.981166 -0.173799 -0.084311
0.073191 0.171460 0.158789 -0.998833 0.023331 -0.042289
0.100029 0.414955 0.256721 0.250184 0.431058 -0.866947
0.082344 0.217131 0.114916 0.784101 0.580478 -0.219617
0.115852 0.454021 0.429204 -0.954760 0.269556 -0.125592
0.094415 0.514058 0.489494 -0.052186 -0.871604 -0.487425
0.121777 0.423868 0.345362 -0.999253 0.017533 -0.034437
0.066476 0.399992 0.252336 0.992859 -0.016469 -0.118149
0.061333 0.560129 0.153331 -0.417520 0.895334 0.155096
0.057191 0.118321 0.204996 -0.852044 -0.112177 0.511310
0.079791 0.329030 0.336310 0.442570 0.574333 -0.688675
0.115852 0.190083 0.209229 -0.999826 0.007987 -0.016859
0.157328 0.461065 0.475603 -0.986495 0.098897 -0.130561
0.148957 0.498333 0.180193 0.099596 0.990462 0.095216
0.090525 0.352010 0.404114 -0.233375 0.393573 0.889177
0.078794 0.182509 0.234639 0.700571 0.386426 -0.599896
0.115852 0.223761 0.166483 -0.959773 -0.154959 0.234146
0.102287 0.491042 0.904883 -0.549414 0.834625 0.039311
0.064957 0.505317 0.936221 -0.992606 -0.121156 0.007372
0.072401 0.494956 0.373090 0.946247 0.322224 0.028077
0.025000 0.548487 0.200665 -0.860984 -0.282587 0.422909
0.066476 0.171038 0.162175 0.995892 -0.082483 -0.037348
0.115852 0.330046 0.305661 -0.999886 0.008162 -0.012727
0.081818 0.516726 0.420054 -0.813598 0.579950 0.041432
0.063364 0.513570 0.612511 -0.988099 0.129694 0.082699
0.115852 0.532195 0.068521 0.994027 0.106337 -0.024571
0.115430 0.131658 0.084645 -0.608148 -0.436803 0.662842
0.066476 0.289488 0.131544 0.996057 0.026576 -0.084642
0.143756 0.438181 0.133992 0.845692 -0.439517 -0.302704
0.051678 0.516393 0.583592 -0.953326 0.153256 -0.260159
0.117037 0.105240 0.156820 0.999873 0.004531 -0.015279
0.101991 0.357529 0.274339 0.435306 0.899506 -0.037392
0.139553 0.497737 0.074502 0.766186 -0.607289 -0.210141
0.070824 0.546304 0.422999 0.564148 0.821501 0.082902
0.121777 0.214454 0.134771 0.978236 0.084791 -0.189379
0.082276 0.339263 0.437787 -0.717635 0.416680 0.558012
0.091330 0.393756 0.272475 0.239255 -0.901086 0.361665
0.080774 0.297480 0.328447 -0.418272 -0.515315 0.747996
0.030925 0.484932 0.408312 -0.979580 0.177491 0.094440
0.074144 0.403694 0.249768 -0.599488 0.392433 -0.697575
0.139553 0.515548 0.075081 -0.927124 0.146571 -0.344902
0.065724 0.522077 0.559423 -0.878711 0.395765 -0.266903
0.118492 0.494745 0.782648 0.860522 -0.509382 0.005628
0.087013 0.326188 0.292219 -0.362682 -0.812120 -0.457080
0.066476 0.354610 0.376223 -0.887098 -0.400532 0.229414
0.054234 0.120024 0.100244 -0.021704 -0.655574 0.754819
0.099558 0.525574 0.608295 -0.330580 -0.943692 -0.012704
0.056603 0.490305 0.145863 0.977791 0.106061 0.180764
0.115852 0.244606 0.179575 -0.958061 -0.157925 0.239122
0.139553 0.505442 0.530092 0.983953 -0.167079 0.062624
0.072402 0.546183 0.468604 -0.921837 0.382338 0.063523
0.094493 0.269384 0.298415 -0.024113 0.544053 -0.838704
0.097803 0.494603 0.430966 0.345910 -0.936912 0.050429
0.115852 0.313665 0.267405 -0.998599 -0.029526 0.043920
0.067212 0.520629 0.256428 0.988172 -0.151833 0.021526
0.098821 0.180784 0.123365 0.101526 -0.793863 -0.599562
0.115845 0.444506 0.567566 0.257996 -0.166538 -0.951684
0.072401 0.135820 0.208534 0.887881 0.204565 -0.412093
0.086656 0.162766 0.073620 -0.784393 -0.617337 -0.060189
0.121777 0.221123 0.213588 -0.998965 -0.038109 0.024848
0.072401 0.314875 0.203740 0.822976 -0.313161 0.473963
0.066476 0.327814 0.187028 -0.883378 -0.271479 -0.382025
0.121777 0.187353 0.121488 0.990095 0.060350 -0.126765
0.081989 0.183175 0.137184 0.434903 0.694305 0.573411
0.105478 0.497873 0.359595 -0.770030 0.632167 -0.086138
0.145504 0.210681 0.154291 0.999785 -0.020366 0.003939
0.066476 0.385540 0.321317 0.999587 0.025077 -0.014052
0.125236 0.512508 0.569244 -0.968417 -0.076910 0.237177
0.106571 0.523671 0.706833 -0.746342 -0.665444 -0.012558
0.072401 0.544306 0.430509 0.953680 0.296192 0.052589
0.074972 0.380076 0.357612 0.882026 0.259554 -0.393270
0.058624 0.481128 0.305635 0.063871 -0.997956 -0.002203
0.073436 0.316156 0.314794 -0.918986 -0.215529 0.330169
0.092585 0.427802 0.455035 -0.170673 -0.981686 0.084636
0.054283 0.129123 0.107838 0.260184 -0.813417 0.520246
0.086227 0.521869 0.221421 0.989728 0.129265 -0.061074
0.076046 0.563148 0.087052 -0.482092 0.766694 -0.423991
0.108773 0.168406 0.164621 0.338181 0.829305 0.444844
0.066476 0.144438 0.197371 0.995249 -0.085673 0.046249
0.157328 0.484787 0.403614 0.961856 0.136198 -0.237240
0.074376 0.233727 0.190810 0.993019 0.062563 -0.099993
0.121499 0.492989 0.556374 0.838750 -0.475567 -0.265208
0.107817 0.271764 0.192575 0.758588 0.544655 -0.357625
0.048701 0.517179 0.096522 -0.995635 0.074149 -0.056690
0.123104 0.503853 0.932839 0.987181 -0.159378 -0.008543
0.104206 0.508496 0.197475 -0.540919 -0.697365 -0.470200
0.139553 0.525758 0.230465 -0.957042 0.256057 -0.136036
0.089601 0.523678 0.343240 0.230999 -0.966917 -0.108220
0.119345 0.053596 0.074240 0.336971 -0.096867 -0.936519
0.071216 0.236571 0.224583 -0.999790 0.010039 -0.017856
0.093209 0.493161 0.460957 0.050815 0.987996 -0.145883
0.082276 0.371624 0.412984 -0.967614 -0.031757 -0.250429
0.102928 0.549154 0.458366 -0.797899 0.601997 0.030937
0.121777 0.114264 0.183194 -0.998072 -0.057526 -0.023317
0.084214 0.534796 0.914195 -0.442390 0.780146 -0.442339
0.132922 0.537121 0.484554 0.804660 0.593547 0.014969
0.066476 0.416494 0.515965 -0.817170 -0.474994 -0.326517
0.042749 0.432150 0.356546 -0.995565 0.092405 0.017677
0.030925 0.483062 0.252976 -0.981806 0.189887 -0.000705
0.084310 0.223292 0.121787 0.682232 0.555114 -0.475823
0.126314 0.476541 0.400080 -0.557774 0.829993 0.000233
0.034875 0.030780 0.106963 -0.999495 -0.016507 -0.027152
0.072401 0.060884 0.153898 0.956467 0.168093 -0.238571
0.100660 0.549464 0.488114 0.604258 0.788322 0.115847
0.130581 0.537672 0.063206 0.020300 0.210783 -0.977322
0.075659 0.538915 0.366024 -0.833964 0.344143 0.431358
0.076490 0.546016 0.579989 -0.255707 0.690130 0.677004
0.135862 0.290747 0.295983 0.889657 -0.194445 0.413160
0.100124 0.461503 0.190288 -0.460788 -0.186224 0.867753
0.149428 0.487962 0.102811 0.986163 -0.153831 -0.061798
0.096414 0.483112 0.894703 0.054750 -0.997483 -0.045060
0.066501 0.369775 0.163167 -0.780049 -0.115249 -0.615014
0.086622 0.548445 0.512828 -0.822915 0.387958 0.415091
0.086227 0.518647 0.209103 -0.999476 -0.029079 0.014242
0.085603 0.512375 0.318517 0.503028 -0.275807 -0.819081
0.127768 0.498903 0.413116 -0.072108 0.996194 -0.048967
0.055159 0.315862 0.155355 -0.852500 0.267252 -0.449243
0.112609 0.553713 0.199775 -0.109224 0.126777 0.985899
0.094778 0.445577 0.448689 -0.176758 0.974921 -0.135225
0.124835 0.466553 0.540641 0.779539 -0.620916 0.082352
0.109710 0.170490 0.109875 -0.467816 -0.485500 0.738538
0.087073 0.535640 0.799855 -0.239117 0.970989 -0.002076
0.104003 0.540118 0.349014 0.820417 0.564566 -0.090451
0.087303 0.519448 0.457883 0.483388 -0.858589 -0.170766
0.084712 0.106474 0.211915 0.446549 0.106866 -0.888354
0.115852 0.437468 0.204363 -0.995229 -0.023195 0.094764
0.149428 0.466606 0.180861 0.979960 -0.172645 -0.099359
0.105751 0.191737 0.076522 0.140746 -0.743090 -0.654223
0.102480 0.501174 0.388047 0.721022 -0.652348 -0.233601
0.049515 0.481128 0.233565 -0.665053 -0.746141 -0.031271
0.086227 0.535537 0.463189 0.902660 0.427188 0.052110
0.066476 0.506214 0.496926 0.982280 -0.059115 0.177850
0.072401 0.410356 0.201190 0.900017 -0.049780 0.433003
0.098783 0.412076 0.186607 -0.012614 0.788518 -0.614883
0.154386 0.473227 0.390552 0.933866 -0.342729 0.102135
0.143503 0.100156 0.109031 -0.975155 -0.202470 -0.089885
0.074100 0.542778 0.129792 -0.707166 0.025421 0.706590
0.115128 0.148667 0.200237 -0.967636 0.135040 -0.213176
0.042749 0.088777 0.155913 -0.692466 -0.348889 -0.631480
0.117606 0.496928 0.327494 0.573617 -0.816639 -0.063750
0.030925 0.456099 0.279041 -0.937220 -0.344914 0.051499
0.042749 0.262312 0.205794 -0.999929 0.011701 0.002240
0.095840 0.468084 0.579989 -0.002542 -0.323492 0.946228
0.113877 0.257073 0.204213 -0.986832 0.087048 -0.136328
0.121777 0.188660 0.212166 -0.997244 -0.052732 0.052184
0.129464 0.433421 0.195262 -0.162965 0.312491 0.935837
0.075185 0.230055 0.152852 -0.623301 0.751033 -0.217819
0.112178 0.501188 0.566888 -0.938303 0.337490 -0.075416
0.079444 0.132702 0.177022 -0.392967 0.746262 0.537280
0.099575 0.150098 0.233697 0.314034 -0.501253 0.806305
0.115852 0.122905 0.152844 -0.999991 -0.003982 -0.001174
0.124014 0.474569 0.365250 -0.605459 0.795876 0.001028
0.133628 0.516106 0.215581 0.894056 0.447585 -0.018192
0.101247 0.373969 0.155626 0.268654 -0.159787 -0.949891
0.064718 0.546304 0.204926 0.404704 0.910765 0.081982
0.095432 0.477802 0.214226 0.075591 0.996186 -0.043589
0.105498 0.034702 0.082958 0.007825 -0.695827 -0.718167
0.050054 0.489028 0.543567 0.702478 -0.695742 0.149891
0.105559 0.156343 0.221181 -0.474722 0.476935 -0.739711
0.106331 0.514703 0.173547 -0.394049 -0.821444 0.412257
0.102560 0.526360 0.763141 -0.541648 -0.840542 -0.010323
0.121777 0.446017 0.503016 0.970485 -0.239854 0.025084
0.142393 0.440044 0.405123 -0.601193 0.648697 0.466646
0.072401 0.132618 0.099517 0.883289 -0.272529 0.381483
0.098290 0.336982 0.237468 -0.080887 0.063278 -0.994713
0.072401 0.414284 0.325878 0.999424 0.001339 0.033909
0.077942 0.383652 0.313076 0.959855 -0.235954 0.151672
0.121821 0.457759 0.522980 0.983504 -0.111078 0.142761
0.121777 0.421139 0.180985 0.752322 -0.552568 0.358720
0.094996 0.361985 0.331614 -0.002458 -0.999857 0.016760
0.072401 0.098483 0.099378 0.818113 -0.528534 0.226592
0.157328 0.478066 0.193001 0.995877 0.088023 -0.021936
0.047828 0.080677 0.157906 -0.138187 -0.552665 -0.821867
0.038494 0.437677 0.381975 -0.819227 -0.558453 0.130371
0.050547 0.064021 0.136182 -0.257653 0.228711 0.938779
0.084337 0.512705 0.353752 -0.267130 0.133096 0.954425
0.067246 0.484904 0.426680 0.699154 -0.714065 0.035993
0.048225 0.389064 0.184143 -0.903569 -0.136314 -0.406179
0.072401 0.321401 0.207995 0.828037 -0.307080 0.469103
0.072158 0.548426 0.557320 -0.521362 0.841654 0.140714
0.120004 0.485706 0.221670 -0.576262 -0.816363 -0.038394
0.037499 0.530494 0.182035 0.197478 -0.227256 -0.953602
0.054207 0.282357 0.135406 -0.856848 0.266570 -0.441306
0.071674 0.381873 0.350296 -0.986375 -0.087842 0.139099
0.072401 0.453842 0.461013 0.745625 0.617768 0.249813
0.127793 0.478671 0.552603 0.560751 -0.822414 0.095882
0.030925 0.482362 0.188650 -0.980816 0.192300 -0.031948
0.068753 0.520629 0.401082 -0.844307 0.535792 -0.008483
0.066476 0.235853 0.268841 0.997088 -0.037415 0.066451
0.121777 0.349438 0.299048 -0.999930 0.011082 -0.004154
0.066476 0.432585 0.276720 0.971160 0.205758 -0.120466
0.071316 0.363360 0.266425 0.905692 0.232072 -0.354775
0.124632 0.498903 0.322311 -0.121669 0.992535 -0.008417
0.125727 0.455345 0.474970 -0.918605 0.249163 0.306728
0.082716 0.407522 0.446664 -0.898670 -0.283348 0.334823
0.157328 0.466668 0.445491 0.995885 -0.078169 -0.045854
0.044133 0.421361 0.176397 -0.747315 0.315353 -0.584870
0.106954 0.189848 0.078983 -0.201554 -0.882190 -0.425578
0.121587 0.546304 0.234269 -0.287340 0.954918 0.074621
0.082967 0.202092 0.207286 -0.546418 0.830525 0.107960
0.101087 0.177760 0.111006 -0.280408 -0.566003 0.775249
0.132955 0.496928 0.245296 -0.344783 0.938468 0.020062
0.117037 0.164849 0.180595 0.999434 0.015573 -0.029816
0.099424 0.267992 0.184885 -0.032900 -0.017026 -0.999314
0.089513 0.312812 0.444564 -0.145977 -0.974037 -0.173037
0.072401 0.522382 0.240949 -0.876322 -0.203593 0.436589
0.071216 0.193406 0.216802 -0.999438 -0.020919 0.026193
0.088348 0.386064 0.317895 0.120761 0.284072 -0.951168
0.075957 0.530625 0.755727 -0.640948 0.767377 0.017838
0.135558 0.429109 0.433310 0.329787 -0.891406 -0.310861
0.042749 0.395718 0.293663 -0.998041 0.062113 -0.007531
0.090386 0.256107 0.290791 -0.149567 -0.540175 0.828155
0.137317 0.496928 0.486484 0.860685 -0.507811 0.036746
0.050998 0.431777 0.133620 -0.672248 -0.587212 -0.450848
0.112391 0.457437 0.191657 0.993014 -0.084437 -0.082427
0.062298 0.481128 0.115295 0.573392 0.784637 0.235725
0.077141 0.380133 0.377333 0.348028 0.392791 -0.851230
0.101903 0.524786 0.638556 -0.204259 -0.978879 0.008637
0.041071 0.495224 0.578946 -0.568273 0.801895 0.184473
0.115853 0.535227 0.457526 0.922814 0.384386 0.025722
0.120486 0.543647 0.091583 -0.726833 -0.678757 0.104892
0.076493 0.409221 0.265249 0.380350 -0.501728 0.776918
0.092975 0.109737 0.194567 0.116201 0.538027 -0.834880
0.114661 0.424234 0.385881 0.890702 -0.231504 0.391224
0.132725 0.487790 0.579989 0.651462 0.511914 0.559948
0.079158 0.512954 0.354523 0.946038 -0.317468 -0.065013
0.030925 0.473635 0.220903 -0.998056 -0.061338 -0.011070
0.074399 0.533131 0.568368 0.636877 -0.751696 0.171292
0.089454 0.548814 0.225619 -0.577380 -0.589287 -0.565131
0.055131 0.557108 0.167818 -0.725558 0.674187 0.137975
0.113429 0.210502 0.124501 0.037243 0.534901 -0.844094
0.128152 0.355138 0.382367 0.501789 -0.543376 0.673015
0.048701 0.486015 0.241323 -0.969107 0.245269 -0.025958
0.146253 0.479111 0.465436 0.452266 0.157760 -0.877820
0.109751 0.538701 0.500908 -0.547809 -0.785900 -0.286823
0.034875 0.053057 0.130346 -0.993834 -0.002809 -0.110838
0.144585 0.202253 0.107015 0.946967 0.170079 -0.272629
0.042749 0.147756 0.177268 -0.998832 -0.020920 0.043550
0.038825 0.427735 0.155477 -0.854984 -0.465586 -0.228542
0.056189 0.496928 0.292746 0.165158 0.986248 0.006079
0.066476 0.440796 0.417200 -0.968807 -0.236729 0.073293
0.048701 0.537162 0.068831 -0.751858 0.386389 -0.534241
0.080427 0.298207 0.171005 -0.569936 0.351252 0.742829
0.062013 0.468385 0.445659 -0.721854 -0.682167 0.116512
0.115852 0.523897 0.220926 -0.991997 -0.124876 0.018673
0.118186 0.487160 0.411900 -0.847507 -0.529401 0.038294
0.121777 0.405529 0.173810 0.911870 -0.385700 -0.140460
0.108945 0.551653 0.219923 -0.566033 -0.804745 -0.178866
0.086143 0.526692 0.935366 0.424162 -0.896883 0.125247
0.073105 0.487925 0.963938 -0.724547 -0.676511 0.131775
0.145504 0.171782 0.101179 0.998565 -0.053386 0.004141
0.067412 0.456318 0.076465 -0.373763 -0.731038 -0.570863
0.090933 0.332968 0.215439 0.188203 -0.536458 0.822674
0.063049 0.467035 0.564137 -0.742426 -0.665063 0.080592
0.066476 0.189701 0.152459 0.995294 -0.073267 -0.063424
0.097984 0.518372 0.373025 0.032458 0.216667 -0.975706
0.145504 0.271250 0.210320 0.999889 0.014878 0.001013
0.065346 0.473725 0.357924 0.638405 0.769698 0.001943
0.145504 0.414022 0.318990 0.997389 0.072209 0.001336
0.082638 0.404609 0.261003 -0.241360 0.532584 -0.811234
0.123499 0.498903 0.467896 -0.112298 0.990434 -0.080191
0.072401 0.524103 0.333161 0.992550 -0.119450 0.024014
0.120117 0.500067 0.066476 0.048033 0.066025 -0.996661
0.052735 0.489028 0.472493 0.775913 -0.630511 0.020359
0.077938 0.270829 0.207053 -0.879263 0.471956 -0.064450
0.072401 0.559296 0.149188 0.434720 0.888149 0.149028
0.072401 0.275232 0.297457 0.760525 0.389934 -0.519185
0.109001 0.294970 0.246107 -0.907951 0.379466 0.177848
0.115516 0.342638 0.364989 0.626719 0.693468 0.355423
0.068121 0.310989 0.209138 -0.358559 -0.881968 0.305888
0.136817 0.392407 0.360005 0.889757 -0.161088 0.427063
0.079041 0.316835 0.493560 -0.391501 -0.813108 0.430792
0.033917 0.496928 0.194864 -0.537435 0.841985 0.047175
0.157314 0.506254 0.066476 0.671499 -0.034786 -0.740188
0.114915 0.384959 0.355155 -0.965069 0.146181 -0.217423
0.072401 0.114932 0.145471 0.999047 -0.027646 0.033763
0.083269 0.532635 0.871026 -0.390573 0.919922 -0.034580
0.077080 0.373543 0.323672 -0.936787 -0.349801 0.008290
0.149428 0.432490 0.157716 0.890109 -0.452921 -0.050685
0.099759 0.566055 0.378632 0.313328 0.937736 -0.149921
0.102818 0.465327 0.548608 0.083561 0.973419 -0.213246
0.071960 0.368752 0.344085 -0.971191 -0.129858 0.199810
0.072401 0.091729 0.118995 0.996921 -0.048446 0.061663
0.145504 0.326793 0.286523 0.998513 0.049807 0.022179
0.102979 0.136805 0.077286 0.139574 0.560384 -0.816388
0.079221 0.186664 0.063438 -0.069100 -0.501450 0.862423
0.099633 0.205610 0.218637 0.224334 -0.852422 -0.472282
0.104984 0.303540 0.192862 -0.444005 -0.489889 0.750245
0.063747 0.466125 0.485796 -0.819317 -0.565220 0.096158
0.085784 0.324526 0.209953 0.291772 -0.522656 0.801062
0.079040 0.521595 0.732788 0.863466 -0.504122 0.016946
0.096647 0.137654 0.227751 0.271157 -0.427695 0.862294
0.119901 0.517201 0.400584 -0.960872 0.220556 0.167568
0.083860 0.209381 0.078254 0.036226 -0.531203 0.846470
0.121777 0.271757 0.297747 -0.997700 -0.024252 0.063291
0.133835 0.456494 0.524643 -0.285681 0.743968 0.604068
0.073969 0.412110 0.563620 -0.333214 -0.848071 0.412000
0.143486 0.496928 0.549534 0.162633 0.982056 0.095481
0.092445 0.253477 0.107020 0.014118 -0.510134 0.859979
0.086227 0.530967 0.460412 0.912863 0.405178 0.050114
0.115852 0.519794 0.127414 0.951457 -0.307020 -0.021621
0.104006 0.473017 0.500908 -0.316997 0.575395 -0.753945
0.145504 0.403592 0.305523 0.997724 0.067336 -0.003639
0.048701 0.504141 0.104063 0.949093 0.285566 -0.132944
0.115852 0.290040 0.281573 -0.999763 0.011084 -0.018723
0.115852 0.491316 0.480228 -0.995536 0.064667 0.068746
0.127462 0.498903 0.428040 -0.056436 0.996703 -0.058297
0.072401 0.539927 0.252452 0.957703 0.286018 0.031609
0.096302 0.299710 0.192603 0.114763 0.540150 -0.833707
0.049671 0.496928 0.121904 -0.936804 -0.324477 -0.130816
0.121777 0.236578 0.251475 -0.998193 -0.035205 0.048695
0.119012 0.343449 0.252364 0.925574 -0.206675 0.317172
0.071277 0.057147 0.113663 -0.999481 -0.022659 0.022908
0.115641 0.383784 0.348785 -0.995549 0.053405 -0.077650
0.115225 0.490337 0.778247 0.750096 -0.661285 0.007647
0.140762 0.507381 0.199309 -0.742640 -0.606345 -0.284308
0.145504 0.199135 0.184800 0.999799 -0.007839 0.018444
0.068379 0.546254 0.434559 -0.455853 0.887304 0.069934
0.092761 0.397963 0.334199 -0.073886 0.994549 -0.073573
0.099107 0.377042 0.369489 0.208716 -0.531398 0.821008
0.149428 0.531367 0.107199 0.994824 -0.072031 0.071664
0.127703 0.434606 0.499672 -0.772832 -0.542595 -0.329121
0.123096 0.509815 0.971569 0.963974 -0.021406 0.265135
0.085360 0.322230 0.334551 0.334243 0.631123 -0.699976
0.066476 0.358262 0.344991 -0.991877 0.116412 -0.051259
0.066476 0.431588 0.514966 -0.934520 -0.328463 -0.137059
0.046802 0.437676 0.295159 -0.614642 -0.783774 0.088964
0.120492 0.504597 0.845300 0.984124 -0.176023 -0.022720
0.126887 0.457836 0.519099 0.808686 0.025462 0.587689
0.120274 0.525802 0.613385 0.821719 0.563945 0.082121
0.133801 0.088059 0.107209 0.366818 0.929934 0.025848
0.106073 0.488115 0.486236 0.392322 -0.909396 0.138136
0.108773 0.431752 0.517553 -0.298974 0.938822 0.170964
0.039500 0.496928 0.185168 -0.185782 0.981143 0.053327
0.075854 0.326368 0.408498 -0.438706 -0.896057 -0.067965
0.066476 0.502409 0.423411 0.994418 0.084695 0.062932
0.134260 0.560130 0.180800 0.527216 0.849556 0.017254
0.157328 0.479622 0.411296 0.977146 0.041437 -0.208490
0.105121 0.542957 0.131849 0.380536 0.105752 -0.918699
0.076831 0.149598 0.197973 -0.892317 -0.444849 0.076679
0.038825 0.455703 0.116384 -0.944913 -0.280278 -0.169069
0.112055 0.265507 0.293822 -0.611681 0.456589 -0.646045
0.072401 0.412521 0.187445 0.953657 0.095480 0.285345
0.119894 0.511591 0.885789 0.996157 0.077371 -0.041056
0.119012 0.359864 0.262521 0.975523 -0.120288 0.184082
0.115852 0.230033 0.221849 -0.999828 -0.011984 0.014186
0.117037 0.118351 0.160384 0.999738 0.008786 -0.021158
0.064874 0.166704 0.231998 0.871708 -0.252446 0.419996
0.111121 0.512630 0.908675 -0.966006 -0.257893 0.017975
0.079536 0.519413 0.731807 0.926345 -0.376530 0.010450
0.139543 0.484883 0.490078 -0.997628 -0.010718 0.067989
0.048701 0.503951 0.379463 -0.997413 -0.070220 0.015388
0.115852 0.558690 0.096508 0.990011 0.140510 -0.011617
0.081634 0.423384 0.270857 0.633309 -0.384992 0.671343
0.102511 0.528528 0.325989 -0.357293 -0.912832 0.197685
0.115852 0.438786 0.218928 -0.993969 -0.076418 0.078647
0.042060 0.473942 0.528782 -0.533489 -0.844474 0.047471
0.135751 0.506609 0.463061 0.871936 -0.412045 0.264475
0.072401 0.422073 0.366147 0.998191 0.046043 -0.038653
0.106728 0.496890 0.643705 -0.715111 0.699005 -0.002891
0.072401 0.125009 0.086321 0.466137 -0.487048 0.738580
0.061523 0.527762 0.500908 0.566495 -0.565199 -0.599695
0.066096 0.514686 0.746907 -0.978708 0.204093 0.021815
0.121777 0.262183 0.208761 -0.999688 -0.018768 -0.016459
0.112440 0.528415 0.843128 0.698601 0.715205 -0.020922
0.135565 0.463063 0.080825 0.492714 -0.762232 -0.419804
0.066476 0.121896 0.082310 -0.828885 0.443508 -0.340954
0.086933 0.225929 0.144667 -0.195226 0.532018 -0.823919
0.142840 0.346789 0.314858 0.927170 -0.138062 0.348275
0.150133 0.479628 0.481236 -0.460661 0.029118 -0.887098
0.115062 0.087847 0.100028 0.987409 -0.090777 0.129549
0.072821 0.130396 0.192052 -0.933254 -0.198693 0.299262
0.139553 0.530824 0.189175 0.943816 0.326307 0.052293
0.139553 0.524273 0.098573 -0.970597 0.122077 -0.207458
0.111069 0.247545 0.121995 0.932153 -0.167655 -0.320908
0.066476 0.504039 0.474113 0.992577 0.009749 0.121226
0.086095 0.193823 0.114049 0.001101 0.558465 -0.829528
0.072401 0.474619 0.146717 0.891480 0.400261 0.212261
0.136928 0.378294 0.350489 0.891552 -0.164378 0.422036
0.090273 0.151191 0.218563 -0.252782 -0.516176 0.818330
0.101822 0.340330 0.342853 -0.348765 0.513145 -0.784249
0.133620 0.481128 0.208248 -0.596597 0.800877 0.051648
0.104436 0.509926 0.404172 0.251272 0.067033 -0.965593
0.077988 0.361349 0.350021 0.736160 0.370540 -0.566365
0.134264 0.356480 0.175023 0.867224 0.062379 -0.493995
0.030925 0.512304 0.078749 -0.997067 -0.076235 0.006731
0.042749 0.385419 0.301659 -0.997803 0.066033 0.005415
0.118660 0.180145 0.141550 0.966515 0.137893 -0.216412
0.098762 0.250065 0.150460 0.002535 0.553258 -0.833006
0.088123 0.552229 0.128143 0.485142 -0.872052 0.064520
0.038825 0.485036 0.524757 -0.998946 -0.020106 0.041255
0.100165 0.520269 0.503356 0.425297 -0.583018 -0.692252
0.072319 0.109233 0.078909 -0.744722 0.328505 -0.580925
0.075861 0.263917 0.239310 -0.991208 0.131530 -0.014358
0.055734 0.496928 0.076112 -0.570784 -0.746482 -0.342008
0.071216 0.432722 0.357193 -0.997440 0.059892 -0.039074
0.121777 0.230090 0.093300 -0.996178 0.022933 -0.084287
0.115524 0.122678 0.179865 -0.990184 0.073807 -0.118693
0.048701 0.510001 0.112504 -0.997734 -0.026602 -0.061796
0.072402 0.540384 0.470008 -0.933698 0.353694 0.055754
0.094064 0.552229 0.126621 0.005322 -0.998274 -0.058491
0.134742 0.496928 0.349506 -0.324535 0.945790 0.012585
0.066476 0.427841 0.318651 0.996342 0.025705 -0.081491
0.115387 0.273909 0.113545 0.524841 0.443092 -0.726781
0.075185 0.184072 0.206172 -0.979761 -0.058704 -0.191371
0.064959 0.463878 0.526470 -0.892546 -0.443268 0.082918
0.030925 0.439228 0.345355 -0.780123 -0.615914 0.109808
0.120991 0.436694 0.256572 0.158416 -0.926509 -0.341300
0.048701 0.524273 0.132168 0.989827 0.142276 0.000657
0.091248 0.299710 0.317727 0.109461 0.541418 -0.833597
0.066476 0.406398 0.164108 0.967006 -0.005716 -0.254691
0.124687 0.475459 0.502717 0.583959 -0.773961 -0.244903
0.071216 0.309842 0.275982 -0.999714 0.012536 -0.020344
0.131953 0.437458 0.119781 0.589447 -0.653497 -0.474862
0.066205 0.228687 0.087008 0.988250 0.060233 -0.140478
0.121777 0.170139 0.151221 -0.994255 -0.088039 -0.060871
0.139543 0.487540 0.279771 -0.922481 -0.385874 0.011410
0.157879 0.457667 0.125296 0.970693 -0.237059 -0.039474
0.078748 0.100118 0.181068 0.716824 0.376274 -0.587011
0.074376 0.404072 0.298021 0.980840 0.109222 -0.161316
0.092218 0.385467 0.431274 0.166009 0.135399 -0.976785
0.068717 0.504197 0.892277 -0.988381 -0.145507 -0.043935
0.066476 0.237776 0.180320 0.999549 -0.025597 -0.015711
0.098621 0.239170 0.239017 0.245073 0.966094 0.081248
0.117037 0.305823 0.219967 0.960610 0.150490 -0.233625
0.147132 0.104835 0.134600 0.924577 0.345513 0.160555
0.121777 0.145522 0.201443 -0.995043 -0.082995 0.054784
0.107302 0.540662 0.199775 -0.413028 -0.250439 0.875607
0.034710 0.499284 0.066476 -0.504193 0.008803 -0.863546
