0.172403 0.547878 0.240147 0.637696 0.198844 0.744181
0.133751 0.540288 0.751408 -0.621324 0.752269 0.219198
0.189951 0.249885 0.181770 0.992857 0.043846 -0.110965
0.158376 0.508237 0.207568 0.324930 0.282647 0.902514
0.159428 0.291713 0.338191 0.872252 -0.316054 0.373212
0.125016 0.564280 0.039938 0.167009 -0.972410 -0.162869
0.095831 0.474713 0.053782 -0.434741 0.255101 -0.863669
0.171636 0.178385 0.207304 -0.997315 -0.071995 0.013410
0.051251 0.123289 0.039489 -0.690831 0.145411 -0.708244
0.170363 0.577846 0.383635 0.850589 0.523443 0.050056
0.042348 0.511994 0.201131 -0.595669 0.370711 0.712568
0.025000 0.166907 0.182279 -0.995128 -0.094996 0.026364
0.047420 0.519066 0.343065 -0.875035 0.172547 0.452262
0.067967 0.483632 0.740106 -0.880253 -0.364214 -0.304144
0.121871 0.533930 0.707898 -0.322554 0.925559 0.198243
0.063324 0.552069 0.707603 -0.988698 -0.145811 -0.034850
0.052759 0.435503 0.781235 -0.145178 -0.983595 0.107073
0.171636 0.324063 0.275749 -0.999894 0.014529 0.000856
0.106794 0.505376 0.260593 0.085665 -0.139930 -0.986449
0.058681 0.554206 0.332454 -0.476338 0.375819 0.794898
0.171636 0.275602 0.235876 -0.998291 0.019943 -0.054930
0.114740 0.517652 0.740106 0.022682 0.971428 -0.236247
0.092638 0.540686 0.269636 -0.999377 0.030629 0.017507
0.103627 0.597702 0.822293 0.071247 -0.991775 0.106333
0.189951 0.091012 0.221133 0.977302 -0.157014 0.142221
0.144230 0.506390 0.740106 0.653977 0.696607 -0.295048
0.116315 0.606437 0.922668 0.448850 0.893521 -0.012359
0.189951 0.409906 0.326686 0.939955 0.028408 0.340113
0.052140 0.424931 0.119534 -0.747933 -0.470066 -0.468651
0.171636 0.091390 0.167423 -0.989451 -0.142711 0.024907
0.073505 0.518704 0.950351 0.364406 0.134431 0.921486
0.042348 0.521688 0.576853 -0.995128 0.090078 0.040072
0.118328 0.510565 0.195585 0.995441 -0.089575 -0.032776
0.189951 0.283979 0.183274 0.991304 0.049681 -0.121855
0.120798 0.532296 0.818281 -0.470214 0.881877 0.034515
0.068154 0.565162 0.385720 0.946832 -0.313961 0.070273
0.172197 0.074089 0.278920 0.619334 -0.495618 0.608923
0.119899 0.568227 0.025712 0.060275 0.188645 -0.980194
0.042348 0.515477 0.584279 -0.997998 0.037028 0.051277
0.171636 0.261195 0.250845 -0.999694 0.007049 -0.023703
0.042348 0.286163 0.159587 -0.825223 0.199550 -0.528381
0.135599 0.603231 0.904946 0.765503 0.643292 -0.013420
0.025000 0.370971 0.209519 -0.993415 0.055236 -0.100381
0.081748 0.588438 0.671394 0.767200 -0.639897 0.044001
0.042348 0.572462 0.319195 -0.677558 0.406488 0.612929
0.115691 0.617076 0.871385 -0.027968 0.998530 0.046436
0.146315 0.567695 0.362557 -0.984708 0.150345 0.088014
0.138313 0.598735 0.855791 0.812774 0.582285 -0.018482
0.182088 0.400074 0.344261 0.459229 -0.133599 0.878214
0.090524 0.582918 0.377965 -0.286428 0.957965 0.016180
0.073762 0.373388 0.359243 -0.490906 0.869118 0.060377
0.137100 0.583468 0.748429 -0.708997 -0.701712 0.070168
0.116910 0.582636 0.152448 0.911958 0.331511 -0.241730
0.042348 0.061450 0.182629 -0.802185 -0.575778 0.158047
0.172403 0.502794 0.655592 0.965705 -0.241828 0.094512
0.042842 0.522481 0.950351 -0.466914 -0.696477 0.544895
0.094934 0.552101 0.194323 -0.010665 0.301366 0.953449
0.112040 0.598714 0.398092 -0.218364 -0.972159 0.084997
0.025000 0.351439 0.194387 -0.991483 0.058232 -0.116493
0.172403 0.144110 0.285592 0.752438 -0.440300 0.489870
0.136746 0.580743 0.651240 -0.796045 -0.581055 0.169374
0.076771 0.474960 0.973720 -0.880697 -0.323860 0.345668
0.035454 0.067038 0.152439 0.556798 -0.811321 0.178138
0.025000 0.145166 0.236517 -0.987752 -0.116186 0.104150
0.171636 0.107405 0.109182 -0.995817 -0.087058 -0.027727
0.159973 0.591564 0.298137 0.481073 0.290568 -0.827127
0.172403 0.134457 0.120822 0.859188 -0.510251 0.037944
0.078681 0.600472 0.792201 -0.436410 0.899718 -0.007385
0.025000 0.083901 0.161984 -0.983405 -0.158367 0.088510
0.137799 0.599593 0.618092 0.635603 0.768755 -0.070886
0.109178 0.594772 0.367718 -0.016423 0.999585 0.023677
0.042348 0.508537 0.772413 -0.961186 -0.221481 0.164524
0.073210 0.611894 0.939731 -0.523027 0.841412 0.135897
0.144631 0.307363 0.116119 0.423102 0.315739 -0.849290
0.113676 0.026521 0.255886 0.028506 -0.771051 0.636134
0.189951 0.284987 0.177344 0.990221 0.052605 -0.129212
0.134250 0.585008 0.600693 -0.640656 -0.750419 0.162579
0.064669 0.549623 0.530286 -0.938434 -0.339789 -0.062331
0.042348 0.477164 0.092631 -0.892416 0.311852 -0.326100
0.171636 0.088913 0.069210 -0.995442 -0.081572 -0.049402
0.068791 0.562033 0.792188 0.974293 0.218624 0.054368
0.171636 0.257407 0.196614 -0.995122 0.035260 -0.092138
0.122031 0.524699 0.712713 0.129608 -0.990859 -0.037423
0.062621 0.482276 0.842294 -0.970353 -0.236586 -0.049422
0.172403 0.526425 0.290059 0.669353 0.216626 0.710661
0.056258 0.593201 0.213731 -0.669501 0.638177 -0.380131
0.171636 0.196561 0.232587 -0.997380 -0.068211 0.024078
0.165862 0.485110 0.312721 0.777206 -0.004417 -0.629231
0.042348 0.487510 0.477198 -0.994158 -0.093306 0.054258
0.095049 0.540229 0.158846 -0.131672 0.133547 -0.982256
0.127349 0.598712 0.475591 -0.493208 -0.864146 0.099986
0.094566 0.606443 0.650348 -0.212676 0.976290 -0.040329
0.163635 0.457455 0.078166 0.535275 -0.755722 -0.377314
0.133617 0.291040 0.354718 0.452086 -0.801033 -0.392383
0.082481 0.524481 0.820116 -0.391273 0.918714 -0.053583
0.025000 0.337473 0.260252 -0.999113 0.024980 -0.033904
0.091020 0.533932 0.641174 0.256264 0.959302 0.118609
0.025000 0.164001 0.095418 -0.987358 0.031724 -0.155299
0.149369 0.501392 0.907759 0.947875 0.312045 0.064512
0.108802 0.577845 0.419489 0.131580 0.991302 0.002609
0.120378 0.524695 0.904866 -0.063748 -0.997891 -0.012263
0.042348 0.369590 0.242718 -0.970987 -0.028874 -0.237382
0.120988 0.403347 0.443688 0.664621 -0.282233 0.691826
0.073762 0.323913 0.514183 -0.708132 0.510238 -0.488063
0.042348 0.443406 0.140280 -0.729393 -0.548337 -0.409038
0.042348 0.112906 0.064151 -0.887468 -0.099540 -0.449991
0.042348 0.452095 0.720959 -0.764427 -0.567801 0.305374
0.172403 0.049278 0.127405 0.749106 -0.611917 0.253766
0.079973 0.524699 0.704593 -0.511362 -0.857587 -0.055259
0.172403 0.094596 0.222599 0.737467 -0.524527 0.425457
0.140022 0.459611 0.752069 0.732187 -0.674681 -0.093318
0.076210 0.615210 0.758658 -0.448029 0.891693 0.064450
0.057712 0.565747 0.348458 -0.996282 -0.036370 -0.078094
0.047218 0.538447 0.343665 -0.533077 -0.103365 -0.839729
0.092638 0.496831 0.273597 -0.971935 -0.233825 0.025861
0.086758 0.404754 0.131149 -0.544891 -0.258212 -0.797759
0.133859 0.380660 0.336536 0.775525 -0.404372 -0.484813
0.134101 0.489958 0.174367 0.419444 -0.035307 -0.907094
0.099773 0.229354 0.076919 -0.080029 0.403122 -0.911640
0.144646 0.509639 0.797357 0.691693 0.693373 -0.201977
0.172403 0.500975 0.348335 0.917354 0.083863 0.389138
0.150696 0.548562 0.534013 0.917487 -0.395827 -0.039223
0.171636 0.376331 0.298615 -0.985184 0.101742 0.138059
0.171636 0.309998 0.177131 -0.990521 0.060240 -0.123446
0.042983 0.227045 0.320578 -0.851018 -0.407156 0.331650
0.043315 0.106535 0.190486 0.989397 -0.140863 0.035369
0.058248 0.516581 0.303903 -0.383917 -0.150812 -0.910968
0.043315 0.364238 0.237210 0.998417 0.047115 -0.030703
0.093291 0.368138 0.129079 -0.256848 0.155422 -0.953873
0.128642 0.524698 0.739075 0.202599 -0.978924 -0.025709
0.118801 0.524705 0.456629 0.303411 -0.950896 -0.061149
0.172403 0.449319 0.193994 0.902873 -0.345367 -0.256012
0.060923 0.509853 0.161578 -0.632337 0.452603 0.628730
0.042348 0.199782 0.179021 -0.951472 -0.307265 0.017027
0.130062 0.452839 0.827400 0.413821 -0.910090 -0.022093
0.189951 0.223556 0.209453 0.998921 0.002192 -0.046382
0.074080 0.612863 0.572128 -0.470247 0.882428 -0.013705
0.043315 0.167354 0.188664 0.997384 -0.072148 0.004398
0.118996 0.452839 0.791246 0.321181 -0.944440 -0.069824
0.171636 0.373942 0.184377 -0.992886 0.077084 -0.090747
0.042348 0.286683 0.144111 -0.776362 0.215338 -0.592362
0.172403 0.371572 0.150880 0.716120 0.132598 -0.685267
0.060031 0.558067 0.812770 -0.993649 0.111216 -0.017102
0.149631 0.602965 0.756262 0.609639 0.792633 0.008574
0.089508 0.524699 0.702168 -0.365111 -0.929279 -0.055996
0.025000 0.137341 0.093654 -0.993234 -0.011390 -0.115571
0.171636 0.308606 0.229540 -0.997602 0.033142 -0.060769
0.082264 0.589321 0.672533 0.752246 -0.657474 0.043066
0.073327 0.553527 0.721561 0.879299 0.470530 0.073724
0.047071 0.435510 0.528554 -0.786841 -0.605572 0.119011
0.053664 0.031471 0.224446 -0.597969 -0.734991 0.319720
0.111005 0.420486 0.424286 -0.014052 -0.905513 0.424085
0.186029 0.383108 0.335059 0.666664 -0.295113 0.684447
0.171636 0.248284 0.233749 -0.999258 0.010024 -0.037182
0.172403 0.473326 0.304437 0.977539 -0.085641 0.192567
0.189951 0.126936 0.083951 0.993688 -0.026625 -0.108972
0.042348 0.497745 0.121520 -0.846227 0.463498 -0.262810
0.189951 0.179890 0.262716 0.991178 -0.090975 0.096385
0.082892 0.524705 0.432392 -0.202564 -0.973551 -0.105668
0.171636 0.072619 0.133124 -0.989943 -0.141266 0.007530
0.098471 0.500229 0.877236 0.036890 -0.868315 0.494640
0.126938 0.533925 0.920635 -0.248656 0.928408 0.276096
0.113196 0.394753 0.559252 0.069366 0.163817 -0.984049
0.091860 0.598707 0.674482 0.474207 -0.879789 0.033146
0.172403 0.510580 0.463024 0.995018 -0.084331 0.053175
0.042348 0.229383 0.127361 -0.820638 0.196937 -0.536441
0.118328 0.492698 0.163484 0.983934 -0.174716 -0.036704
0.071048 0.577841 0.501460 -0.673600 0.736352 -0.063638
0.090685 0.524480 0.882465 -0.166560 0.984282 0.058715
0.137031 0.522932 0.868662 0.499834 0.865972 -0.016038
0.148228 0.604524 0.329155 0.528598 0.716715 -0.454867
0.042348 0.456895 0.500538 -0.941418 -0.322549 0.098460
0.042348 0.374796 0.277153 -0.994034 -0.076167 -0.078074
0.060513 0.570374 0.911762 -0.887610 0.460581 0.003739
0.100759 0.476947 0.285106 -0.564252 -0.815883 0.126312
0.043315 0.156329 0.072468 0.981805 0.056410 -0.181320
0.092638 0.562910 0.224281 -0.968320 0.247504 -0.033154
0.172403 0.488390 0.579823 0.936755 -0.339394 0.085450
0.089570 0.617076 0.866235 -0.309024 0.946689 0.091016
0.042348 0.463692 0.231741 -0.915221 -0.367993 -0.164167
0.078606 0.516132 0.343951 -0.545797 0.272680 0.792307
0.058990 0.567855 0.760928 -0.950157 0.311257 -0.017886
0.043315 0.177796 0.246670 0.994191 -0.098175 0.044109
0.026250 0.123506 0.072480 -0.987309 -0.001641 -0.158802
0.181685 0.410568 0.347628 0.448104 0.009370 0.893933
0.118328 0.518363 0.277553 0.996284 -0.065790 0.055586
0.106020 0.598712 0.477541 -0.013523 -0.998219 0.058100
0.089628 0.149552 0.045267 -0.270205 0.261493 -0.926612
0.081250 0.587581 0.794195 0.842670 -0.536830 0.041478
0.172403 0.188097 0.090268 0.785222 0.137310 -0.603798
0.131811 0.606447 0.486763 0.318766 0.942511 -0.100304
0.127457 0.532298 0.744180 -0.532765 0.845574 0.034141
0.140134 0.527458 0.294018 0.289502 0.276210 0.916459
0.058115 0.561557 0.774881 -0.983966 0.177086 -0.021231
0.092470 0.412523 0.128333 -0.503340 -0.451911 -0.736495
0.042348 0.122688 0.170496 -0.890483 -0.449539 0.070392
0.145412 0.565934 0.917111 -0.970076 0.085407 0.227283
0.171636 0.098561 0.207120 -0.985674 -0.160413 0.052093
0.171636 0.125215 0.092272 -0.995886 -0.029626 -0.085634
0.042348 0.191774 0.187291 -0.941894 -0.332987 0.044229
0.042348 0.191912 0.146750 -0.947231 -0.062279 -0.314443
0.049282 0.475533 0.847236 -0.755791 -0.500372 0.422384
0.113708 0.053918 0.273426 -0.018962 -0.731977 0.681066
0.117365 0.602758 0.117679 0.177137 0.858524 -0.481206
0.172403 0.458950 0.701935 0.769797 -0.564829 0.297289
0.149418 0.546227 0.791178 0.790336 -0.612643 -0.006147
0.042348 0.545483 0.775980 -0.991334 0.109914 0.071947
0.042348 0.544590 0.302372 -0.689046 -0.014534 -0.724572
0.167846 0.046150 0.131202 0.719825 -0.639628 0.269682
0.172403 0.533141 0.274626 0.989169 0.103067 0.104504
0.042348 0.350399 0.306173 -0.993588 -0.072215 0.086989
0.158348 0.562496 0.802606 0.971290 -0.237413 -0.015198
0.189951 0.145039 0.160073 0.993563 -0.110407 0.025367
0.130410 0.029803 0.235040 0.251487 -0.755605 0.604826
0.042348 0.431901 0.399452 -0.821904 -0.554495 0.130418
0.104365 0.317566 0.340784 -0.066064 0.154429 -0.985793
0.043685 0.489491 0.220014 -0.396784 -0.162089 -0.903488
0.092664 0.577841 0.508397 -0.341955 0.936679 -0.075500
0.181193 0.450654 0.229996 0.181924 0.983011 0.024335
0.128536 0.598137 0.691488 -0.380715 -0.921845 0.072512
0.117512 0.357832 0.545621 0.100992 0.629595 -0.770331
0.046793 0.464154 0.048331 -0.809420 0.108905 -0.577044
0.043315 0.435378 0.268762 0.963857 0.241655 0.112169
0.038722 0.203736 0.294315 0.969003 -0.171227 0.178087
0.171636 0.168550 0.191440 -0.997342 -0.072622 0.005956
0.129723 0.392078 0.377971 0.756357 -0.521399 0.395053
0.171820 0.173746 0.306062 0.776566 -0.402938 0.484341
0.126425 0.373965 0.362699 0.259502 0.812180 -0.522515
0.135513 0.540199 0.747963 -0.781119 0.622779 0.044713
0.088631 0.524698 0.771010 -0.446986 -0.893544 -0.042216
0.158464 0.435507 0.625708 0.491499 -0.859276 0.141682
0.125572 0.377556 0.131005 0.211234 0.152541 -0.965459
0.042348 0.164306 0.115467 -0.916928 -0.046711 -0.396311
0.115803 0.617083 0.557171 0.130465 0.989630 -0.060092
0.172403 0.391660 0.275931 0.990393 -0.132712 -0.038855
0.042348 0.085542 0.078170 -0.906222 -0.407670 -0.112102
0.172403 0.474174 0.130820 0.853383 -0.015916 0.521042
0.042348 0.053359 0.221555 -0.740321 -0.621684 0.255799
0.081229 0.501537 0.355058 -0.215532 -0.215045 -0.952524
0.066996 0.605052 0.227266 -0.547515 0.808908 -0.214230
0.076886 0.546860 0.478216 0.859287 0.500055 0.107570
0.171636 0.400449 0.342530 -0.765360 -0.216678 0.606032
0.172403 0.164053 0.224570 0.849209 -0.453527 0.270477
0.073861 0.592494 0.503162 -0.776148 0.630011 -0.026065
0.040330 0.450388 0.203258 0.931117 0.362956 -0.035823
0.043315 0.104217 0.261102 0.977828 -0.188654 0.090893
0.106090 0.462179 0.973720 -0.110078 -0.944002 0.311034
0.042348 0.552790 0.251888 -0.660862 -0.046946 -0.749038
0.172403 0.221309 0.137194 0.865280 0.090076 -0.493130
0.141318 0.593766 0.535678 0.699343 0.709799 -0.084287
0.118231 0.532294 0.911259 -0.500261 0.865205 0.034032
0.085911 0.617078 0.783622 -0.338916 0.938683 0.063324
0.046353 0.435505 0.706245 -0.409268 -0.904961 0.116384
0.087814 0.545755 0.085743 -0.267093 0.436690 -0.859048
0.077098 0.616194 0.551272 -0.411918 0.911049 -0.017684
0.092752 0.617092 0.195746 -0.110748 0.988621 -0.101799
0.042348 0.498272 0.553534 -0.995484 -0.069469 0.064700
0.171636 0.179100 0.088753 -0.982700 0.060193 -0.175148
0.084078 0.524699 0.719188 -0.465467 -0.883501 -0.052603
0.172403 0.466940 0.531630 0.865031 -0.494149 0.086827
0.172403 0.541641 0.597080 0.989712 0.136716 0.042184
0.072016 0.610593 0.258760 -0.506010 0.853603 -0.123761
0.143364 0.535206 0.493556 0.747478 -0.663781 -0.025914
0.098994 0.533929 0.756050 0.207542 0.962491 0.174747
0.042348 0.490607 0.473256 -0.996503 -0.064979 0.052540
0.124000 0.435502 0.826938 0.073974 -0.981263 0.177907
0.080873 0.386047 0.345905 -0.868800 0.071044 -0.490041
0.162591 0.564389 0.289143 0.331734 -0.118922 -0.935847
0.132212 0.152509 0.300278 0.152589 -0.605106 0.781385
0.172403 0.565606 0.610009 0.941327 0.336651 0.023858
0.172403 0.533906 0.814291 0.993518 -0.007767 0.113410
0.172403 0.390046 0.374177 0.944427 -0.265140 0.194315
0.103927 0.476948 0.241147 -0.187455 -0.979349 0.075738
0.118328 0.542046 0.213946 0.994583 0.072964 -0.074029
0.172403 0.399484 0.340016 0.983515 -0.117739 0.137245
0.140184 0.578181 0.962840 -0.713282 -0.699641 0.041601
0.172403 0.257535 0.114928 0.721327 0.260492 -0.641741
0.066854 0.580882 0.715662 -0.840466 0.541786 -0.009204
0.144679 0.435507 0.624829 0.457073 -0.879731 0.130988
0.086012 0.523934 0.301632 -0.190774 -0.162345 -0.968116
0.025000 0.364258 0.283977 -0.993042 0.048423 0.107342
0.134965 0.524693 0.973046 0.097886 -0.995195 0.002443
0.043315 0.399993 0.256482 0.984241 0.165766 0.061580
0.136344 0.071437 0.035713 0.588361 -0.706763 -0.392833
0.115844 0.452837 0.912670 0.066727 -0.997473 0.024396
0.101072 0.476952 0.163776 -0.854212 -0.494075 -0.161899
0.142222 0.434577 0.112693 0.438671 -0.635829 -0.635051
0.162554 0.588717 0.271770 0.452270 0.183725 -0.872752
0.105337 0.520386 0.210475 -0.005270 -0.148045 -0.988967
0.172403 0.445934 0.438462 0.809475 -0.569343 0.143519
0.135538 0.577845 0.418659 0.607885 0.793729 0.021668
0.128391 0.564525 0.059603 0.434426 -0.754978 -0.491204
0.076408 0.552134 0.596060 0.826164 0.520029 0.216846
0.178417 0.268922 0.311138 -0.969213 -0.121489 0.214166
0.121261 0.042494 0.270315 0.081382 -0.721658 0.687449
0.043315 0.274341 0.142285 0.981753 0.066250 -0.178246
0.172247 0.578022 0.236846 0.343931 -0.127338 -0.930321
0.172403 0.571640 0.470274 0.901168 0.433382 0.008779
0.042348 0.437469 0.149544 -0.804527 -0.451962 -0.385314
0.086179 0.485584 0.168905 -0.489669 0.483980 0.725250
0.076345 0.528345 0.823053 -0.720670 -0.692749 -0.027086
0.172403 0.429547 0.146865 0.875239 -0.298286 -0.380766
0.130244 0.595212 0.676142 -0.467200 -0.880824 0.076633
0.189951 0.245414 0.226294 0.998974 0.011028 -0.043928
0.042348 0.269158 0.212457 -0.978879 0.008966 -0.204245
0.044563 0.048828 0.114190 -0.840994 -0.540985 0.008093
0.172403 0.333212 0.303006 0.992472 -0.122156 0.008826
0.042348 0.440236 0.114045 -0.659284 -0.604853 -0.446651
0.171636 0.374750 0.269523 -0.993899 0.079813 0.076118
0.171636 0.243057 0.298130 -0.996899 -0.059052 0.052017
0.189951 0.113975 0.115991 0.991296 -0.131190 0.011043
0.154915 0.148911 0.045126 0.589615 0.182924 -0.786698
0.042348 0.506362 0.238537 -0.913077 0.302650 0.273302
0.090374 0.488882 0.352180 -0.710093 0.077279 0.699854
0.150666 0.601834 0.348191 0.580416 0.706818 -0.404383
0.065841 0.602494 0.117346 -0.278305 0.905332 -0.320812
0.026051 0.205243 0.285030 -0.990870 -0.083010 0.106234
0.172403 0.161623 0.180837 0.870949 -0.468879 0.146972
0.189951 0.286574 0.147057 0.983850 0.066717 -0.166094
0.140599 0.549737 0.743659 -0.931786 0.359026 0.053627
0.168034 0.582661 0.576954 0.859539 0.511044 -0.005164
0.042348 0.231653 0.232137 -0.945277 -0.306047 0.113079
0.107805 0.524697 0.807997 -0.173467 -0.984283 -0.033114
0.172403 0.089486 0.114740 0.812995 -0.569020 0.123511
0.043315 0.155602 0.275804 0.986894 -0.141585 0.077426
0.083868 0.524700 0.676407 -0.427362 -0.902009 -0.061170
0.129977 0.617077 0.817166 0.173198 0.984864 0.006704
0.042348 0.142041 0.234733 -0.851190 -0.482056 0.207601
0.133194 0.606448 0.441156 0.301375 0.947303 -0.108580
0.124953 0.184485 0.057595 0.231268 0.330170 -0.915152
0.084288 0.288983 0.337502 -0.352511 -0.150125 -0.923688
0.145441 0.435507 0.635336 0.442651 -0.886385 0.135580
0.073332 0.612044 0.268234 -0.495860 0.862604 -0.100187
0.189951 0.327803 0.153402 0.983930 0.072120 -0.163344
0.042348 0.102389 0.228735 -0.804647 -0.547354 0.230100
0.094538 0.452836 0.954456 -0.325411 -0.936432 0.131161
0.172403 0.555973 0.130738 0.818352 0.506008 0.272499
0.189951 0.132411 0.170082 0.991459 -0.121131 0.048334
0.166652 0.545677 0.341433 0.458741 -0.116123 -0.880950
0.135609 0.543940 0.790385 -0.692694 0.682614 0.232840
0.092638 0.561604 0.230709 -0.973411 0.227579 -0.026040
0.025000 0.175285 0.125923 -0.992404 0.019175 -0.121515
0.042348 0.216860 0.216556 -0.943978 -0.317464 0.090118
0.172403 0.512778 0.297753 0.518571 0.244133 0.819441
0.066313 0.435506 0.667645 -0.231776 -0.964902 0.123467
0.174164 0.443318 0.182772 -0.971784 0.219415 -0.086563
0.097697 0.597707 0.623824 0.434128 -0.896173 0.091683
0.037044 0.335509 0.141939 0.840745 0.221279 -0.494150
0.140789 0.312643 0.467865 0.729906 0.673231 0.118311
0.061040 0.598466 0.755052 -0.757341 0.651750 0.040691
0.120035 0.327981 0.503376 0.100822 0.941911 -0.320373
0.189951 0.221314 0.145159 0.988743 0.050572 -0.140819
0.189951 0.149653 0.216377 0.990665 -0.111194 0.078865
0.136643 0.372204 0.554841 0.312633 0.497428 -0.809213
0.042604 0.309799 0.130478 0.976452 0.089553 -0.196272
0.176186 0.277774 0.315368 -0.992858 -0.054966 0.105885
0.146742 0.541361 0.446426 0.857762 -0.512221 -0.043295
0.043315 0.124457 0.064932 0.988058 0.021847 -0.152524
0.108992 0.582630 0.296828 0.684280 0.729020 -0.017071
0.042348 0.441562 0.185139 -0.896689 -0.337893 -0.285969
0.091408 0.592315 0.104543 0.005833 0.805672 -0.592333
0.061628 0.555165 0.449215 -0.967714 -0.241860 -0.070942
0.040660 0.448369 0.291257 0.917892 0.332839 0.216082
0.117557 0.617076 0.844413 -0.005340 0.999482 0.031744
0.097030 0.490324 0.212978 -0.182098 0.377097 0.908096
0.172403 0.467091 0.736304 0.808122 -0.521941 0.272978
0.071973 0.536310 0.771753 -0.848344 -0.528693 -0.028228
0.042348 0.473218 0.694286 -0.872226 -0.443452 0.206331
0.171636 0.360033 0.222049 -0.997286 0.053505 -0.050572
0.066698 0.500227 0.912025 -0.173211 -0.831514 0.527809
0.043315 0.136502 0.107692 0.996620 -0.028825 -0.076933
0.172403 0.359145 0.215926 0.889195 0.080481 -0.450394
0.130718 0.529919 0.974988 -0.954544 0.295447 0.039445
0.062548 0.573755 0.497569 -0.967405 0.248124 -0.050617
0.085864 0.532301 0.614875 0.374099 0.923561 0.084172
0.042348 0.522764 0.660665 -0.997286 0.032259 0.066184
0.063237 0.550552 0.149290 -0.405537 0.505140 0.761822
0.085587 0.591245 0.893658 0.510541 -0.851333 0.120745
0.130371 0.595001 0.387187 -0.646478 -0.754403 0.113765
0.074748 0.555396 0.717621 0.926175 0.293148 0.237202
0.072104 0.589578 0.757580 -0.685877 0.727671 -0.008255
0.102305 0.115976 0.037880 -0.108071 0.121668 -0.986670
0.114946 0.566327 0.190027 0.197753 0.282663 0.938613
0.102927 0.353538 0.573640 -0.055281 -0.473870 0.878858
0.076461 0.579379 0.823071 0.955513 -0.291379 0.045742
0.076090 0.458758 0.884579 -0.574965 -0.817526 0.032659
0.042348 0.468436 0.385612 -0.907757 -0.332959 -0.255178
0.070000 0.573885 0.950352 0.946805 -0.068780 0.314371
0.171636 0.262261 0.164620 -0.988909 0.052371 -0.138983
0.172403 0.530812 0.603950 0.997832 0.036273 0.054913
0.118328 0.526868 0.209106 0.998773 -0.006621 -0.049089
0.123670 0.439336 0.581849 0.141974 0.987965 0.061396
0.083702 0.054522 0.078027 -0.513747 -0.856112 -0.056014
0.136205 0.581666 0.743231 -0.853083 -0.494100 0.167673
0.134595 0.524702 0.562719 0.433800 -0.900575 -0.027988
0.049317 0.585541 0.241295 -0.651977 0.152201 -0.742806
0.135598 0.558302 0.291022 0.132002 -0.133576 -0.982208
0.043315 0.419589 0.162556 0.989711 0.102557 -0.099767
0.138714 0.550042 0.927356 -0.760295 0.582340 0.287806
0.025000 0.162150 0.155486 -0.995345 -0.096313 0.003352
0.171636 0.454664 0.242022 -0.950016 0.305593 0.063902
0.165918 0.435503 0.804909 0.234775 -0.949876 0.206435
0.043315 0.449787 0.278916 0.956035 0.254478 0.145730
0.172403 0.210567 0.170804 0.958215 -0.192893 -0.211223
0.067778 0.543154 0.203447 -0.355895 -0.106662 -0.928419
0.042348 0.479340 0.695868 -0.901416 -0.389400 0.189255
0.042348 0.298603 0.291976 -0.951821 -0.241223 0.189336
0.049357 0.585575 0.592377 -0.824450 0.565327 -0.026223
0.062725 0.500229 0.880142 -0.606140 -0.679770 0.412925
0.172403 0.421493 0.288218 0.994749 -0.081160 0.062345
0.043315 0.354652 0.290370 0.993445 0.041428 0.106545
0.153292 0.577845 0.414640 0.772387 0.634408 0.030727
0.172403 0.526716 0.485047 0.997702 0.061475 0.028499
0.143984 0.510468 0.352301 0.408070 -0.165937 -0.897744
0.139629 0.518394 0.944750 0.705608 0.708254 0.022208
0.136033 0.541177 0.604123 -0.715268 0.697100 0.049433
0.091950 0.542126 0.336101 0.069619 0.389536 0.918376
0.087198 0.594000 0.790340 0.543137 -0.833499 0.101396
0.080596 0.617082 0.610142 -0.375591 0.926782 0.002441
0.097568 0.476947 0.264210 -0.836703 -0.545441 0.049221
0.101846 0.363241 0.448392 -0.589198 -0.243743 0.770348
0.128978 0.524695 0.889028 0.082617 -0.996483 -0.014011
0.043315 0.163551 0.107135 0.988939 0.038749 -0.143171
0.041939 0.079966 0.060303 0.992661 -0.106310 -0.057632
0.043315 0.242882 0.261431 0.999084 -0.035561 0.023783
0.075323 0.577846 0.282795 -0.694206 0.126592 -0.708557
0.164826 0.029142 0.239239 0.538550 -0.588683 0.602840
0.043315 0.315170 0.309543 0.998160 0.000426 0.060642
0.115558 0.536669 0.198983 0.099228 0.299567 0.948901
0.073092 0.513718 0.251397 -0.307442 0.355305 0.882744
0.127811 0.511110 0.973723 0.695838 0.649511 0.306504
0.172403 0.557653 0.822723 0.969449 0.225875 0.095649
0.119785 0.500226 0.935414 0.337599 -0.738575 0.583552
0.044380 0.065276 0.276520 -0.668336 -0.643019 0.373970
0.135536 0.603336 0.866015 0.739522 0.672793 -0.021384
0.043315 0.288406 0.173110 0.989113 0.055313 -0.136363
0.042348 0.145093 0.062315 -0.772431 0.135610 -0.620451
0.043315 0.384182 0.242885 0.997872 0.061131 0.022704
0.150188 0.547628 0.883636 0.767086 -0.641544 0.000235
0.042348 0.504553 0.254000 -0.506740 0.370593 0.778380
0.156200 0.569112 0.669293 0.999020 0.020371 -0.039298
0.025000 0.293046 0.250744 -0.998990 0.020338 -0.040070
0.135139 0.603995 0.793324 0.676449 0.735553 -0.037124
0.042348 0.501459 0.782803 -0.928032 -0.314385 0.199798
0.048075 0.488310 0.168082 -0.806751 0.373992 0.457474
0.150684 0.484756 0.358176 0.731480 -0.155796 -0.663826
0.171636 0.068540 0.203562 -0.979487 -0.191119 0.063860
0.025000 0.255909 0.207359 -0.996148 0.033213 -0.081159
0.133859 0.370809 0.401050 0.606441 -0.278018 0.744940
0.090275 0.572148 0.280525 -0.010556 0.280776 0.959715
0.171636 0.282237 0.204300 -0.994160 0.037498 -0.101188
0.101818 0.361828 0.372496 -0.018114 -0.997943 0.061488
0.072308 0.555437 0.831777 0.871341 0.486957 0.060320
0.030085 0.147430 0.076999 -0.931664 0.075701 -0.355346
0.115562 0.543887 0.071974 0.241841 -0.665057 -0.706550
0.171636 0.249451 0.184670 -0.994072 0.039326 -0.101361
0.025000 0.217901 0.108708 -0.979575 0.071031 -0.188118
0.171636 0.176161 0.176708 -0.998465 -0.054639 -0.009049
0.042348 0.500694 0.943851 -0.217186 -0.811685 0.542216
0.042348 0.489047 0.417126 -0.990657 -0.023109 0.134403
0.071608 0.056552 0.065130 -0.703276 -0.701558 -0.114975
0.104682 0.390386 0.558398 -0.030018 0.190611 -0.981207
0.189951 0.153797 0.199361 0.992655 -0.106645 0.057129
0.172403 0.259121 0.184433 0.924917 0.057564 -0.375785
0.142415 0.553148 0.472656 -0.875914 0.477674 0.067837
0.042348 0.516574 0.863637 -0.927174 -0.297646 0.227498
0.042348 0.543203 0.394281 -0.894787 0.443810 0.048888
0.135131 0.604013 0.569598 0.488897 0.868274 -0.084143
0.152606 0.495744 0.824792 0.938044 0.285141 -0.196899
0.025000 0.125331 0.197887 -0.988093 -0.128815 0.084142
0.094569 0.558163 0.552112 0.734255 0.494837 0.464765
0.076128 0.578812 0.658596 0.900582 -0.431505 0.052487
0.043315 0.352213 0.279741 0.997473 0.033855 0.062455
0.042348 0.146543 0.070974 -0.798640 0.108124 -0.592016
0.125703 0.435511 0.488951 0.311647 -0.940164 0.137725
0.171636 0.196685 0.258042 -0.995460 -0.084564 0.043686
0.172403 0.482486 0.344651 0.941264 0.008298 0.337569
0.025000 0.077614 0.162340 -0.981984 -0.163261 0.095145
0.071324 0.588296 0.327629 -0.893319 0.445346 -0.060399
0.141554 0.551529 0.690636 -0.934856 0.350367 0.057328
0.171636 0.284090 0.266208 -0.999748 0.006764 -0.021406
0.189951 0.185606 0.120509 0.989515 0.033849 -0.140406
0.025000 0.158425 0.256944 -0.987903 -0.107320 0.111940
0.172403 0.560717 0.376916 0.902261 0.413247 -0.123093
0.140526 0.613028 0.154074 0.364124 0.861746 -0.353282
0.101506 0.617079 0.719727 -0.170021 0.985394 0.009620
0.142170 0.592349 0.742424 0.852579 0.521446 -0.034699
0.096796 0.231878 0.078187 -0.117294 0.401018 -0.908530
0.042348 0.061362 0.062178 -0.891872 -0.434161 -0.126763
0.134736 0.500987 0.255242 0.107069 0.317880 0.942066
0.047909 0.509506 0.161683 -0.733857 0.414169 0.538440
0.140103 0.577846 0.329124 0.650174 0.190343 -0.735556
0.042348 0.293413 0.149409 -0.785474 0.203515 -0.584475
0.047670 0.547083 0.288093 -0.440290 0.310713 0.842379
0.123120 0.606446 0.542454 0.207570 0.974229 -0.088279
0.042348 0.565269 0.573494 -0.916942 0.398468 -0.021010
0.092638 0.482376 0.249557 -0.962226 -0.272252 0.000921
0.042348 0.519331 0.948575 -0.463779 -0.704121 0.537702
0.135621 0.278059 0.334472 0.586934 -0.502325 0.634963
0.172403 0.576807 0.548412 0.898523 0.438914 -0.003202
0.139169 0.597330 0.339457 0.434608 0.891091 -0.130661
0.108910 0.604301 0.359480 -0.078839 0.996739 0.017196
0.139081 0.439336 0.587943 0.336053 0.938966 0.073564
0.044109 0.579777 0.837178 -0.948501 0.312935 0.049170
0.181657 0.058163 0.248700 0.329904 -0.752652 0.569805
0.139175 0.547062 0.924502 -0.961882 0.270205 0.042104
0.155304 0.079485 0.280389 0.420966 -0.564772 0.709803
0.158777 0.413100 0.127924 0.861777 -0.216272 -0.458875
0.025000 0.403492 0.263306 -0.987214 0.148847 0.057040
0.025000 0.389495 0.287866 -0.988112 0.114371 0.102736
0.043315 0.117375 0.210750 0.988814 -0.141958 0.045762
0.117888 0.249087 0.326582 0.013476 -0.603880 0.796961
0.113205 0.597704 0.758644 -0.120664 -0.985169 0.121991
0.167477 0.100319 0.286064 0.616813 -0.496219 0.610990
0.096127 0.582630 0.299607 -0.944610 0.324680 0.047915
0.172403 0.206885 0.246402 0.888983 -0.395008 0.231686
0.077081 0.580440 0.846003 0.953062 -0.299538 0.044167
0.103845 0.227346 0.075910 -0.028670 0.404495 -0.914091
0.171636 0.284577 0.250851 -0.998992 0.014585 -0.042458
0.092398 0.530407 0.085455 -0.186330 0.411113 -0.892338
0.172403 0.565333 0.103943 0.636095 0.598079 -0.487530
0.103840 0.533929 0.741964 0.077593 0.980265 0.181822
0.172403 0.130167 0.211065 0.810228 -0.496599 0.311319
0.110803 0.299956 0.492828 -0.015942 -0.971112 0.238090
0.043315 0.146529 0.067765 0.982006 0.053318 -0.181164
0.189951 0.403830 0.255089 0.987864 0.149067 0.043633
0.042035 0.314052 0.316091 0.995184 0.001653 0.098013
0.117344 0.203730 0.314228 -0.100637 -0.600339 0.793389
0.042348 0.548924 0.561689 -0.953656 0.300879 -0.003384
0.042348 0.167925 0.203863 -0.910396 -0.399536 0.107473
0.042348 0.446293 0.395419 -0.878793 -0.475187 0.043812
0.061632 0.555146 0.935117 -0.992154 0.125022 0.000523
0.171915 0.500227 0.914926 0.706445 -0.536598 0.461518
0.052918 0.435506 0.670272 -0.415334 -0.901523 0.121466
0.070553 0.468426 0.851149 -0.766663 -0.640442 -0.045416
0.127870 0.585670 0.375586 0.399874 0.915631 0.041471
0.172403 0.554083 0.207726 0.667691 -0.056202 -0.742314
0.171636 0.345215 0.160583 -0.988290 0.079870 -0.130016
0.172403 0.451660 0.477409 0.806092 -0.586147 0.081537
0.171636 0.285039 0.313452 -0.998807 -0.022527 0.043319
0.043315 0.376146 0.299272 0.985108 0.100626 0.139418
0.172403 0.491972 0.315187 0.773672 -0.026267 -0.633042
0.073176 0.611859 0.855547 -0.518313 0.849174 0.101269
0.116721 0.435508 0.608821 0.382127 -0.917934 0.106657
0.042348 0.494211 0.553505 -0.992544 -0.099744 0.070051
0.128938 0.577842 0.472329 0.547012 0.836744 -0.025227
0.142111 0.033603 0.210905 0.414350 -0.735271 0.536369
0.069012 0.584459 0.611938 -0.836196 0.548066 -0.020001
0.154090 0.152367 0.300239 0.558220 -0.519296 0.647088
0.189951 0.066234 0.204161 0.973212 -0.174835 0.149304
0.071612 0.404406 0.131174 -0.758988 -0.211626 -0.615753
0.042348 0.358601 0.155561 -0.805908 0.081549 -0.586397
0.098505 0.537253 0.076055 -0.156428 -0.782658 -0.602475
0.108874 0.597709 0.552579 0.231369 -0.966776 0.108687
0.042348 0.404165 0.234987 -0.981402 -0.179331 -0.068481
0.118328 0.549747 0.159189 0.979246 0.124986 -0.159546
0.079499 0.548860 0.247169 -0.291505 -0.121693 -0.948797
0.171636 0.170810 0.260984 -0.991614 -0.115195 0.058586
0.087429 0.094565 0.034497 -0.388687 -0.051819 -0.919912
0.081368 0.529255 0.085433 -0.283100 0.390846 -0.875839
0.025000 0.147639 0.252327 -0.986291 -0.115391 0.117966
0.025000 0.338783 0.246606 -0.998207 0.031571 -0.050860
0.092821 0.564563 0.041540 -0.180392 -0.963458 -0.198007
0.086311 0.352998 0.573292 -0.235683 -0.508370 0.828260
0.042348 0.562289 0.782052 -0.973336 0.223672 0.050861
0.122033 0.452839 0.790398 0.366120 -0.928387 -0.063666
0.042348 0.574297 0.199129 -0.681421 0.003814 -0.731881
0.042348 0.447212 0.518421 -0.902624 -0.411411 0.126532
0.103998 0.354678 0.324726 -0.017184 0.926314 -0.376361
0.043315 0.130820 0.106520 0.997023 -0.042119 -0.064582
0.116202 0.524694 0.928842 -0.156716 -0.987612 -0.007924
0.042348 0.366380 0.268085 -0.991263 -0.047379 -0.123096
0.099367 0.524481 0.841890 -0.108608 0.994029 0.010539
0.163865 0.587260 0.631212 0.822661 0.568529 0.001852
0.043315 0.424477 0.292777 0.967951 0.193837 0.159679
0.172403 0.476566 0.234496 0.748969 0.033024 0.661781
0.092638 0.553746 0.258839 -0.991852 0.127291 0.005119
0.133859 0.370004 0.365338 0.847531 -0.505539 0.161624
0.080943 0.487324 0.306135 -0.336793 0.385666 0.858972
0.042348 0.507546 0.712708 -0.986747 -0.123044 0.105785
0.101331 0.606450 0.358662 -0.341882 0.936799 -0.074327
0.042348 0.085454 0.216599 -0.795590 -0.565715 0.216803
0.122432 0.536384 0.297789 0.087695 -0.151571 -0.984549
0.172403 0.393224 0.217628 0.959453 -0.071226 -0.272720
0.172121 0.578145 0.849121 0.911545 0.402732 0.083019
0.114691 0.598713 0.418707 -0.265381 -0.960191 0.087215
0.145114 0.538382 0.967734 0.488092 -0.872779 0.004853
0.189951 0.177295 0.212921 0.994873 -0.089248 0.047561
0.125856 0.295372 0.457338 0.172877 -0.976956 0.125180
0.043315 0.412047 0.236686 0.985360 0.167926 0.029436
0.043315 0.249295 0.278465 0.998650 -0.039454 0.033787
0.123173 0.598704 0.812474 -0.170023 -0.984422 0.044785
0.050211 0.244556 0.084558 -0.580621 0.318713 -0.749200
0.042348 0.055291 0.153570 -0.825012 -0.557259 0.093906
0.154962 0.556326 0.861824 0.905004 -0.425403 -0.000047
0.090032 0.617083 0.558044 -0.249139 0.968021 -0.029417
0.118328 0.532973 0.149004 0.989557 0.038301 -0.138963
0.189951 0.137718 0.162084 0.992603 -0.116325 0.034767
0.065204 0.548647 0.543777 -0.931883 -0.357611 -0.060903
0.091592 0.606449 0.417601 -0.457394 0.887885 -0.049506
0.076439 0.519168 0.964356 -0.325683 0.926986 0.186087
0.159372 0.196750 0.062795 0.581597 0.281681 -0.763152
0.042348 0.294358 0.289171 -0.950958 -0.246408 0.186983
0.042348 0.556457 0.882127 -0.990296 0.102148 0.094237
0.138742 0.580660 0.594822 -0.837530 -0.539310 0.087677
0.082737 0.405773 0.397799 -0.377605 -0.779311 0.500089
0.139895 0.528880 0.710928 0.457183 -0.889269 -0.013607
0.081547 0.558828 0.552112 0.880046 0.366490 0.302001
0.042348 0.324064 0.152508 -0.769388 0.165042 -0.617092
0.145494 0.558924 0.449957 -0.939000 0.336171 0.072584
0.082367 0.606439 0.830151 -0.274854 0.961469 -0.005683
0.161521 0.589859 0.118542 0.544366 0.773250 -0.325193
0.075875 0.368921 0.129239 -0.484064 0.127477 -0.865698
0.151831 0.442613 0.103402 0.464531 -0.696109 -0.547397
0.172403 0.462689 0.742879 0.769646 -0.543902 0.334390
0.136225 0.340374 0.565165 0.335603 -0.545894 0.767705
0.065559 0.525168 0.294710 -0.364340 0.336870 0.868202
0.076591 0.579608 0.534791 0.838129 -0.542590 0.056007
0.172403 0.568955 0.635318 0.932049 0.361196 0.028680
0.172403 0.567283 0.712283 0.941229 0.333545 0.053250
0.138971 0.614743 0.189463 0.371603 0.878682 -0.299715
0.110404 0.413433 0.589119 0.096878 -0.064103 0.993230
0.042348 0.541268 0.661873 -0.984936 0.167997 0.040958
0.042348 0.577211 0.399160 -0.780385 0.625091 -0.016158
0.031584 0.447208 0.250806 -0.706950 0.701438 0.090593
0.172403 0.563309 0.465422 0.924769 0.380179 0.016319
0.124643 0.435510 0.526661 0.363069 -0.923476 0.123989
0.073439 0.533640 0.815717 -0.824044 -0.566084 -0.022371
0.172403 0.125153 0.276714 0.727953 -0.462318 0.506307
0.172403 0.464770 0.471816 0.864263 -0.497762 0.072683
0.043315 0.227693 0.254898 0.998499 -0.048140 0.026137
0.147602 0.504479 0.829120 0.823129 0.521977 -0.223604
0.132823 0.577842 0.481677 0.604673 0.795986 -0.027868
0.151371 0.522285 0.295580 0.369139 0.266311 0.890402
0.073970 0.532672 0.827685 -0.812756 -0.582222 -0.021075
0.091001 0.573414 0.086264 -0.101004 0.618009 -0.779656
0.097823 0.617091 0.242604 -0.079580 0.991746 -0.100529
0.172403 0.165682 0.171485 0.878328 -0.465181 0.110210
0.043315 0.340767 0.300512 0.994210 0.025203 0.104459
0.081878 0.588658 0.738624 0.799694 -0.598930 0.042099
0.172403 0.506029 0.592375 0.979305 -0.188051 0.074822
0.154050 0.563072 0.151794 0.397671 0.150112 -0.905165
0.054346 0.591076 0.807394 -0.865374 0.498513 0.051111
0.081629 0.537968 0.377806 0.695209 0.708214 0.122953
0.133259 0.539320 0.721376 -0.615451 0.760521 0.206948
0.118328 0.496692 0.140828 0.985845 -0.150649 -0.073589
0.106218 0.598702 0.905685 0.323696 -0.945550 0.034017
0.043315 0.264050 0.157954 0.987195 0.056095 -0.149332
0.189951 0.253994 0.160187 0.988622 0.054476 -0.140213
0.146961 0.504269 0.307704 0.467782 -0.102168 -0.877919
0.042348 0.517072 0.538521 -0.995753 0.085723 0.033586
0.076796 0.031413 0.224817 -0.350430 -0.840393 0.413447
0.154434 0.572035 0.754473 0.999247 0.027106 -0.027752
0.172403 0.079837 0.222439 0.709713 -0.536530 0.456555
0.155694 0.569950 0.611436 0.995205 0.085152 -0.048133
0.070483 0.586898 0.517295 -0.842032 0.538515 -0.031360
0.172403 0.405776 0.218520 0.982943 -0.109511 -0.147748
0.163707 0.333980 0.349703 0.934872 -0.235189 0.265894
0.172403 0.533597 0.859460 0.991704 -0.018702 0.127171
0.065492 0.435506 0.698162 -0.164551 -0.979255 0.118250
0.147911 0.543493 0.333681 0.921288 -0.383158 -0.066470
0.129032 0.524696 0.828746 0.132959 -0.990938 -0.019051
0.125750 0.435510 0.524462 0.374820 -0.918855 0.123356
0.043315 0.129372 0.142266 0.996366 -0.084184 -0.012925
0.161070 0.590356 0.184061 0.522297 0.458541 -0.718989
0.080873 0.366688 0.358686 -0.833506 -0.438677 -0.335902
0.171636 0.173405 0.242080 -0.994063 -0.100078 0.042701
0.096486 0.051255 0.098775 -0.206379 -0.976981 0.053993
0.156316 0.564189 0.086090 0.203614 0.481793 -0.852301
0.162627 0.062898 0.036163 0.765027 -0.639328 -0.077416
0.043315 0.319036 0.224582 0.997259 0.039037 -0.062859
0.075694 0.614642 0.676631 -0.451930 0.891530 0.030548
0.042348 0.447769 0.099056 -0.583395 -0.705067 -0.403152
0.126169 0.295372 0.423670 0.234623 -0.969268 0.073968
0.042348 0.188666 0.157061 -0.966613 -0.223041 -0.126140
0.172403 0.550731 0.361168 0.821331 0.177805 -0.542035
0.145156 0.566371 0.949440 -0.966839 0.108141 0.231360
0.157817 0.534499 0.245122 0.445082 0.246680 0.860843
0.025000 0.400241 0.240434 -0.993636 0.112162 0.010352
0.044098 0.300530 0.112685 -0.651225 0.231028 -0.722864
0.073775 0.493872 0.211906 -0.341981 0.382450 0.858360
0.102085 0.606445 0.594938 -0.125328 0.990403 -0.058265
0.140382 0.595307 0.896527 0.868868 0.494894 -0.012225
0.057754 0.594839 0.781612 -0.815408 0.577039 0.046226
0.077525 0.494048 0.973721 -0.821570 0.404598 0.401650
0.152856 0.552495 0.591528 0.940789 -0.337161 -0.035182
0.058962 0.567818 0.327048 -0.996750 -0.010019 -0.079936
0.096576 0.336179 0.346032 -0.228537 0.477082 -0.848625
0.042348 0.565125 0.292684 -0.657464 -0.013695 -0.753361
0.172403 0.196419 0.185177 0.902842 -0.422819 0.078106
0.148099 0.495203 0.973721 0.912851 -0.016110 0.407976
0.073858 0.577842 0.488513 -0.625072 0.778443 -0.057540
0.042348 0.342688 0.164587 -0.815148 0.112016 -0.568318
0.159689 0.591880 0.142961 0.503308 0.508591 -0.698582
0.075933 0.553067 0.662504 0.877883 0.421341 0.227581
0.074846 0.555204 0.684915 0.913822 0.330932 0.235400
0.152157 0.501939 0.261655 0.535206 -0.075772 -0.841316
0.172403 0.446962 0.378145 0.903466 -0.263535 0.338082
0.103591 0.349498 0.446238 -0.441726 -0.885149 0.146249
0.053688 0.435505 0.704926 -0.316255 -0.941337 0.117760
0.189951 0.327139 0.254754 0.998901 0.025425 -0.039382
0.034817 0.084611 0.062504 0.537215 -0.801895 -0.261466
0.088361 0.290169 0.347428 -0.304980 -0.450218 -0.839220
0.171636 0.196274 0.086822 -0.979564 0.072064 -0.187779
0.092638 0.570444 0.314859 -0.990908 0.118742 0.063252
0.120790 0.615018 0.133099 0.184619 0.940740 -0.284473
0.142063 0.052093 0.093456 0.594018 -0.798835 0.094898
0.080185 0.118934 0.038531 -0.455877 0.148293 -0.877602
0.172403 0.541304 0.565796 0.988025 0.150674 0.033216
0.157924 0.054280 0.079559 0.712827 -0.697082 0.077165
0.088741 0.596640 0.628478 0.627064 -0.774778 0.080681
0.129172 0.571122 0.234063 0.379380 0.241578 0.893147
0.042348 0.552825 0.370756 -0.821610 0.413468 -0.392430
0.189951 0.263654 0.239250 0.998866 0.019284 -0.043532
0.086792 0.593307 0.753733 0.593937 -0.797857 0.103263
0.137308 0.549235 0.333955 0.626021 0.323902 0.709355
0.171636 0.268093 0.292099 -0.999005 -0.027481 0.035134
0.075229 0.530389 0.349657 -0.346390 -0.929650 -0.125560
0.147005 0.435504 0.768587 0.234707 -0.954936 0.181686
0.172403 0.464460 0.675880 0.824929 -0.534443 0.184017
0.092638 0.530509 0.285223 -0.997753 -0.056955 0.035283
0.128144 0.533925 0.920793 -0.271303 0.921813 0.276868
0.089268 0.606440 0.790578 -0.188901 0.981770 -0.021056
0.172403 0.542447 0.441337 0.972156 0.230082 0.044439
0.159138 0.508914 0.352781 0.543212 -0.147902 -0.826466
0.071043 0.562685 0.647470 0.961583 0.121463 0.246180
0.079637 0.581088 0.595576 0.908957 -0.377199 0.177532
0.172403 0.213915 0.110094 0.794933 0.163266 -0.584316
0.092638 0.566943 0.361989 -0.993416 0.012002 0.113931
0.089507 0.532296 0.842447 0.144864 0.988542 0.042413
0.091352 0.533930 0.703692 0.320462 0.937301 0.137006
0.086251 0.617076 0.879951 -0.343386 0.933654 0.101863
0.172403 0.313044 0.220797 0.936949 0.092974 -0.336872
0.121203 0.617089 0.300621 0.255444 0.956485 -0.141011
0.043315 0.221107 0.102127 0.979675 0.073377 -0.186689
0.172403 0.457916 0.520579 0.828352 -0.553108 0.088911
0.171636 0.365942 0.159270 -0.988472 0.087152 -0.123808
0.143254 0.554722 0.436330 -0.884755 0.460662 0.070702
0.118274 0.597705 0.704633 -0.191754 -0.973436 0.125108
0.143590 0.572360 0.432219 -0.991901 -0.084855 0.094508
0.095662 0.600978 0.318087 -0.507233 0.857532 -0.085751
0.092638 0.523980 0.177148 -0.990949 0.106969 -0.081104
0.096320 0.546842 0.150410 -0.030548 0.530642 0.847046
0.172403 0.272546 0.286828 0.934110 -0.301246 0.191544
0.172403 0.374419 0.276407 0.979201 -0.034447 -0.199947
0.116015 0.533928 0.811544 -0.122089 0.966211 0.227002
0.098479 0.435503 0.783479 0.058394 -0.987859 0.143961
0.065690 0.577843 0.446248 -0.658395 0.751880 -0.034529
0.141751 0.575512 0.362152 -0.987090 -0.119121 0.107068
0.088166 0.606439 0.859299 -0.151959 0.988278 -0.014677
0.137142 0.525440 0.156872 0.385463 0.466053 0.796375
0.042348 0.523596 0.719928 -0.996471 -0.006567 0.083676
0.118210 0.606450 0.377988 -0.016238 0.994444 -0.104002
0.042348 0.494397 0.173384 -0.477123 -0.054611 -0.877138
0.087502 0.606449 0.408239 -0.527191 0.848744 -0.041272
0.078374 0.454773 0.748882 -0.233860 -0.957144 -0.170838
0.042348 0.099624 0.166951 -0.867753 -0.489838 0.084042
0.034164 0.258356 0.306315 0.075640 -0.523738 0.848515
0.171636 0.137147 0.106723 -0.996386 -0.025155 -0.081132
0.127457 0.546156 0.334884 0.538815 0.341377 0.770156
0.132482 0.510080 0.075781 0.277155 0.475725 -0.834788
0.043315 0.230598 0.182635 0.995396 0.032053 -0.090326
0.095397 0.606439 0.855631 -0.028964 0.999333 -0.022238
0.147696 0.563044 0.834904 -0.978294 -0.201381 0.048847
0.042348 0.487342 0.625954 -0.974871 -0.198926 0.100273
0.042348 0.076009 0.080566 -0.897668 -0.429548 -0.098392
0.094379 0.571250 0.552113 0.844280 -0.299820 0.444184
0.078068 0.525214 0.502016 -0.355599 -0.929829 -0.094693
0.063753 0.564524 0.145071 -0.338820 0.518465 0.785108
0.171636 0.370105 0.296716 -0.987258 0.092975 0.129140
0.149950 0.579467 0.536120 0.927750 0.367890 -0.062740
0.055950 0.576454 0.232453 -0.307522 0.282631 0.908598
0.025000 0.294187 0.278210 -0.999949 0.007848 -0.006424
0.092638 0.554285 0.320595 -0.997392 0.015253 0.070545
0.025000 0.224399 0.188818 -0.996733 0.019321 -0.078422
0.092638 0.526374 0.146552 -0.976872 0.179970 -0.115463
0.171636 0.145026 0.201620 -0.994113 -0.105363 0.025246
0.109758 0.476945 0.326977 0.657697 -0.690754 0.300490
0.093374 0.237315 0.323376 -0.568759 -0.487028 0.662810
0.120167 0.598714 0.363947 -0.426909 -0.898171 0.105061
0.172403 0.106280 0.198327 0.783234 -0.527022 0.329837
0.090304 0.533927 0.827526 0.482056 0.860218 0.166274
0.043315 0.175868 0.148374 0.996811 -0.000317 -0.079801
0.117565 0.532301 0.624892 -0.235097 0.971323 0.035517
0.136372 0.552905 0.332847 0.605656 0.338427 0.720172
0.148256 0.582276 0.395709 0.829510 0.548684 -0.104205
0.025000 0.095053 0.139913 -0.987480 -0.147992 0.054600
0.075024 0.516701 0.782177 -0.680010 0.724886 -0.110121
0.074022 0.592755 0.737693 -0.639063 0.769091 -0.009911
0.162703 0.438430 0.108488 0.591935 -0.592856 -0.546017
0.069683 0.055674 0.070707 -0.714986 -0.692428 -0.096636
0.042348 0.523559 0.285756 -0.727570 0.316145 0.608847
0.061991 0.037186 0.188142 -0.579413 -0.773465 0.256969
0.042348 0.517384 0.115420 -0.819434 0.445028 -0.361217
0.189951 0.189935 0.120551 0.988716 0.038184 -0.144855
0.172403 0.422635 0.177157 0.973855 -0.079486 -0.212809
0.171636 0.367012 0.152805 -0.987208 0.090721 -0.131107
0.025000 0.395330 0.219854 -0.997265 0.048092 -0.056115
0.043315 0.203112 0.139228 0.990905 0.042852 -0.127562
0.113201 0.361828 0.397931 0.188676 -0.734282 0.652098
0.042348 0.101516 0.246464 -0.779978 -0.563638 0.271931
0.172403 0.207146 0.159818 0.941319 -0.098520 -0.322819
0.120864 0.516901 0.973724 0.521015 0.824022 0.222557
0.074881 0.550618 0.499275 0.922170 0.373492 0.100534
0.189951 0.343739 0.291310 0.991849 -0.004101 0.127356
0.140789 0.346080 0.368564 0.624947 0.687109 -0.370571
0.128394 0.586681 0.064062 0.374337 0.886497 -0.272022
0.089984 0.617092 0.184002 -0.143278 0.984836 -0.097824
0.100846 0.606436 0.962101 0.178478 0.983942 -0.001853
0.042348 0.155098 0.065053 -0.761098 0.162746 -0.627889
0.149161 0.580771 0.717847 0.960713 0.275207 -0.035950
0.042348 0.075810 0.219700 -0.777348 -0.584504 0.232562
0.172403 0.078085 0.143840 0.782157 -0.576924 0.235348
0.043315 0.260096 0.208904 0.996514 0.029748 -0.077940
0.043315 0.281176 0.231374 0.997558 0.023546 -0.065747
0.057606 0.594679 0.634882 -0.749207 0.662307 -0.006150
0.142781 0.553834 0.477655 -0.887809 0.455134 0.068178
0.145285 0.541286 0.974975 0.309711 -0.950759 0.011700
0.117445 0.452837 0.911807 0.091122 -0.995638 0.020070
0.133117 0.500228 0.903458 0.653396 -0.634706 0.412580
0.172403 0.189059 0.193871 0.894242 -0.431150 0.120171
0.150216 0.435505 0.704531 0.346142 -0.923722 0.164081
0.062947 0.499690 0.348916 -0.906105 0.098004 0.411545
0.042348 0.479146 0.374644 -0.759824 -0.263396 -0.594383
0.172403 0.286250 0.189595 0.899894 0.136391 -0.414233
0.113977 0.611957 0.537607 0.124424 0.989144 -0.078191
0.042348 0.199176 0.237931 -0.912630 -0.376387 0.159497
0.153653 0.079539 0.280404 0.396002 -0.570935 0.719177
0.094459 0.597707 0.643901 0.486522 -0.869397 0.086286
0.144230 0.560898 0.563536 -0.975768 -0.126457 0.178565
0.120047 0.524701 0.610892 0.187447 -0.981108 -0.047854
0.126162 0.409931 0.407979 0.933006 -0.059453 -0.354917
0.043315 0.275166 0.284668 0.999932 -0.006068 0.009988
0.111977 0.597699 0.936963 -0.363093 -0.919548 0.150317
0.108386 0.195048 0.311864 -0.307260 -0.575609 0.757803
0.138134 0.581699 0.672012 -0.779315 -0.621647 0.078887
0.172403 0.356430 0.189862 0.827353 0.119313 -0.548863
0.132002 0.606441 0.758482 0.570936 0.819655 -0.046881
0.070139 0.539650 0.874034 -0.922484 -0.385819 -0.012921
0.025000 0.268459 0.131956 -0.980798 0.069894 -0.182073
0.089502 0.439336 0.558195 -0.223946 0.949100 -0.221490
0.072672 0.518187 0.204564 -0.276989 0.352485 0.893885
0.120261 0.231244 0.321722 0.038237 -0.605223 0.795137
0.091080 0.363398 0.357715 -0.634849 -0.440118 0.635029
0.042348 0.528682 0.743071 -0.996367 0.013183 0.084140
0.171636 0.307933 0.216025 -0.996207 0.039823 -0.077372
0.092638 0.492609 0.352749 -0.908311 -0.403279 0.111070
0.111033 0.524708 0.331253 0.299396 -0.950488 -0.083277
0.093689 0.373477 0.336375 -0.564933 -0.221541 -0.794840
0.042348 0.403951 0.149156 -0.930771 -0.174091 -0.321492
