0.413386 0.538585 0.308781 -0.413689 -0.209549 0.885974
0.289432 0.505543 0.262177 -0.173304 0.974184 0.144679
0.128848 0.304979 0.369539 0.689542 0.326222 0.646615
0.107745 0.481989 0.375891 0.803735 -0.058444 0.592110
0.100935 0.485494 0.387642 0.843195 -0.057444 0.534530
0.227196 0.245874 0.737789 0.129294 0.977653 0.165763
0.304471 0.762859 0.585994 -0.018430 -0.994451 0.103578
0.244901 0.337459 0.253437 -0.451918 0.062719 0.889852
0.271893 0.186869 0.117566 -0.289829 -0.824181 -0.486544
0.346430 0.142490 0.422453 -0.205198 0.346781 0.915225
0.328312 0.139121 0.909035 -0.412386 0.295132 -0.861878
0.234345 0.298159 0.890400 0.638988 0.013722 -0.769095
0.123178 0.137743 0.579568 0.961283 0.275560 -0.000829
0.534776 0.415363 0.518894 -0.985868 0.089623 0.141537
0.230368 0.571619 0.884861 0.263657 -0.488729 -0.831642
0.451371 0.448917 0.831762 -0.822373 0.108470 -0.558513
0.096299 0.279599 0.450932 0.895564 0.287140 0.339876
0.300443 0.502872 0.273651 0.060612 0.940583 -0.334109
0.210564 0.285609 0.224356 -0.757455 -0.145768 0.636406
0.092371 0.238789 0.609212 0.959421 0.279031 -0.040652
0.253107 0.444736 0.876837 0.721227 0.113088 -0.683405
0.382728 0.544513 0.300742 -0.310322 -0.204264 0.928427
0.227157 0.240669 0.862073 0.896983 0.137237 -0.420222
0.062433 0.535320 0.679336 0.958254 -0.172184 -0.228259
0.343120 0.747710 0.704029 -0.152637 -0.939871 -0.305524
0.408286 0.368169 0.131601 0.981248 0.147527 -0.124047
0.313873 0.737088 0.726261 -0.059727 -0.946176 -0.318093
0.359271 0.236390 0.733476 0.795641 -0.438607 0.417827
0.325483 0.183604 0.389414 -0.110734 0.714835 0.690470
0.252141 0.454455 0.274513 -0.604544 -0.059079 -0.794378
0.039315 0.442192 0.551804 0.753046 0.605923 -0.256475
0.052565 0.588422 0.581627 0.975998 -0.217059 -0.017673
0.312774 0.185823 0.246495 0.641824 -0.301563 0.705069
0.455155 0.640050 0.371728 -0.569068 -0.524527 0.633271
0.473388 0.580263 0.370416 -0.739907 -0.200548 0.642120
0.337893 0.349394 0.281109 0.205361 -0.179866 -0.962016
0.337370 0.255093 0.249272 0.436461 -0.225894 0.870904
0.423227 0.474532 0.844672 -0.429461 -0.493651 -0.756222
0.101361 0.680908 0.633773 0.817015 -0.525149 -0.238129
0.361780 0.439214 0.844428 -0.469138 -0.622235 -0.626684
0.356694 0.243937 0.742742 0.866269 -0.277147 0.415653
0.333037 0.758046 0.691010 -0.119704 -0.966750 -0.225975
0.368582 0.367865 0.287115 0.366696 -0.147125 -0.918634
0.150816 0.250090 0.358279 0.487427 0.528541 0.695025
0.329529 0.181319 0.220518 0.720294 -0.562361 0.406111
0.193909 0.507701 0.310843 -0.593670 0.231182 -0.770786
0.358298 0.409882 0.237624 0.661807 0.066755 0.746696
0.204822 0.143549 0.851641 0.696572 0.466357 -0.545251
0.353954 0.213719 0.100704 0.554158 -0.676877 -0.484506
0.066633 0.604244 0.650167 0.919567 -0.321493 -0.225916
0.130966 0.225395 0.804668 0.833237 0.287033 -0.472577
0.060793 0.610424 0.537689 0.959225 -0.262978 0.103582
0.361984 0.098163 0.835830 -0.507435 0.792036 -0.339393
0.236936 0.266475 0.782880 0.125860 -0.975423 -0.180858
0.152211 0.296421 0.339020 0.505148 0.410860 0.758960
0.133232 0.335621 0.348431 0.638520 0.284105 0.715246
0.188382 0.562465 0.307503 0.383247 -0.218816 0.897352
0.294823 0.530237 0.138903 -0.044162 0.937968 -0.343898
0.293490 0.269289 0.755715 -0.019209 -0.985118 -0.170804
0.299301 0.243993 0.913913 -0.138206 0.054583 -0.988898
0.515865 0.471125 0.439425 -0.928014 -0.006927 0.372482
0.223331 0.761895 0.574192 0.176123 -0.983473 0.041973
0.384226 0.506839 0.298121 -0.325395 -0.125583 0.937202
0.147417 0.453322 0.857206 0.152395 -0.982153 -0.110235
0.072132 0.465737 0.736872 0.951712 -0.014962 -0.306626
0.461946 0.452174 0.820223 -0.742976 0.056852 -0.666900
0.320352 0.236294 0.253705 0.371756 -0.168608 0.912890
0.244032 0.660774 0.325441 0.167282 -0.598284 0.783628
0.318254 0.341486 0.279844 0.150799 -0.188699 -0.970388
0.290883 0.400875 0.037856 -0.050577 0.264769 -0.962985
0.259437 0.324655 0.943736 0.634648 0.482848 -0.603390
0.196320 0.414397 0.135536 -0.949036 0.294542 -0.112138
0.514879 0.336542 0.586991 -0.983150 0.181498 -0.021774
0.218636 0.421630 0.289651 0.259811 0.044443 0.964636
0.465474 0.515581 0.350387 -0.688569 -0.101355 0.718052
0.184768 0.320720 0.101802 -0.932833 -0.015275 -0.359985
0.463116 0.523527 0.347341 -0.669976 -0.125643 0.731673
0.253498 0.544545 0.287981 0.148454 -0.166794 0.974752
0.322335 0.515963 0.896994 -0.142851 0.137187 -0.980190
0.258790 0.394600 0.267824 0.672855 0.686717 -0.275110
0.351010 0.222867 0.874084 -0.812256 0.045533 -0.581522
0.177396 0.546808 0.868270 0.490406 -0.217463 -0.843926
0.339289 0.516255 0.293420 0.234380 0.370916 -0.898603
0.260496 0.256627 0.839895 0.092556 -0.970563 -0.222353
0.230315 0.404393 0.062669 -0.623374 0.294911 -0.724177
0.308735 0.762844 0.585979 -0.028215 -0.994715 0.098726
0.413385 0.754701 0.619810 -0.412546 -0.900631 -0.136640
0.391168 0.477440 0.856327 -0.206817 0.408262 -0.889128
0.153151 0.197557 0.823333 0.790412 0.329104 -0.516662
0.062189 0.526607 0.683302 0.961640 -0.154340 -0.226775
0.436420 0.218794 0.379178 -0.492501 0.565297 0.661727
0.253268 0.254283 0.853466 0.126089 -0.960475 -0.248173
0.270584 0.402463 0.913479 0.806690 -0.277929 -0.521542
0.115777 0.172377 0.536122 0.932322 0.302376 0.198356
0.418310 0.681311 0.362239 -0.275313 -0.753980 0.596420
0.435567 0.634963 0.340629 -0.391837 -0.577071 0.716556
0.451856 0.123856 0.651288 -0.927213 0.340243 -0.156560
0.095968 0.592818 0.410664 0.857206 -0.225507 0.462974
0.296761 0.155426 0.916426 -0.020983 0.194300 -0.980718
0.255737 0.354748 0.906841 0.762672 -0.224796 -0.606463
0.126992 0.319332 0.807017 0.785420 0.052680 -0.616717
0.349874 0.314669 0.253674 0.465217 -0.012235 0.885112
0.216729 0.239387 0.816171 0.769613 0.637904 -0.027815
0.232025 0.761335 0.509173 0.150401 -0.966879 0.206217
0.492191 0.276990 0.444888 -0.888801 0.328808 0.319245
0.375301 0.628596 0.839861 -0.344541 -0.579620 -0.738466
0.352659 0.234185 0.078407 0.518226 -0.543555 -0.660295
0.441893 0.419118 0.819474 -0.642188 0.616578 -0.455440
0.205675 0.267061 0.209530 -0.818753 -0.279785 0.501362
0.397949 0.119455 0.802189 -0.689589 0.597417 -0.409341
0.073407 0.300021 0.579149 -0.333936 0.606823 0.721286
0.090600 0.294330 0.747422 0.918656 0.111609 -0.378965
0.400290 0.104946 0.760787 -0.556199 0.766976 -0.319986
0.318630 0.730439 0.735023 -0.075366 -0.927307 -0.366635
0.520364 0.417200 0.538819 -0.660601 0.356546 -0.660667
0.253028 0.703595 0.380129 0.126456 -0.776811 0.616906
0.286365 0.035879 0.725740 0.053511 0.661549 -0.747991
0.533668 0.321302 0.616588 0.986021 0.016991 0.165755
0.092760 0.235472 0.554213 0.945830 0.313956 0.082685
0.046027 0.477046 0.640756 0.993502 -0.010803 -0.113300
0.257637 0.761214 0.497155 0.091062 -0.960112 0.264373
0.411434 0.147081 0.813630 -0.734854 0.485982 -0.473087
0.440457 0.563144 0.318269 -0.488396 -0.272222 0.829074
0.083431 0.263791 0.568754 0.960479 0.275594 0.039102
0.318560 0.175321 0.135546 0.297448 -0.877997 -0.375027
0.073879 0.368630 0.716549 0.948604 0.121458 -0.292231
0.048957 0.353306 0.552944 0.957217 0.270492 0.102809
0.362469 0.598789 0.864916 -0.280171 -0.539764 -0.793825
0.298428 0.433271 0.048422 0.013339 0.393062 -0.919415
0.134566 0.180991 0.775202 0.840576 0.411972 -0.351727
0.524895 0.360635 0.576851 0.683992 0.319907 0.655602
0.052940 0.582568 0.594970 0.973459 -0.221511 -0.057539
0.256304 0.240303 0.324579 0.137066 0.517799 0.844451
0.210301 0.436385 0.197390 -0.887763 0.263481 0.377431
0.450278 0.244873 0.825020 -0.777249 0.120395 -0.617567
0.339840 0.517191 0.153662 0.589221 0.783258 -0.198307
0.073311 0.389582 0.607161 0.712385 0.485784 0.506480
0.526331 0.291986 0.589028 0.579716 -0.678931 -0.450536
0.264664 0.342790 0.280713 -0.198581 -0.197638 -0.959951
0.105755 0.302050 0.777392 0.854865 0.067591 -0.514429
0.068830 0.361923 0.549772 0.991112 0.126670 0.040634
0.065957 0.384807 0.595179 0.985003 0.172366 -0.007702
0.376348 0.242162 0.798453 -0.771568 0.632516 0.067862
0.408044 0.510662 0.869998 -0.366827 0.293090 -0.882913
0.462588 0.199273 0.468630 -0.770961 0.495343 0.400318
0.066006 0.372265 0.673489 0.977070 0.163942 -0.135860
0.239284 0.507140 0.158440 -0.737486 0.671898 -0.068315
0.099160 0.433596 0.390979 0.856244 0.019742 0.516194
0.186692 0.527662 0.305182 0.388290 -0.157088 0.908050
0.486389 0.224299 0.501173 -0.906303 0.374603 0.195673
0.333387 0.761628 0.521060 -0.083388 -0.972932 0.215523
0.435061 0.309745 0.841875 -0.626207 -0.020748 -0.779381
0.045946 0.409510 0.601659 0.599720 0.503640 0.621838
0.095392 0.695666 0.569398 0.808685 -0.583982 -0.070670
0.542388 0.538384 0.613069 -0.991409 -0.103853 -0.079520
0.053121 0.467348 0.676647 0.985473 -0.009150 -0.169586
0.067371 0.493432 0.455630 0.942118 -0.051750 0.331265
0.456061 0.271954 0.817332 -0.728458 -0.013467 -0.684958
0.067952 0.394252 0.648729 0.828708 -0.084667 -0.553240
0.522015 0.405118 0.710128 -0.959780 0.136711 -0.245220
0.265665 0.452443 0.888777 0.666793 0.033191 -0.744503
0.093527 0.245527 0.683462 0.953704 0.292642 -0.069350
0.087833 0.448621 0.413083 0.901255 0.005866 0.433250
0.152411 0.752454 0.562705 0.548919 -0.833374 -0.064622
0.502718 0.379194 0.422063 -0.906032 0.134780 0.401174
0.272627 0.713916 0.759658 0.079791 -0.881371 -0.465637
0.293949 0.695614 0.791468 0.006063 -0.848421 -0.529287
0.420543 0.330516 0.319033 -0.453651 0.298959 0.839538
0.266306 0.389597 0.911290 0.823583 -0.265788 -0.501067
0.331556 0.426989 0.259944 0.659780 -0.427620 0.617926
0.318311 0.505792 0.251837 0.416297 0.823495 0.385426
0.525491 0.333011 0.621835 0.907021 0.323460 0.269604
0.253955 0.225814 0.885256 0.583975 0.633233 -0.507927
0.387684 0.422523 0.294563 -0.320692 0.031448 0.946661
0.452067 0.292589 0.820769 -0.713322 0.008618 -0.700783
0.327317 0.383155 0.274551 0.163061 -0.117013 -0.979653
0.171645 0.483946 0.327915 -0.717139 0.130654 -0.684574
0.344207 0.239080 0.777121 -0.132194 0.977402 0.164955
0.475634 0.193676 0.714941 -0.915814 0.385232 -0.113490
0.314320 0.310338 0.937315 -0.528163 0.675789 -0.514153
0.275294 0.384536 0.256378 -0.180145 -0.008170 0.983606
0.112157 0.574035 0.799611 0.766757 -0.390376 -0.509599
0.290361 0.733844 0.424930 0.018390 -0.863104 0.504692
0.217383 0.380942 0.226034 -0.728263 0.149506 0.668791
0.406645 0.179602 0.848775 -0.729962 0.362714 -0.579305
0.179236 0.333400 0.314918 0.423404 0.305404 0.852911
0.509406 0.392281 0.433102 -0.922967 0.110683 0.368620
0.442584 0.127691 0.695602 -0.815794 0.503695 -0.284204
0.537324 0.504329 0.662230 -0.982111 -0.083512 -0.168771
0.283862 0.418438 0.921902 0.590243 -0.422898 -0.687583
0.086174 0.314858 0.737149 0.935790 0.107580 -0.335744
0.246205 0.090160 0.843016 0.334141 0.904056 -0.266519
0.159168 0.637854 0.340491 0.434980 -0.541076 0.719742
0.241237 0.362190 0.046695 -0.494735 0.115538 -0.861330
0.490283 0.217670 0.560566 -0.943693 0.327942 0.043558
0.192062 0.153281 0.433797 0.404466 0.279602 0.870764
0.333279 0.272038 0.750679 -0.085225 -0.980501 -0.177073
0.372864 0.432297 0.286103 0.366511 0.034964 -0.929757
0.343513 0.318354 0.922532 -0.817205 0.331720 -0.471314
0.146066 0.393720 0.312234 0.491065 0.101124 0.865234
0.165557 0.753805 0.574745 0.490349 -0.868044 -0.077831
0.225562 0.669825 0.813378 0.317475 -0.668611 -0.672435
0.307278 0.077415 0.762368 -0.071944 0.900432 -0.429007
0.528359 0.504185 0.695596 -0.968704 -0.105388 -0.224734
0.335201 0.217239 0.917036 -0.571794 -0.068907 -0.817498
0.289560 0.503811 0.267537 -0.172642 0.980554 -0.093318
0.396670 0.306785 0.868580 -0.633959 -0.112938 -0.765076
0.257466 0.264280 0.251925 -0.415975 -0.206853 0.885538
0.415112 0.221053 0.369705 -0.426531 0.580441 0.693656
0.207573 0.246477 0.107266 -0.796211 -0.448152 -0.406457
0.163442 0.647929 0.784403 0.549414 -0.609552 -0.571481
0.502049 0.313553 0.580053 -0.568724 -0.507831 -0.647040
0.251549 0.516529 0.285503 0.155204 -0.124324 0.980028
0.333038 0.761759 0.528524 -0.082813 -0.976394 0.199490
0.246971 0.405441 0.880624 0.526504 -0.248350 -0.813090
0.222112 0.256696 0.826396 0.391543 -0.879800 -0.269531
0.351947 0.069794 0.736231 -0.327049 0.766827 -0.552282
0.086711 0.253380 0.552557 0.951057 0.296980 0.085399
0.405105 0.227295 0.356261 -0.392920 0.553731 0.734164
0.289929 0.114684 0.414560 0.017821 0.296966 0.954722
0.435888 0.485714 0.828859 -0.548579 -0.595747 -0.586640
0.109841 0.229145 0.464955 0.862241 0.381219 0.333486
0.188713 0.352693 0.306655 0.375979 0.231830 0.897159
0.176880 0.755283 0.579472 0.429290 -0.900216 -0.072942
0.143650 0.174997 0.785620 0.807508 0.425310 -0.408708
0.388189 0.755109 0.481715 -0.206154 -0.946385 0.248710
0.335677 0.225604 0.855144 -0.157676 0.982375 0.100388
0.362988 0.241723 0.862681 -0.896918 0.137397 -0.420310
0.218383 0.220454 0.170679 -0.808957 -0.576855 0.113255
0.267202 0.428105 0.267479 -0.686452 -0.542009 -0.484779
0.274634 0.222606 0.073099 -0.209861 -0.623520 -0.753114
0.502613 0.618840 0.702172 -0.851452 -0.384009 -0.357164
0.486654 0.225727 0.662560 -0.953028 0.300475 -0.038116
0.369927 0.297019 0.060496 0.640899 -0.193884 -0.742737
0.499287 0.579737 0.759218 -0.851108 -0.319038 -0.416930
0.328622 0.495883 0.273000 0.565377 0.487328 -0.665478
0.428250 0.110821 0.722675 -0.718966 0.605475 -0.341303
0.251971 0.329175 0.286672 -0.269460 -0.249590 -0.930106
0.391386 0.556796 0.304131 -0.335892 -0.235209 0.912060
0.384389 0.238199 0.189434 0.801572 -0.486410 0.347689
0.223025 0.216119 0.177631 -0.797314 -0.582267 0.158921
0.095366 0.297767 0.443501 0.896893 0.260873 0.357110
0.292349 0.743589 0.720220 0.011313 -0.968389 -0.249189
0.173772 0.278416 0.338613 0.432684 0.455044 0.778280
0.039106 0.462703 0.573978 -0.192040 -0.981362 0.006989
0.349986 0.206760 0.215058 0.737522 -0.481809 0.473203
0.136026 0.659418 0.376561 0.558379 -0.613037 0.558926
0.273113 0.639167 0.351353 -0.240842 0.717357 -0.653754
0.208134 0.508387 0.877497 0.299065 0.373928 -0.877917
0.116242 0.716954 0.534477 0.743973 -0.667655 0.027223
0.090800 0.240368 0.580288 0.956428 0.291504 0.016437
0.153074 0.286419 0.842197 0.645047 -0.058423 -0.761906
0.275106 0.247356 0.893568 0.094353 -0.909785 -0.404215
0.433161 0.118795 0.720782 -0.746933 0.587264 -0.311789
0.078693 0.515160 0.749956 0.923768 -0.176267 -0.339974
0.445813 0.194588 0.802435 -0.794868 0.360357 -0.488188
0.440993 0.483981 0.822206 -0.611517 -0.571980 -0.546704
0.367909 0.518006 0.887151 -0.281114 0.351142 -0.893126
0.302477 0.520320 0.118917 0.061359 0.852699 -0.518786
0.216094 0.094113 0.435075 0.316189 0.178051 0.931838
0.397186 0.414354 0.168445 0.962775 0.247442 0.108794
0.285697 0.594913 0.311979 -0.016323 0.347486 -0.937543
0.349481 0.292590 0.048498 0.467974 -0.221712 -0.855479
0.206108 0.494729 0.868822 0.297685 0.364021 -0.882538
0.153983 0.687555 0.727731 0.570194 -0.689373 -0.446815
0.317079 0.216371 0.784465 0.760972 -0.450819 0.466567
0.181491 0.496425 0.830800 -0.032143 -0.918355 -0.394449
0.449024 0.332384 0.825552 -0.739522 0.050630 -0.671226
0.195356 0.741663 0.692007 0.414847 -0.821785 -0.390604
0.052790 0.507600 0.511663 0.980824 -0.056469 0.186537
0.185930 0.350973 0.860409 0.556513 -0.040917 -0.829830
0.424676 0.754351 0.598640 -0.445294 -0.890880 -0.089697
0.071428 0.331261 0.560083 0.990950 0.133464 0.014319
0.331796 0.278854 0.044952 0.317845 -0.291365 -0.902264
0.347112 0.043181 0.713872 -0.393824 0.649645 -0.650280
0.184687 0.270219 0.148463 -0.961834 -0.272452 -0.025398
0.417635 0.706244 0.726344 -0.500817 -0.717779 -0.483711
0.254374 0.136536 0.902716 0.472696 0.329983 -0.817111
0.358483 0.222831 0.344341 -0.229265 0.567584 0.790751
0.196721 0.414794 0.296462 0.333777 0.059698 0.940760
0.226885 0.578902 0.878759 0.281395 -0.502095 -0.817751
0.300454 0.530474 0.217030 0.028083 0.957150 0.288226
0.227951 0.384932 0.235030 -0.625612 0.144190 0.766693
0.156918 0.132923 0.466462 0.682611 0.230401 0.693511
0.334846 0.519137 0.203579 0.583928 0.792797 0.174647
0.175887 0.335722 0.315522 0.433411 0.297912 0.850531
0.270247 0.762483 0.679031 0.080099 -0.984651 -0.155068
0.402278 0.216818 0.370967 -0.384120 0.600371 0.701431
0.433360 0.612818 0.331409 -0.424302 -0.471142 0.773300
0.330809 0.214141 0.241454 0.608350 -0.299007 0.735190
0.337478 0.343489 0.258416 0.377813 0.134954 0.915994
0.054069 0.423535 0.508695 0.987234 0.071181 0.142488
0.064076 0.649083 0.602294 0.899848 -0.412842 -0.140838
0.192156 0.375353 0.863608 0.436412 -0.064915 -0.897402
0.539693 0.456729 0.564363 -0.605686 0.789257 -0.101083
0.414131 0.266726 0.342501 -0.430698 0.459001 0.777057
0.463457 0.325881 0.807482 -0.781885 0.050699 -0.621358
0.275514 0.696869 0.785626 0.072211 -0.829203 -0.554264
0.086828 0.271797 0.707974 0.959201 0.256153 -0.119660
0.363875 0.429819 0.287186 -0.238045 0.019259 0.971063
0.230298 0.461490 0.224378 -0.838377 0.248575 0.485112
0.501496 0.692079 0.544388 -0.830816 -0.553845 0.054786
0.480620 0.187590 0.594901 -0.954709 0.296237 -0.027829
0.523748 0.301769 0.640138 0.255184 -0.373699 0.891757
0.286442 0.233924 0.806975 0.033527 0.976490 0.212939
0.068709 0.308150 0.517057 0.961862 0.230937 0.146593
0.267133 0.762321 0.674971 0.088324 -0.984518 -0.151406
0.081616 0.326065 0.640080 -0.608494 0.275531 -0.744190
0.346658 0.436322 0.255011 0.015717 -0.042284 0.998982
0.328420 0.519467 0.219472 0.494590 0.819362 0.289873
0.324516 0.746354 0.454341 -0.062458 -0.916000 0.396287
0.416840 0.115360 0.766890 -0.668413 0.669535 -0.323955
0.500786 0.261154 0.673091 -0.957087 0.287636 -0.035345
0.214776 0.143658 0.429413 0.318937 0.285481 0.903759
0.302353 0.296649 0.290041 -0.026368 0.353667 0.935000
0.538433 0.328723 0.552286 0.713895 -0.522672 -0.466013
0.308108 0.181411 0.919317 -0.107619 0.410159 -0.905642
0.330639 0.171413 0.180845 0.591504 -0.806136 -0.016377
0.131221 0.727408 0.596178 0.685645 -0.710042 -0.160412
0.342549 0.374826 0.248906 0.411672 0.116331 0.903877
0.191651 0.631354 0.328802 0.353661 -0.497444 0.792132
0.224171 0.418819 0.803590 -0.764450 0.590910 -0.257763
0.329909 0.574396 0.288993 -0.118383 -0.233963 0.965011
0.501914 0.690734 0.537461 -0.833235 -0.547644 0.076199
0.325576 0.458844 0.888697 -0.636945 0.061211 -0.768476
0.233837 0.354477 0.885242 0.585576 -0.144849 -0.797571
0.260425 0.726112 0.419233 0.104437 -0.856185 0.506003
0.529440 0.597910 0.629953 -0.951105 -0.267224 -0.154886
0.402154 0.397988 0.158469 0.974456 0.217732 0.055025
0.192122 0.354596 0.098206 -0.912602 0.111893 -0.393240
0.068573 0.603135 0.659404 0.914311 -0.321321 -0.246555
0.291206 0.180335 0.253915 -0.550580 -0.179274 0.815305
0.050585 0.556081 0.537841 0.984334 -0.122746 0.126568
0.193593 0.225912 0.354978 0.343018 0.587092 0.733254
0.254607 0.489783 0.884625 0.452883 0.134635 -0.881346
0.504683 0.463333 0.416745 -0.901801 0.007080 0.432095
0.057410 0.392708 0.492863 0.983523 0.095800 0.153315
0.332419 0.344868 0.932023 -0.876980 -0.327114 -0.351998
0.427121 0.108171 0.720359 -0.715085 0.603927 -0.352030
0.182512 0.372977 0.315293 -0.591263 -0.154259 -0.791588
0.400367 0.590082 0.853006 -0.440006 -0.524040 -0.729231
0.055813 0.441892 0.541280 -0.605006 -0.668224 0.432949
0.085662 0.648593 0.651471 0.860590 -0.439244 -0.257778
0.368007 0.388857 0.063109 0.659311 0.206810 -0.722868
0.461480 0.232482 0.407467 -0.688055 0.500162 0.525755
0.054527 0.473296 0.496971 0.974871 -0.006920 0.222665
0.201474 0.598106 0.313444 0.342867 -0.338788 0.876165
0.487186 0.518405 0.387113 -0.832310 -0.068456 0.550067
0.261044 0.347224 0.283007 0.114869 0.221317 0.968413
0.112738 0.403954 0.368834 0.773275 0.066500 0.630574
0.407196 0.270541 0.136554 0.949779 -0.301254 -0.084652
0.375588 0.093144 0.435535 -0.397782 0.190796 0.897422
0.418947 0.647630 0.794078 -0.513097 -0.597650 -0.616073
0.542511 0.512920 0.630821 -0.989331 -0.084841 -0.118436
0.240648 0.289298 0.895395 0.679084 0.050581 -0.732316
0.441536 0.340642 0.834492 -0.691736 0.044811 -0.720759
0.098039 0.679940 0.629315 0.823934 -0.519322 -0.226797
0.258223 0.718953 0.749348 0.136932 -0.875869 -0.462713
0.096846 0.326450 0.763670 0.885384 0.077529 -0.458350
0.126135 0.510049 0.348089 0.679999 -0.123019 0.722819
0.201770 0.371807 0.208821 -0.845123 0.143351 0.514993
0.287864 0.144807 0.916133 0.094803 0.237479 -0.966756
0.266958 0.498855 0.258124 -0.393219 0.397868 0.828903
0.283117 0.457079 0.065703 -0.144899 0.498699 -0.854578
0.078404 0.611843 0.455876 0.890555 -0.296999 0.344533
0.490584 0.489881 0.808518 -0.785755 0.104090 -0.609717
0.339918 0.086194 0.813150 -0.211887 0.961154 -0.176880
0.474468 0.467449 0.811274 -0.663440 0.237854 -0.709417
0.436701 0.242500 0.360369 -0.497545 0.510567 0.701264
0.140978 0.311209 0.824171 0.720033 0.026483 -0.693434
0.045460 0.451068 0.637228 0.995049 0.050995 -0.085308
0.334821 0.653391 0.319353 -0.124722 -0.568041 0.813495
0.413504 0.759811 0.504158 -0.287148 -0.944410 0.160111
0.249276 0.242667 0.919054 0.445696 0.369947 -0.815165
0.281762 0.440604 0.907335 0.546990 -0.292465 -0.784389
0.170108 0.497595 0.820452 0.272772 -0.879062 -0.390954
0.248888 0.045886 0.719341 0.346714 0.672087 -0.654284
0.330059 0.237514 0.786187 -0.101825 0.980793 0.166363
0.254958 0.520343 0.190593 -0.612451 0.776211 0.149668
0.273237 0.540701 0.298741 -0.093426 0.341232 -0.935325
0.484621 0.615699 0.748449 -0.772657 -0.444309 -0.453421
0.374293 0.463222 0.193766 0.904214 0.342863 0.254642
0.472812 0.187743 0.686288 -0.933254 0.353222 -0.065355
0.328060 0.234109 0.902478 0.212507 0.858145 0.467363
0.253608 0.192131 0.779298 -0.624947 0.673119 0.395413
0.050372 0.489271 0.658209 0.986891 -0.049960 -0.153463
0.210232 0.257682 0.779625 0.894157 -0.431370 -0.120009
0.346763 0.530633 0.896607 -0.220487 -0.015073 -0.975273
0.448184 0.476243 0.317591 -0.550662 -0.085870 0.830299
0.253870 0.253801 0.899285 0.717966 0.056225 -0.693803
0.526144 0.355698 0.481112 -0.963119 0.158078 0.217745
0.372594 0.310851 0.306386 0.460338 -0.254666 -0.850432
0.284828 0.644728 0.308218 0.040630 -0.507275 0.860826
0.315881 0.411912 0.267891 0.513653 -0.813227 -0.273539
0.349736 0.759080 0.684313 -0.171017 -0.954300 -0.245079
0.251685 0.472657 0.256011 -0.874979 0.291177 0.386817
0.352955 0.390004 0.284037 -0.198334 0.087628 0.976210
0.058753 0.383070 0.644498 0.985180 0.153704 -0.076126
0.109183 0.645018 0.711511 0.761559 -0.520245 -0.386488
0.079615 0.467538 0.428857 0.916801 -0.018313 0.398925
0.217637 0.400686 0.222656 -0.754390 0.160800 0.636427
0.296302 0.081559 0.825069 -0.005774 0.985110 -0.171826
0.537488 0.505878 0.512254 -0.982971 -0.035050 0.180385
0.243836 0.206665 0.909137 0.564154 0.081860 -0.821602
0.117692 0.540226 0.365232 0.742503 -0.162423 0.649853
0.079344 0.456849 0.430433 0.923267 -0.002273 0.384151
0.092013 0.339728 0.566581 -0.579486 0.333387 0.743673
0.228243 0.491231 0.151766 -0.812006 0.576712 -0.089715
0.218247 0.319807 0.236625 -0.671738 0.008359 0.740742
0.332067 0.494997 0.280821 0.516678 0.592984 -0.617587
0.241953 0.301294 0.893949 0.676464 0.058025 -0.734186
0.258541 0.488670 0.279111 -0.664455 0.439181 -0.604665
0.193631 0.708979 0.405527 0.287710 -0.819755 0.495202
0.272996 0.733479 0.429162 0.067993 -0.873109 0.482760
0.544370 0.436169 0.525216 -0.217384 0.545936 -0.809134
0.208183 0.151200 0.430110 0.344358 0.299757 0.889699
0.039070 0.440799 0.556356 0.789852 0.573000 -0.218644
0.230804 0.464063 0.285822 0.229496 -0.047658 0.972142
0.486540 0.704127 0.512195 -0.762352 -0.629104 0.151814
0.285561 0.219280 0.938097 0.197790 -0.277445 -0.940161
0.107691 0.229986 0.757204 0.916391 0.274875 -0.290982
0.370661 0.169704 0.414555 -0.274355 0.568174 0.775827
0.102145 0.218804 0.645744 0.952833 0.298356 -0.055617
0.177433 0.218641 0.861174 0.677804 0.152131 -0.719332
0.501782 0.689718 0.525397 -0.832103 -0.543056 0.112675
0.198841 0.282003 0.206738 -0.856597 -0.176060 0.485019
0.164600 0.205164 0.841150 0.730887 0.291092 -0.617308
0.215948 0.456901 0.122447 -0.851269 0.432744 -0.296774
0.224745 0.458092 0.287300 0.250388 -0.037219 0.967430
0.464444 0.672533 0.713785 -0.675874 -0.591374 -0.439853
0.473843 0.558088 0.368776 -0.746630 -0.154004 0.647168
0.338736 0.317347 0.260076 0.372456 0.002176 0.928047
0.064590 0.651476 0.583921 0.909204 -0.407536 -0.085216
0.419814 0.433452 0.319043 0.698403 0.051504 -0.713849
0.539929 0.437806 0.622913 0.585735 0.270474 0.764041
0.058040 0.417944 0.692059 0.972766 0.118142 -0.199422
0.474049 0.190254 0.718409 -0.912123 0.389769 -0.126929
0.489311 0.240202 0.752344 -0.928845 0.239724 -0.282454
0.226659 0.570067 0.297482 0.247600 -0.222198 0.943039
0.128334 0.728229 0.538679 0.687178 -0.726469 0.005473
0.306564 0.249220 0.882780 -0.001151 -0.971381 -0.237523
0.304292 0.307906 0.287846 0.084754 -0.302510 -0.949371
0.091558 0.590722 0.746902 0.837303 -0.364102 -0.407865
0.292169 0.331396 0.266667 -0.014163 0.087454 0.996068
0.477155 0.695059 0.648695 -0.765368 -0.569630 -0.299554
0.360083 0.093560 0.818002 -0.388666 0.890410 -0.236873
0.377141 0.243112 0.796059 -0.805145 0.589797 0.062301
0.198193 0.209199 0.377879 0.326151 0.651691 0.684780
0.376955 0.759523 0.604765 -0.219235 -0.973059 -0.071358
0.103930 0.202411 0.565867 0.942877 0.329592 0.048490
0.249410 0.747173 0.458958 0.122755 -0.921729 0.367896
0.402672 0.760173 0.523884 -0.257171 -0.959116 0.118153
0.404136 0.351781 0.191683 0.924427 0.113375 0.364116
0.466977 0.172333 0.713996 -0.903048 0.409804 -0.128706
0.383160 0.740759 0.708339 -0.360115 -0.830822 -0.424324
0.230748 0.221168 0.347271 0.217982 0.592094 0.775828
0.358870 0.161139 0.895231 -0.603905 0.264023 -0.752057
0.224421 0.079856 0.434762 0.284058 0.158066 0.945688
0.325554 0.202501 0.775123 0.841033 0.240761 0.484456
0.200197 0.311296 0.315738 0.353079 0.361989 0.862728
0.422708 0.210180 0.844171 -0.723954 0.287158 -0.627241
0.520059 0.613292 0.472969 -0.913527 -0.289879 0.285375
0.346952 0.762636 0.581579 -0.115145 -0.991246 0.064604
0.093208 0.232721 0.572785 0.951734 0.304457 0.038845
0.083898 0.274303 0.667672 0.969691 0.237086 -0.059071
0.263103 0.209837 0.351443 0.106178 0.620651 0.776865
0.220681 0.211320 0.366188 0.251805 0.641210 0.724875
0.188145 0.507997 0.303201 0.382188 -0.121312 0.916087
0.517546 0.373085 0.456879 -0.945800 0.136239 0.294790
0.297987 0.520515 0.292734 -0.013130 0.497420 -0.867410
0.269978 0.319543 0.941348 0.510619 0.692779 -0.509240
0.347243 0.760465 0.657878 -0.149738 -0.975857 -0.159003
0.322201 0.259212 0.932825 -0.446805 -0.118138 -0.886797
0.349301 0.186895 0.156341 0.651485 -0.752900 -0.093322
0.409870 0.575590 0.310833 -0.390350 -0.284271 0.875681
0.117652 0.187672 0.716436 0.905966 0.397545 -0.145548
0.463627 0.650605 0.748404 -0.651882 -0.568552 -0.501795
0.052249 0.450618 0.533476 0.991040 0.047532 0.124821
0.092672 0.460290 0.401996 0.881661 -0.012868 0.471707
0.231589 0.221328 0.209343 -0.756095 -0.491317 0.432352
0.046193 0.449395 0.625001 0.996553 0.058794 -0.058520
0.288937 0.188400 0.373502 0.017285 0.689159 0.724404
0.093773 0.622279 0.711318 0.819926 -0.436537 -0.370346
0.351893 0.228841 0.335620 -0.205289 0.543508 0.813913
0.535663 0.433252 0.576493 -0.994985 0.094520 0.032740
0.488870 0.230855 0.658572 -0.953991 0.297534 -0.037082
0.239546 0.683917 0.347936 0.163773 -0.700671 0.694434
0.207932 0.240274 0.187880 -0.825842 -0.480572 0.295018
0.111018 0.227597 0.463634 0.856332 0.387916 0.340907
0.496852 0.702504 0.576655 -0.798596 -0.599956 -0.047928
0.468604 0.727299 0.523381 -0.658473 -0.744321 0.111352
0.406441 0.366402 0.118342 0.963138 0.134817 -0.232785
0.083079 0.311037 0.722701 0.958510 0.138966 -0.248890
0.384069 0.552895 0.301786 -0.312376 -0.222679 0.923491
0.330334 0.198348 0.234460 0.687383 -0.391851 0.611521
0.064912 0.602403 0.475813 0.920779 -0.246411 0.302402
0.421202 0.706690 0.406523 -0.285522 -0.838717 0.463715
0.339554 0.562143 0.890711 -0.182695 -0.382463 -0.905729
0.235197 0.496420 0.136314 -0.742189 0.625467 -0.240721
0.074599 0.363794 0.455504 0.941706 0.136698 0.307416
0.065259 0.466334 0.717009 0.967458 -0.021771 -0.252092
0.035805 0.431989 0.540569 0.823858 0.392395 -0.409004
0.192088 0.750834 0.476478 0.251692 -0.935313 0.248677
0.237255 0.452744 0.806951 -0.949846 -0.036366 -0.310595
0.563876 0.452763 0.579278 0.996218 0.024907 0.083248
0.504179 0.364554 0.553360 -0.556893 -0.237637 -0.795863
0.311949 0.239656 0.902819 -0.306279 -0.196097 -0.931525
0.130951 0.156024 0.695271 0.881327 0.442967 -0.164445
0.185759 0.376874 0.136293 -0.976786 0.205256 -0.061305
0.324969 0.747174 0.708879 -0.095119 -0.956150 -0.277001
0.099634 0.683733 0.479187 0.808550 -0.550581 0.207624
0.315621 0.728881 0.420284 -0.042847 -0.860195 0.508161
0.072460 0.427312 0.548194 -0.619805 -0.545570 0.564088
0.283620 0.312604 0.265563 -0.189438 -0.022364 0.981638
0.492166 0.264224 0.452832 -0.889667 0.348052 0.295553
0.294052 0.466954 0.068812 -0.040409 0.529157 -0.847561
0.312886 0.499404 0.275780 -0.064265 -0.097003 0.993207
0.272055 0.271637 0.752997 0.035925 -0.983928 -0.174916
0.064795 0.395166 0.643170 0.830044 -0.050537 -0.555404
0.361157 0.686297 0.355233 -0.147864 -0.734188 0.662649
0.336471 0.411648 0.886531 -0.671079 -0.279635 -0.686627
0.526725 0.442124 0.464901 -0.958183 0.033006 0.284248
0.207243 0.320541 0.874774 0.624775 -0.126487 -0.770491
0.255940 0.214879 0.346690 0.131015 0.603632 0.786425
0.505227 0.278291 0.677864 -0.967233 0.244132 -0.069717
0.404396 0.425666 0.860475 -0.056147 -0.255895 -0.965073
0.060571 0.540823 0.669931 0.959624 -0.179153 -0.216853
0.452202 0.108944 0.505259 -0.910953 0.157496 0.381260
0.473773 0.632192 0.399285 -0.742454 -0.395942 0.540363
0.455463 0.371992 0.335978 -0.605639 0.168200 0.777760
0.175156 0.464189 0.873881 -0.845196 0.515079 -0.142608
0.216451 0.747178 0.465487 0.200026 -0.928503 0.312844
0.376426 0.079175 0.733233 -0.450587 0.766825 -0.457111
0.293788 0.233951 0.806814 0.005982 0.976862 0.213786
0.413381 0.253628 0.347537 -0.426007 0.490183 0.760420
0.100924 0.578414 0.396641 0.840462 -0.189671 0.507590
0.140416 0.449926 0.834925 0.390651 0.414219 -0.822079
0.519640 0.554116 0.697216 -0.937363 -0.213184 -0.275504
0.390135 0.197364 0.876363 -0.642866 0.113913 -0.757461
0.095026 0.690909 0.598169 0.810069 -0.566078 -0.152788
0.278920 0.508924 0.109234 -0.231276 0.778497 -0.583485
0.355452 0.229809 0.830796 -0.190226 0.974514 0.118896
0.364280 0.124348 0.429012 -0.276761 0.266166 0.923341
0.296283 0.135562 0.918357 -0.015792 0.267281 -0.963489
0.258362 0.182750 0.140164 -0.480256 -0.820996 -0.308740
0.202013 0.361643 0.866889 0.545282 -0.068155 -0.835477
0.090718 0.686464 0.598654 0.823160 -0.547055 -0.152112
0.122256 0.302025 0.382444 0.740402 0.315003 0.593783
0.405732 0.532481 0.874663 -0.432415 -0.009161 -0.901628
0.368845 0.297881 0.240035 0.609619 -0.108173 0.785279
0.306454 0.597331 0.874094 -0.045775 -0.528166 -0.847907
0.179982 0.650070 0.798772 0.494145 -0.613525 -0.615961
0.543149 0.458827 0.563888 -0.482514 0.866838 -0.125584
0.454824 0.139792 0.503396 -0.903189 0.191435 0.384190
0.196128 0.738015 0.709221 0.415413 -0.795309 -0.441494
0.493734 0.557937 0.402535 -0.862498 -0.105568 0.494927
0.389697 0.155016 0.853360 -0.717224 0.420916 -0.555355
0.366036 0.095039 0.796814 -0.427744 0.862209 -0.271349
0.281304 0.366419 0.275166 -0.090536 -0.147433 -0.984920
0.450359 0.188743 0.457226 -0.696320 0.490460 0.524010
0.167248 0.710226 0.412851 0.348271 -0.826413 0.442435
0.086750 0.343319 0.746594 0.917225 0.070436 -0.392093
0.113949 0.217506 0.764217 0.897670 0.319573 -0.303416
0.314059 0.148838 0.912139 -0.247377 0.248675 -0.936464
0.056954 0.596923 0.535955 0.967979 -0.219287 0.122184
0.469894 0.245184 0.409676 -0.749519 0.455422 0.480429
0.525815 0.344089 0.545150 -0.466480 -0.434525 -0.770444
0.159142 0.569294 0.316172 0.478958 -0.235220 0.845737
0.295232 0.217943 0.822366 0.113649 -0.414475 0.902936
0.270970 0.247919 0.890311 0.131439 -0.900321 -0.414906
0.145200 0.150839 0.757250 0.829468 0.491073 -0.266137
0.324607 0.431362 0.892139 -0.765456 -0.093676 -0.636633
0.274830 0.109830 0.418837 0.077665 0.261263 0.962138
0.350090 0.370614 0.246976 0.476531 0.159212 0.864621
0.254199 0.439945 0.257243 -0.519944 -0.095237 0.848875
0.076859 0.427274 0.437952 0.938417 0.041692 0.342981
0.374381 0.546990 0.308439 0.362857 0.274966 -0.890353
0.295865 0.194038 0.930067 -0.006015 0.445778 -0.895123
0.366626 0.142882 0.876833 -0.676695 0.383616 -0.628429
0.117760 0.721377 0.567235 0.719951 -0.689683 -0.077504
0.206049 0.575184 0.332559 -0.598408 0.451372 -0.661945
0.522398 0.512997 0.456636 -0.940358 -0.062697 0.334358
0.302543 0.197199 0.093435 0.067280 -0.776716 -0.626247
0.485464 0.288915 0.418476 -0.849278 0.334152 0.408741
0.365027 0.373949 0.238097 0.627946 0.147700 0.764113
0.307194 0.230067 0.909083 0.057165 0.163932 -0.984814
0.188605 0.336807 0.310721 0.388288 0.290399 0.874586
0.216660 0.412503 0.219163 -0.789214 0.172935 0.589266
0.430129 0.607257 0.328338 -0.425489 -0.441345 0.790047
0.539105 0.398289 0.609600 0.710388 -0.703434 -0.023030
0.106826 0.670675 0.438768 0.768258 -0.549349 0.328627
0.322863 0.392493 0.255518 0.275754 -0.059837 0.959364
0.410177 0.156378 0.825879 -0.735203 0.455980 -0.501556
0.120079 0.163179 0.628768 0.940334 0.331338 -0.077377
0.450398 0.104880 0.646972 -0.920727 0.327307 -0.212441
0.343902 0.552973 0.303827 0.160132 0.280625 -0.946365
0.216153 0.678338 0.800862 0.357075 -0.673554 -0.647165
0.489756 0.417767 0.389250 -0.849243 0.074846 0.522670
0.482125 0.211650 0.647240 -0.950040 0.309150 -0.043012
0.431030 0.460349 0.860758 -0.036959 -0.176510 -0.983605
0.276684 0.763593 0.629905 0.045279 -0.998945 -0.007711
0.198008 0.288714 0.206788 -0.859804 -0.135898 0.492207
0.224756 0.232938 0.851015 0.848044 0.010008 -0.529832
0.127687 0.705761 0.640559 0.742316 -0.614528 -0.267062
0.501633 0.645334 0.458608 -0.848402 -0.413460 0.330551
0.056884 0.406803 0.506402 0.986197 0.094805 0.135746
0.465354 0.440426 0.813676 -0.766070 0.025838 -0.642238
0.330682 0.608961 0.864552 -0.145023 -0.596583 -0.789340
0.415235 0.465630 0.314504 0.684636 0.098207 -0.722239
0.191690 0.718756 0.422414 0.284824 -0.853093 0.437159
0.293106 0.200349 0.817787 -0.141088 0.571633 0.808288
0.328364 0.243236 0.057195 0.289928 -0.475645 -0.830484
0.268272 0.470331 0.275239 0.093728 -0.052899 0.994192
0.345894 0.724607 0.421007 -0.112690 -0.867345 0.484781
0.049123 0.482506 0.575784 0.999284 0.011440 0.036059
0.397764 0.503709 0.808926 0.232444 -0.845713 -0.480354
0.049832 0.574982 0.574632 0.985717 -0.167407 0.018380
0.415553 0.315231 0.323333 -0.438573 0.339088 0.832270
0.329829 0.683367 0.803032 -0.150944 -0.758339 -0.634144
0.329530 0.426954 0.264619 0.832451 -0.546409 0.091989
0.155511 0.144323 0.767759 0.794540 0.513093 -0.324717
0.086596 0.616413 0.703036 0.848838 -0.397632 -0.348371
0.078222 0.436705 0.434494 0.933904 0.027857 0.356436
0.393771 0.171840 0.863455 -0.716654 0.331101 -0.613823
0.201584 0.389673 0.201118 -0.875945 0.182043 0.446745
0.203175 0.414066 0.192108 -0.904950 0.234781 0.354886
0.490916 0.527156 0.797509 -0.848855 -0.134916 -0.511119
0.055059 0.495004 0.673135 0.980422 -0.073464 -0.182692
0.374578 0.486244 0.294034 0.325289 0.172568 -0.929735
0.179734 0.633092 0.332839 0.385107 -0.511374 0.768238
0.539858 0.446381 0.563587 -0.995404 0.071616 0.063578
0.120419 0.710720 0.610933 0.740254 -0.643834 -0.193654
0.239670 0.445619 0.275078 0.556709 0.033423 -0.830035
0.378895 0.461294 0.180952 0.915141 0.369401 0.161433
0.389690 0.329879 0.072846 0.796489 -0.025619 -0.604110
0.168347 0.470347 0.847936 0.319604 -0.430384 -0.844170
0.216805 0.262828 0.883700 0.647329 0.014567 -0.762071
0.029654 0.441308 0.547133 0.783366 0.537413 -0.312290
0.170160 0.756536 0.538423 0.410488 -0.911243 0.033705
0.378561 0.252188 0.823430 -0.970143 0.041285 -0.238995
0.093240 0.587340 0.754942 0.831616 -0.363393 -0.419954
0.433103 0.633448 0.339345 -0.389216 -0.568490 0.724797
0.222138 0.445077 0.096183 -0.762815 0.413446 -0.497168
0.183421 0.310559 0.116962 -0.966382 -0.063191 -0.249223
0.342505 0.462792 0.259032 0.926533 0.103521 0.361692
0.174683 0.452857 0.318071 -0.695293 0.059935 -0.716223
0.250927 0.186711 0.143327 -0.567108 -0.783661 -0.253504
0.389339 0.233016 0.146797 0.839337 -0.543189 -0.021398
0.449418 0.319877 0.824193 -0.732710 0.038415 -0.679456
0.266788 0.317513 0.287623 -0.224783 -0.287575 -0.931007
0.331888 0.489960 0.259018 0.735148 0.612861 0.289755
0.266732 0.084588 0.834303 0.133004 0.979522 -0.151148
0.337636 0.743327 0.451828 -0.092696 -0.914488 0.393852
0.510435 0.295109 0.590838 -0.972307 0.232019 -0.028049
0.118608 0.178136 0.676508 0.931117 0.355703 -0.080608
0.505238 0.398072 0.422156 -0.909908 0.103232 0.401759
0.517100 0.521993 0.725063 -0.941410 -0.162635 -0.295461
0.349213 0.227889 0.877182 -0.815235 0.037066 -0.577944
0.058714 0.485670 0.690061 0.976798 -0.062062 -0.204975
0.464785 0.278609 0.805097 -0.818253 0.068864 -0.570719
0.276933 0.238977 0.777721 0.035388 0.984919 0.169357
0.290122 0.593935 0.288188 0.019077 -0.294208 0.955551
0.447190 0.225206 0.383663 -0.555532 0.541145 0.631305
0.514881 0.333361 0.591183 -0.982796 0.182672 -0.027254
0.244157 0.078317 0.752882 0.277668 0.875024 -0.396526
0.389100 0.411996 0.860893 -0.192513 -0.335858 -0.922029
0.391301 0.496195 0.822624 0.295618 -0.774089 -0.559817
0.247851 0.463832 0.278480 -0.635487 0.140141 -0.759287
0.506457 0.270739 0.617178 -0.961321 0.273792 -0.030013
0.104039 0.590910 0.774140 0.787541 -0.409929 -0.460149
0.519552 0.564678 0.455801 -0.929216 -0.148274 0.338486
0.451350 0.675920 0.381237 -0.470236 -0.692256 0.547411
0.196805 0.251044 0.128393 -0.885105 -0.412793 -0.214921
0.472563 0.247457 0.413645 -0.769989 0.443221 0.458990
0.264484 0.377655 0.277069 0.102641 0.122762 0.987114
0.370593 0.479884 0.826242 0.655874 -0.500884 -0.564751
0.366233 0.760136 0.617583 -0.189514 -0.978211 -0.084786
0.266424 0.512791 0.277259 0.115527 -0.207500 -0.971389
0.340748 0.455300 0.074919 0.456803 0.460972 -0.760813
0.222243 0.689726 0.363445 0.213872 -0.736215 0.642064
0.197000 0.604598 0.845725 0.427232 -0.548761 -0.718564
0.115372 0.521741 0.367281 0.758476 -0.132041 0.638184
0.117243 0.540671 0.366017 0.745526 -0.162400 0.646388
0.342871 0.369049 0.279476 0.228438 -0.128040 -0.965102
0.472922 0.533666 0.364651 -0.742161 -0.110526 0.661046
0.342207 0.747782 0.704127 -0.149774 -0.940972 -0.303545
0.480545 0.188349 0.542234 -0.944723 0.307193 0.114592
0.349368 0.620630 0.341497 0.347004 0.660743 -0.665588
0.529104 0.396560 0.602895 -0.989232 0.143582 -0.028347
0.274126 0.763042 0.598804 0.051988 -0.996904 0.058990
0.187657 0.102973 0.750351 0.564856 0.750738 -0.342534
0.265593 0.402663 0.276596 0.184108 0.103166 -0.977477
0.050348 0.510576 0.545478 0.993228 -0.043417 0.107765
0.345999 0.294548 0.896735 -0.687200 0.062441 -0.723780
0.414221 0.668418 0.778828 -0.495346 -0.630756 -0.597310
0.062152 0.394700 0.526973 0.986600 0.127576 0.101705
0.366432 0.459976 0.219095 0.869569 0.260710 0.419380
0.342090 0.432406 0.061013 0.447823 0.375334 -0.811529
0.098041 0.408117 0.773873 0.858758 0.101265 -0.502275
0.305753 0.758355 0.470885 -0.019433 -0.933851 0.357134
0.330286 0.332582 0.261206 0.314109 0.089150 0.945192
0.071830 0.653779 0.620036 0.882191 -0.432759 -0.185631
0.415580 0.464532 0.860006 -0.088513 0.602481 -0.793210
0.385643 0.400152 0.208811 0.859967 0.185311 0.475518
0.435270 0.696542 0.399287 -0.359805 -0.795536 0.487507
0.134476 0.219545 0.416363 0.656701 0.535626 0.530895
0.090255 0.290124 0.470377 0.917227 0.272934 0.290175
0.413157 0.296503 0.140408 0.987290 -0.152985 -0.043070
0.480042 0.702889 0.627051 -0.763215 -0.603632 -0.230499
0.087247 0.546908 0.420468 0.890066 -0.137073 0.434733
0.419533 0.756903 0.554272 -0.374950 -0.926586 0.029160
0.067764 0.349998 0.592590 0.748921 -0.642409 -0.162565
0.545717 0.385001 0.531865 0.963225 -0.111786 0.244339
0.536902 0.481341 0.672666 -0.984429 -0.037332 -0.171771
0.148994 0.221347 0.828845 0.797006 0.236846 -0.555595
0.060993 0.416580 0.527223 -0.593695 -0.313346 0.741175
0.049031 0.559014 0.550329 0.988276 -0.121327 0.092680
0.184345 0.673052 0.347051 0.319827 -0.681114 0.658631
0.056803 0.396197 0.484910 0.980158 0.095738 0.173567
0.042848 0.414451 0.612337 0.899135 0.267793 -0.346183
0.239597 0.242597 0.756759 0.120270 0.978777 0.165924
0.353497 0.207480 0.709281 0.903255 0.053635 0.425739
0.330654 0.582598 0.292198 -0.121347 -0.270006 0.955182
0.450230 0.122995 0.494644 -0.881444 0.162344 0.443511
0.397289 0.322302 0.863736 -0.594097 -0.107141 -0.797226
0.085384 0.648163 0.651585 0.861242 -0.437993 -0.257730
0.443973 0.184890 0.799255 -0.789009 0.394833 -0.470714
0.084073 0.627636 0.677974 0.868099 -0.391600 -0.305048
0.348467 0.438496 0.277796 0.466543 -0.006608 -0.884474
0.284673 0.167001 0.154852 -0.198368 -0.928816 -0.312971
0.097012 0.234686 0.660714 0.957722 0.282954 -0.052006
0.516616 0.324207 0.640478 -0.978335 0.202709 -0.042056
0.093695 0.509469 0.788267 0.871065 -0.074872 -0.485427
0.358023 0.384745 0.286082 -0.215915 0.101518 0.971120
0.174784 0.548710 0.866524 0.500785 -0.241278 -0.831264
0.275676 0.467859 0.897161 0.394706 -0.127179 -0.909963
0.082090 0.571816 0.730857 0.885254 -0.295438 -0.359225
0.415597 0.204631 0.390241 -0.426352 0.614407 0.663874
0.262914 0.223886 0.865091 0.153940 0.984493 0.084119
0.361583 0.464406 0.224523 0.864054 0.264527 0.428295
0.072127 0.311373 0.560902 0.982714 0.183120 0.027206
0.450580 0.147373 0.716813 -0.854890 0.471818 -0.215755
0.450799 0.127541 0.494931 -0.881900 0.167935 0.440511
0.087384 0.268650 0.496310 0.925892 0.303229 0.225337
0.488622 0.461007 0.384905 -0.837325 0.009952 0.546615
0.143894 0.166479 0.775228 0.818882 0.449070 -0.357446
0.471444 0.734603 0.546142 -0.653037 -0.756504 0.035272
0.433074 0.408728 0.813659 -0.479299 0.777058 -0.407988
0.183382 0.713571 0.727894 0.466675 -0.746594 -0.474142
0.322975 0.643506 0.312462 -0.092197 -0.519288 0.849611
0.445620 0.089898 0.493020 -0.876275 0.125769 0.465107
0.223347 0.697707 0.774549 0.318950 -0.743272 -0.588063
0.224337 0.271220 0.755411 0.216953 -0.959945 -0.177305
0.336788 0.353185 0.256390 0.359619 0.163196 0.918717
0.161968 0.610926 0.329248 0.455727 -0.411850 0.789109
0.311030 0.336566 0.280287 0.138121 -0.199655 -0.970083
0.227915 0.215551 0.198184 -0.777816 -0.538783 0.323597
0.161236 0.161250 0.450360 0.595913 0.318038 0.737387
0.095704 0.239597 0.684074 0.951777 0.298421 -0.071167
0.049704 0.338261 0.550266 0.958686 0.255782 0.124486
0.320927 0.231274 0.904950 -0.474494 0.167261 -0.864222
0.055284 0.409571 0.491758 0.983842 0.080819 0.159762
0.278465 0.258379 0.309202 0.059999 0.457898 0.886978
0.359887 0.688712 0.788971 -0.285725 -0.729088 -0.621926
0.399476 0.172822 0.419908 -0.381254 0.559610 0.735854
0.428397 0.156795 0.796057 -0.758012 0.472070 -0.450076
0.323087 0.378861 0.276026 -0.095154 0.114786 0.988823
0.292063 0.032585 0.725235 0.018654 0.646868 -0.762374
0.386422 0.268229 0.213766 0.761874 -0.297288 0.575472
0.213060 0.613780 0.316086 0.303015 -0.404203 0.863019
0.108999 0.218841 0.492790 0.883025 0.389334 0.262078
0.457195 0.699387 0.680437 -0.674952 -0.630165 -0.383838
0.489533 0.215250 0.573868 -0.947536 0.319292 0.015084
0.322073 0.269123 0.767553 -0.040940 -0.983579 -0.175772
0.367920 0.238951 0.777867 -0.207681 0.964962 0.160364
0.400373 0.257705 0.341242 -0.382923 0.481603 0.788307
0.088285 0.255562 0.633554 0.963811 0.262886 -0.044268
0.365389 0.228136 0.211605 0.729515 -0.456225 0.509575
0.311283 0.234880 0.915787 -0.454925 0.104699 -0.884354
0.385486 0.268983 0.085275 0.775694 -0.325224 -0.540859
0.492176 0.351084 0.768458 -0.876114 0.060026 -0.478353
0.206979 0.582380 0.865684 0.375711 -0.514935 -0.770509
0.033532 0.435546 0.543049 0.812538 0.447171 -0.373924
0.544313 0.361652 0.552175 0.968254 -0.240421 -0.068425
0.339103 0.525931 0.286681 -0.159915 -0.143971 0.976575
0.080319 0.376318 0.618478 0.586332 0.216174 0.780694
0.088164 0.297786 0.474571 0.923897 0.262020 0.278856
0.210177 0.241351 0.193599 -0.814339 -0.467113 0.344467
0.474554 0.681129 0.675147 -0.747282 -0.560075 -0.357611
0.290169 0.471269 0.268746 0.015986 -0.051430 0.998549
0.197297 0.734438 0.716223 0.412696 -0.787198 -0.458260
0.286161 0.236493 0.792099 0.028975 0.985129 0.169354
0.185319 0.755497 0.598951 0.404464 -0.907318 -0.114819
0.240294 0.310121 0.297594 -0.314821 -0.307652 -0.897907
0.120347 0.164235 0.636035 0.939870 0.332497 -0.078038
0.340784 0.754724 0.694186 -0.144541 -0.954836 -0.259607
0.473023 0.727164 0.533051 -0.674918 -0.733593 0.079550
0.219547 0.397372 0.225054 -0.732015 0.157799 0.662762
0.495078 0.691504 0.503350 -0.806042 -0.563486 0.181052
0.128098 0.173488 0.746176 0.874691 0.430136 -0.223382
0.165097 0.360275 0.854322 0.571482 0.026613 -0.820183
0.112750 0.205032 0.747110 0.905325 0.365792 -0.215833
0.186106 0.378705 0.138334 -0.976794 0.208859 -0.047455
0.367825 0.708713 0.758538 -0.314479 -0.768318 -0.557485
0.171068 0.143425 0.443349 0.503593 0.237976 0.830519
0.229754 0.700221 0.380525 0.193165 -0.776046 0.600366
0.357878 0.147750 0.893778 -0.594889 0.318455 -0.738033
0.286245 0.409666 0.040334 -0.097649 0.303832 -0.947708
0.225364 0.713702 0.406424 0.204963 -0.828410 0.521274
0.067313 0.476515 0.722392 0.963594 -0.054349 -0.261787
0.093683 0.690514 0.511547 0.834950 -0.538589 0.113047
0.157529 0.753529 0.557531 0.513675 -0.856963 -0.041870
0.147689 0.659456 0.356395 0.453917 -0.633928 0.626175
0.055980 0.595938 0.605284 0.955636 -0.275197 -0.105008
0.372160 0.450484 0.214014 0.869490 0.239289 0.432121
0.560221 0.449026 0.568512 0.879063 -0.466038 0.100286
0.237424 0.264339 0.795248 0.119167 -0.976233 -0.181017
0.186249 0.447332 0.854111 0.233942 -0.114432 0.965493
0.199349 0.245908 0.127771 -0.866221 -0.446725 -0.223824
0.127456 0.654457 0.389447 0.639033 -0.568769 0.517821
0.319022 0.676618 0.815027 -0.103573 -0.752262 -0.650672
0.160399 0.745171 0.617093 0.552318 -0.804838 -0.217209
0.082071 0.545083 0.746169 0.898866 -0.245204 -0.363199
0.159933 0.686213 0.737484 0.551126 -0.686867 -0.473787
0.338777 0.273417 0.742694 -0.121609 -0.976804 -0.176252
0.492098 0.252130 0.751821 -0.930809 0.202821 -0.304068
0.292218 0.303856 0.285521 0.010234 0.333206 0.942799
0.332385 0.528298 0.174291 0.501815 0.864579 -0.026151
0.432109 0.116908 0.720581 -0.741656 0.590036 -0.319066
0.096498 0.616310 0.424101 0.847436 -0.328154 0.417334
0.187836 0.319831 0.860601 0.591531 -0.102415 -0.799752
0.049151 0.479103 0.577656 0.999389 0.015886 0.031142
0.500007 0.650878 0.660929 -0.854418 -0.434794 -0.284470
0.148844 0.726471 0.482638 0.533384 -0.821137 0.203064
0.214208 0.244256 0.815772 0.984427 0.029931 -0.173228
0.061801 0.406906 0.471590 0.973190 0.077757 0.216458
0.075581 0.344474 0.458156 0.938383 0.178315 0.296043
0.065790 0.621249 0.505405 0.934498 -0.297415 0.195595
0.347822 0.324485 0.038774 0.440738 -0.065579 -0.895237
0.285825 0.177903 0.918780 0.077644 0.364312 -0.928035
0.075958 0.489246 0.749922 0.936821 -0.069908 -0.342753
0.113523 0.550367 0.814887 0.774634 -0.254700 -0.578853
0.076922 0.558281 0.718083 0.912827 -0.252275 -0.321100
0.239661 0.441562 0.241836 -0.744622 0.063448 0.664464
0.257104 0.222531 0.764143 -0.742605 -0.507449 0.437073
0.372160 0.271641 0.748983 -0.308450 -0.934850 -0.175825
0.184036 0.328030 0.859261 0.582560 -0.076755 -0.809155
0.189584 0.443453 0.298248 0.369167 -0.006012 0.929344
0.457027 0.331354 0.816182 -0.764442 0.051141 -0.642661
