0.244786 0.094834 0.542756 -0.349512 -0.925257 -0.147447
0.605849 0.145039 0.492635 0.899487 -0.415428 0.135435
0.128606 0.860458 0.399216 -0.602228 0.774810 -0.192329
0.237230 0.927308 0.560420 -0.312761 0.947772 0.062522
0.380455 0.027151 0.706487 -0.023031 -0.999733 0.001632
0.070755 0.805066 0.548937 -0.885887 0.418049 0.201095
0.397404 0.054624 0.527740 0.016292 -0.979813 -0.199250
0.529810 0.863732 0.232404 0.318218 0.824758 -0.467452
0.301120 0.243604 0.797837 -0.802882 -0.295744 0.517606
0.590742 0.469376 0.741112 0.758527 -0.314073 0.570960
0.655517 0.752540 0.206749 0.609318 0.517157 -0.601066
0.313121 0.603810 0.863147 -0.261808 0.155617 0.952491
0.356922 0.180721 0.768784 0.000000 -0.015805 0.999875
0.080158 0.832815 0.410401 -0.809850 0.575873 -0.111862
0.051247 0.423452 0.254328 -0.948993 -0.142452 -0.281282
0.656587 0.389539 0.466282 0.945262 -0.325886 0.016664
0.258242 0.923337 0.664062 -0.253428 0.945053 0.206516
0.481746 0.320659 0.103958 0.215626 -0.321526 -0.922023
0.451901 0.913569 0.736236 0.131379 0.932143 0.337416
0.459369 0.738031 0.829432 0.309400 0.044458 0.949892
0.157265 0.896705 0.585264 -0.524289 0.844625 0.108301
0.232371 0.091956 0.570770 -0.369335 -0.919607 -0.133847
0.650933 0.870342 0.458090 0.629374 0.772816 -0.081510
0.107569 0.851862 0.606633 -0.753051 0.591920 0.287307
0.670583 0.419600 0.399823 0.978887 -0.130431 0.157379
0.532001 0.088367 0.489739 0.352706 -0.926001 -0.134609
0.172192 0.225052 0.648228 -0.923187 -0.288438 0.254026
0.142194 0.610809 0.120103 -0.542426 0.143929 -0.827683
0.051257 0.723473 0.295046 -0.928234 0.289986 -0.233000
0.281289 0.088390 0.784489 -0.673986 -0.450769 0.585277
0.685706 0.368986 0.413054 -0.116764 -0.540243 -0.833369
0.521084 0.821479 0.798037 0.434699 0.298725 0.849588
0.629112 0.715420 0.679667 0.801858 0.015094 0.597324
0.487519 0.927398 0.331920 0.238792 0.940020 -0.243598
0.664739 0.866565 0.479887 0.660896 0.749076 -0.045844
0.272649 0.309186 0.770815 0.000000 -0.015805 0.999875
0.593633 0.194667 0.648649 0.917530 -0.292205 0.269731
0.064258 0.627935 0.215387 -0.881961 0.129883 -0.453073
0.120142 0.343253 0.500105 -0.887698 -0.247346 0.388346
0.223139 0.292424 0.791392 -0.702720 -0.097792 0.704713
0.084146 0.409117 0.360063 -0.994913 -0.094754 0.034213
0.193917 0.132795 0.404854 -0.462557 -0.881798 -0.092051
0.570590 0.632767 0.775629 0.749992 0.176546 0.637450
0.260933 0.924493 0.350853 -0.292322 0.931048 -0.218398
0.594149 0.873974 0.322733 0.465168 0.828293 -0.312329
0.260698 0.264361 0.135572 -0.319114 -0.392110 -0.862796
0.048939 0.688131 0.551886 -0.955706 0.008902 0.294190
0.341732 0.910974 0.757755 -0.088435 0.922600 0.375485
0.124293 0.388545 0.597654 -0.950928 -0.130074 0.280744
0.489812 0.226751 0.814636 0.572181 -0.132373 0.809374
0.143415 0.433737 0.119131 -0.495176 -0.153356 -0.855151
0.263383 0.070428 0.587585 -0.336830 -0.929269 -0.151670
0.505524 0.726000 0.802815 0.489364 0.076767 0.868694
0.625046 0.793882 0.217354 0.528590 0.637179 -0.560888
0.195515 0.291699 0.150460 -0.438020 -0.358229 -0.824506
0.683626 0.571750 0.184589 0.793136 0.098696 -0.600994
0.462389 0.553456 0.054485 0.155522 -0.028471 -0.987422
0.491343 0.941243 0.548512 0.221362 0.973606 0.055584
0.730187 0.691179 0.438026 0.995001 0.062698 0.077725
0.633925 0.889920 0.550942 0.582271 0.810142 0.068053
0.501540 0.513659 0.753959 -0.158590 0.927523 0.338453
0.064205 0.820913 0.479721 -0.895526 0.439586 0.069258
0.153515 0.635245 0.664008 -0.819709 -0.081705 0.566922
0.146887 0.631786 0.120955 -0.540423 0.178708 -0.822196
0.436771 0.671866 0.843555 0.223115 0.193756 0.955342
0.490126 0.916637 0.704440 0.207331 0.938510 0.276066
0.237765 0.304901 0.799400 -0.645121 -0.062713 0.761503
0.228487 0.118642 0.411471 -0.326728 -0.930454 -0.165842
0.239348 0.837248 0.791946 -0.452976 0.335559 0.825962
0.045775 0.792054 0.438258 -0.966450 0.250546 0.056573
0.465174 0.047074 0.777100 0.511455 -0.792571 0.332032
0.691063 0.494117 0.428260 -0.726549 0.642106 -0.244595
0.646734 0.467678 0.610983 0.941911 -0.013912 0.335573
0.682498 0.771192 0.263761 0.735203 0.547488 -0.399667
0.149186 0.894682 0.481146 -0.569334 0.821750 -0.024221
0.314576 0.940505 0.377642 -0.169944 0.969702 -0.175490
0.653551 0.809241 0.248114 0.569210 0.668830 -0.478191
0.356142 0.912410 0.758639 -0.059678 0.922444 0.381492
0.344770 0.094095 0.406795 -0.164308 -0.959200 -0.230085
0.616806 0.868482 0.359411 0.529825 0.808666 -0.255626
0.466491 0.472905 0.766474 -0.855156 0.194692 0.480419
0.129603 0.483492 0.623423 -0.931190 -0.031836 0.363140
0.441238 0.352774 0.847588 0.867276 0.206195 0.453118
0.522497 0.129759 0.279289 0.203534 -0.948154 -0.244087
0.547459 0.437946 0.775116 0.616291 -0.089109 0.782461
0.228926 0.638478 0.801044 -0.665824 0.198913 0.719105
0.446333 0.912928 0.741699 0.120176 0.930030 0.347277
0.474466 0.890580 0.778654 0.263755 0.780608 0.566642
0.124388 0.868584 0.443011 -0.620700 0.776386 -0.109341
0.108376 0.681623 0.644245 -0.866849 -0.015728 0.498322
0.727114 0.759990 0.447748 0.978675 0.188355 0.081965
0.589924 0.142053 0.592537 0.909109 -0.376130 0.179019
0.209475 0.513827 0.810582 -0.693188 -0.229478 0.683250
0.501903 0.937278 0.586987 0.235313 0.966471 0.102772
0.606726 0.901431 0.478594 0.527207 0.849208 -0.029971
0.598672 0.338552 0.716890 0.904984 -0.119627 0.408282
0.510836 0.724724 0.796319 0.516054 0.065651 0.854036
0.057023 0.442342 0.296370 -0.984104 -0.088702 -0.153854
0.539283 0.103305 0.424711 0.335022 -0.928464 -0.160356
0.242482 0.190065 0.784716 -0.755793 -0.264989 0.598797
0.733138 0.745977 0.342734 0.967628 0.228198 -0.107807
0.044424 0.755538 0.437688 -0.980879 0.183964 0.063505
0.232075 0.133175 0.737602 -0.778063 -0.459073 0.428801
0.445703 0.261234 0.111688 0.179485 -0.390176 -0.903077
0.499237 0.391008 0.772108 0.000000 -0.015805 0.999875
0.708148 0.572986 0.513854 0.960447 -0.141166 0.240028
0.363557 0.377491 0.062760 -0.045244 -0.239187 -0.969919
0.431628 0.724003 0.828751 0.191912 -0.004252 0.981403
0.245402 0.489357 0.649933 0.000000 -0.028016 0.999608
0.705690 0.402160 0.398122 0.880949 0.021211 0.472735
0.267148 0.933603 0.624452 -0.235714 0.959938 0.151519
0.456698 0.130798 0.252988 0.067382 -0.960993 -0.268239
0.092513 0.821977 0.603447 -0.822399 0.477637 0.309066
0.464374 0.136590 0.233169 0.077883 -0.959014 -0.272447
0.293901 0.445747 0.070979 -0.188830 -0.153469 -0.969944
0.172591 0.902907 0.564413 -0.488676 0.868910 0.078690
0.101884 0.442427 0.531433 -0.956323 -0.147214 0.252538
0.588859 0.133067 0.327979 0.405919 -0.899986 -0.158919
0.694296 0.689056 0.625133 0.901477 0.012880 0.432635
0.495799 0.366574 0.817977 0.374924 0.135247 0.917137
0.071693 0.471185 0.388171 0.045392 0.326116 -0.944239
0.466501 0.071313 0.503708 0.178675 -0.967592 -0.178439
0.737046 0.677669 0.366316 0.995781 0.081234 -0.042684
0.587336 0.896451 0.392546 0.470151 0.864654 -0.177006
0.411708 0.049427 0.552700 0.050738 -0.980661 -0.189023
0.042291 0.588651 0.377569 -0.998249 -0.059120 0.001763
0.569110 0.629740 0.777959 0.746007 0.174623 0.642635
0.301163 0.428343 0.071340 -0.173662 -0.174810 -0.969166
0.255558 0.719109 0.791562 -0.544762 0.066544 0.835947
0.336614 0.931963 0.665384 -0.099633 0.965671 0.239900
0.377073 0.462218 0.049571 -0.018237 -0.143643 -0.989461
0.440003 0.403718 0.830685 0.816464 0.133673 0.561710
0.285888 0.816119 0.814673 -0.334928 0.278233 0.900228
0.150106 0.895187 0.498244 -0.564086 0.825715 -0.001619
0.372165 0.045634 0.570773 -0.038739 -0.981561 -0.187182
0.118634 0.826121 0.288468 -0.580742 0.708529 -0.400905
0.692045 0.833621 0.540643 0.817913 0.558986 0.136204
0.583268 0.893867 0.684527 0.514074 0.758465 0.400573
0.235001 0.129720 0.335740 -0.297676 -0.936377 -0.185973
0.338356 0.167764 0.768580 0.000000 -0.015805 0.999875
0.404121 0.412141 0.900226 0.539850 0.314352 0.780862
0.413416 0.643818 0.035164 0.058920 0.076336 -0.995340
0.483123 0.525594 0.062633 0.198522 -0.058424 -0.978354
0.048196 0.660485 0.244815 -0.930352 0.161352 -0.329257
0.342171 0.956984 0.444759 -0.103776 0.991935 -0.072772
0.119413 0.665975 0.138649 -0.607278 0.246997 -0.755120
0.532389 0.927081 0.379466 0.338268 0.925156 -0.172221
0.351946 0.265822 0.871908 -0.617053 -0.143430 0.773740
0.569409 0.712700 0.728553 0.738314 -0.023584 0.674044
0.238053 0.137243 0.284762 -0.279173 -0.939477 -0.198610
0.215979 0.239383 0.759390 -0.781779 -0.171549 0.599494
0.321319 0.361871 0.827068 -0.468179 0.260441 0.844381
0.658389 0.378834 0.456655 0.922835 -0.306206 -0.233697
0.509519 0.851530 0.801559 0.370233 0.374201 0.850236
0.270299 0.211957 0.808580 -0.626335 -0.185427 0.757180
0.644083 0.289425 0.176814 0.565825 -0.351342 -0.745923
0.317150 0.437301 0.648474 0.000000 -0.028016 0.999608
0.511469 0.281355 0.129396 0.307875 -0.372025 -0.875677
0.575936 0.249315 0.730399 0.845548 -0.191450 0.498394
0.673901 0.792917 0.267995 0.685182 0.602638 -0.409088
0.614376 0.133691 0.389844 0.631512 -0.774062 -0.044949
0.057434 0.569903 0.496670 -0.965627 -0.146782 0.214521
0.267089 0.668545 0.827360 -0.520253 0.186512 0.833397
0.627349 0.275554 0.583012 0.951432 -0.195931 0.237462
0.453957 0.852433 0.170077 0.151705 0.782590 -0.603770
0.551761 0.663782 0.095208 0.394889 0.203504 -0.895907
0.633277 0.261449 0.541303 0.957398 -0.205158 0.203222
0.530407 0.627158 0.817098 0.623329 0.192705 0.757842
0.448982 0.915609 0.728923 0.125706 0.936258 0.328054
0.040963 0.702105 0.418387 -0.994747 0.094117 0.040251
0.360023 0.337087 0.927018 -0.698710 0.210263 0.683809
0.570427 0.237393 0.736410 0.828848 -0.195773 0.524102
0.581953 0.310592 0.145611 0.437527 -0.335673 -0.834202
0.608918 0.559266 0.729319 0.906536 0.024032 0.421444
0.377431 0.048997 0.848319 -0.121721 -0.716966 0.686399
0.285249 0.497530 0.770484 0.526253 0.699591 0.483353
0.168007 0.565535 0.103447 -0.470185 0.048954 -0.881209
0.599139 0.207189 0.632910 0.927754 -0.283861 0.242271
0.530206 0.727476 0.776311 0.595049 0.049334 0.802174
0.570335 0.108284 0.579668 0.806198 -0.581585 0.108643
0.502704 0.938774 0.483365 0.260170 0.965084 -0.030401
0.074280 0.466009 0.386624 0.104561 0.281376 -0.953884
0.444106 0.075389 0.463182 0.093401 -0.973539 -0.208564
0.555695 0.541267 0.080187 0.348708 -0.022983 -0.936950
0.703795 0.763729 0.613315 0.901102 0.208314 0.380290
0.172647 0.268555 0.697068 -0.908255 -0.198543 0.368312
0.309872 0.054172 0.591362 -0.227556 -0.958879 -0.169618
0.558168 0.918882 0.566749 0.371269 0.925688 0.072531
0.243970 0.778304 0.795796 -0.496232 0.205367 0.843551
0.693950 0.805584 0.583980 0.860261 0.436149 0.264056
0.546307 0.590317 0.811814 0.678938 0.150364 0.718633
0.229933 0.396297 0.789107 -0.526546 0.145837 0.837544
0.475294 0.931905 0.345552 0.210897 0.951573 -0.223677
0.492896 0.747213 0.094064 0.255740 0.476773 -0.841002
0.697895 0.402508 0.396735 0.565303 0.178582 0.805320
0.201322 0.885711 0.325038 -0.418272 0.857884 -0.298470
0.331349 0.422436 0.826142 -0.768941 0.111137 0.629585
0.540977 0.627735 0.806446 0.659034 0.188142 0.728201
0.635060 0.847652 0.324858 0.557886 0.762069 -0.328654
0.617449 0.270839 0.620263 0.941122 -0.203144 0.270227
0.377749 0.183375 0.145011 -0.031669 -0.560886 -0.827287
0.349668 0.841324 0.136487 -0.080733 0.735064 -0.673174
0.101372 0.665423 0.635450 -0.881762 -0.021154 0.471220
0.145057 0.428991 0.120215 -0.493626 -0.160283 -0.854776
0.340394 0.596330 0.867749 -0.118065 0.139607 0.983143
0.685598 0.445876 0.456734 0.459793 -0.738906 0.492553
0.132452 0.535028 0.624946 -0.882884 -0.131643 0.450762
0.489411 0.732996 0.088793 0.249255 0.426771 -0.869332
0.571907 0.915469 0.434876 0.439427 0.893503 -0.092497
0.662512 0.488491 0.558554 0.932125 -0.091803 0.350306
0.228848 0.536618 0.075445 -0.319743 -0.036180 -0.946813
0.419955 0.594875 0.868077 0.082302 0.129887 0.988107
0.187904 0.846106 0.247609 -0.434416 0.776917 -0.455722
0.352436 0.322384 0.645253 0.000000 -0.028016 0.999608
0.414366 0.122938 0.846545 0.210487 0.006565 0.977575
0.393740 0.234087 0.769628 0.000000 -0.015805 0.999875
0.586030 0.894066 0.676777 0.516856 0.768745 0.376685
0.592627 0.245507 0.173107 0.492857 -0.407356 -0.768865
0.408840 0.279797 0.094929 0.070726 -0.376091 -0.923879
0.713189 0.645855 0.561437 0.946952 -0.049284 0.317573
0.217613 0.415945 0.777778 -0.566133 0.181821 0.804012
0.740132 0.681744 0.292206 0.973530 0.144321 -0.177231
0.420375 0.035416 0.780848 0.235014 -0.953014 0.191135
0.101142 0.243236 0.258450 -0.792986 -0.498289 -0.350544
0.727302 0.789409 0.427220 0.967668 0.249639 0.036034
0.678933 0.328584 0.183870 0.642730 -0.298011 -0.705753
0.664292 0.354792 0.454866 -0.495854 -0.471291 -0.729393
0.179881 0.706446 0.128087 -0.486009 0.369977 -0.791778
0.119125 0.320875 0.483145 -0.990493 -0.103900 0.090157
0.087930 0.363324 0.461224 -0.755585 0.304820 0.579807
0.084483 0.306160 0.241481 -0.861752 -0.343282 -0.373551
0.329599 0.349832 0.850809 -0.863321 0.206520 0.460464
0.556350 0.573742 0.806569 0.711398 0.129541 0.690747
0.402718 0.111845 0.856206 0.121642 0.005824 0.992557
0.181744 0.180370 0.649594 -0.904571 -0.329139 0.270959
0.169459 0.412602 0.116849 -0.450766 -0.185536 -0.873147
0.278468 0.742389 0.093137 -0.258702 0.461033 -0.848836
0.266010 0.415487 0.647863 0.000000 -0.028016 0.999608
0.449791 0.915640 0.264051 0.146425 0.922515 -0.357108
0.283322 0.638820 0.065651 -0.236929 0.115024 -0.964694
0.565568 0.649875 0.098686 0.421171 0.180802 -0.888777
0.424021 0.044965 0.586005 0.104576 -0.980245 -0.167880
0.415094 0.628938 0.034487 0.057844 0.052351 -0.996952
0.544656 0.626976 0.087024 0.364157 0.126908 -0.922651
0.542860 0.268336 0.145998 0.382407 -0.387157 -0.838972
0.070989 0.511564 0.446158 -0.968773 -0.216823 0.120277
0.243623 0.149993 0.765201 -0.753892 -0.358014 0.550883
0.154131 0.508949 0.706114 -0.905021 -0.102571 0.412814
0.089552 0.468616 0.384945 -0.989590 -0.134858 0.050247
0.396305 0.511327 0.871758 0.038449 -0.093960 0.994833
0.606079 0.868767 0.331872 0.495439 0.814611 -0.301577
0.164794 0.168502 0.547313 -0.913062 -0.371828 0.167515
0.340334 0.409845 0.842852 -0.839869 0.088307 0.535558
0.656868 0.393382 0.466174 0.918115 -0.395468 0.025861
0.185351 0.228817 0.181561 -0.503262 -0.444364 -0.741126
0.612210 0.144981 0.304525 0.484483 -0.861401 -0.152525
0.664792 0.586758 0.619188 0.900090 -0.079058 0.428472
0.105824 0.553624 0.588883 -0.916111 -0.125951 0.380626
0.107928 0.863760 0.590961 -0.723192 0.652978 0.224974
0.465460 0.389767 0.772089 0.000000 -0.015805 0.999875
0.342650 0.378490 0.875366 -0.833977 0.211581 0.509623
0.531272 0.130903 0.283285 0.231329 -0.943709 -0.236430
0.253274 0.670817 0.812743 -0.569903 0.178276 0.802140
0.227752 0.261713 0.785698 -0.720392 -0.129224 0.681422
0.158571 0.514411 0.100545 -0.464679 -0.036525 -0.884726
0.674435 0.545824 0.565281 0.929081 -0.140491 0.342156
0.498467 0.270331 0.770201 0.000000 -0.015805 0.999875
0.092804 0.509340 0.524143 -0.932693 -0.143801 0.330764
0.187058 0.174344 0.245893 -0.599773 -0.680517 -0.420915
0.353172 0.454309 0.056099 -0.066803 -0.150563 -0.986341
0.424287 0.549338 0.046058 0.077245 -0.038681 -0.996261
0.144334 0.233572 0.209013 -0.610919 -0.481661 -0.628316
0.643487 0.886817 0.510210 0.615074 0.788266 0.017920
0.442053 0.906306 0.762854 0.128330 0.900366 0.415778
0.475110 0.923454 0.682578 0.178110 0.951678 0.250172
0.639379 0.416046 0.641032 0.932099 -0.090014 0.350840
0.709790 0.671207 0.589195 0.931504 -0.011881 0.363537
0.350795 0.136621 0.768087 0.000000 -0.015805 0.999875
0.166317 0.869160 0.333217 -0.495742 0.815359 -0.299049
0.598366 0.903866 0.533695 0.492741 0.869300 0.039036
0.276103 0.349935 0.098914 -0.238586 -0.279698 -0.929971
0.621325 0.877213 0.662235 0.638527 0.655790 0.402769
0.351398 0.050874 0.837568 -0.364136 -0.764927 0.531311
0.559552 0.140405 0.265242 0.296414 -0.929234 -0.220595
0.067725 0.381556 0.307736 -0.985229 -0.169613 -0.023580
0.098674 0.361948 0.385699 -0.975558 -0.143354 0.166544
0.113623 0.821811 0.667152 -0.783484 0.375213 0.495346
0.159516 0.522518 0.722933 -0.903571 -0.085831 0.419753
0.289531 0.050301 0.759832 -0.599811 -0.711878 0.365317
0.066951 0.668774 0.596875 -0.925826 -0.010848 0.377795
0.720294 0.481567 0.289762 0.982227 -0.081406 -0.169122
0.501557 0.768184 0.808819 0.428692 0.177562 0.885830
0.349332 0.581956 0.870193 -0.089012 0.104292 0.990555
0.154484 0.284073 0.633805 -0.940050 -0.193298 0.280965
0.153524 0.155838 0.438101 -0.901595 -0.418614 0.109035
0.163092 0.327069 0.150031 -0.487424 -0.309804 -0.816357
0.510104 0.388976 0.090146 0.258990 -0.221734 -0.940084
0.466122 0.330345 0.094542 0.175834 -0.306575 -0.935465
0.690212 0.293828 0.305897 0.948620 -0.314951 0.030422
0.102257 0.255199 0.227680 -0.706417 -0.466018 -0.532731
0.242437 0.452887 0.082175 -0.293409 -0.137038 -0.946114
0.380062 0.339028 0.771287 0.000000 -0.015805 0.999875
0.533395 0.136529 0.258101 0.221992 -0.943388 -0.246453
0.691840 0.573686 0.196316 0.829857 0.098203 -0.549267
0.421287 0.033573 0.666013 0.175315 -0.981055 -0.082436
0.457557 0.561680 0.052381 0.145460 -0.019473 -0.989172
0.408464 0.636924 0.859789 0.078578 0.208067 0.974953
0.208330 0.115143 0.486990 -0.430156 -0.896603 -0.105208
0.394336 0.034411 0.802203 0.068351 -0.934669 0.348886
0.096219 0.828716 0.354842 -0.715581 0.650499 -0.254551
0.353931 0.455086 0.858152 -0.787588 0.057665 0.613499
0.351934 0.528472 0.047612 -0.069334 -0.063674 -0.995559
0.368343 0.957586 0.571154 -0.035469 0.993308 0.109912
0.229892 0.128093 0.731377 -0.779535 -0.480593 0.401692
0.275899 0.478457 0.071320 -0.225978 -0.112293 -0.967639
0.135893 0.402418 0.645335 -0.932592 -0.094226 0.348417
0.272849 0.613494 0.850026 -0.492673 0.177060 0.852011
0.311506 0.422571 0.808965 -0.437634 0.280308 0.854344
0.174996 0.800769 0.204323 -0.470446 0.658548 -0.587363
0.204317 0.882339 0.734581 -0.518086 0.638533 0.569090
0.201310 0.486163 0.779912 -0.688440 -0.506823 0.518826
0.619883 0.187309 0.259207 0.672814 -0.627898 -0.391237
0.606936 0.558381 0.103582 0.472435 0.037591 -0.880564
0.597584 0.901069 0.438420 0.504279 0.858407 -0.094023
0.347282 0.209901 0.134450 -0.125754 -0.493883 -0.860387
0.631400 0.514002 0.658228 0.898860 -0.108165 0.424677
0.728759 0.776346 0.411011 0.972764 0.231662 0.007957
0.484773 0.883509 0.784132 0.305360 0.714575 0.629395
0.597730 0.559453 0.750306 0.864907 0.063334 0.497920
0.066578 0.460402 0.217934 -0.884977 -0.100429 -0.454676
0.659190 0.320053 0.448403 0.966128 -0.126517 0.224924
0.142497 0.179667 0.424236 -0.914438 -0.390132 0.107700
0.268760 0.128068 0.792115 -0.680785 -0.308257 0.664461
0.217229 0.904046 0.350451 -0.386165 0.890522 -0.240516
0.085208 0.657766 0.185419 -0.786364 0.196300 -0.585745
0.450903 0.916223 0.725359 0.129599 0.937757 0.322205
0.320988 0.229095 0.816575 -0.646407 -0.090551 0.757601
0.476671 0.420846 0.073520 0.184926 -0.182796 -0.965603
0.287934 0.135679 0.278456 -0.229237 -0.946090 -0.228833
0.646365 0.465261 0.612881 0.941258 -0.016282 0.337296
0.355162 0.305678 0.885520 -0.585808 -0.537525 0.606544
0.343054 0.860870 0.164553 -0.095695 0.794666 -0.599458
0.230035 0.174092 0.199886 -0.457150 -0.650379 -0.606648
0.150290 0.272556 0.602535 -0.945305 -0.203423 0.254983
0.618874 0.879270 0.659385 0.627249 0.676078 0.386623
0.336085 0.454534 0.824772 -0.836039 -0.051722 0.546227
0.708368 0.791177 0.541026 0.918339 0.333916 0.212493
0.297651 0.777094 0.104789 -0.205997 0.563914 -0.799729
0.109282 0.702964 0.181596 -0.664847 0.361547 -0.653654
0.636200 0.412440 0.647133 0.929376 -0.090270 0.357926
0.725118 0.662982 0.538075 0.961631 -0.032325 0.272435
0.442160 0.912031 0.247469 0.126683 0.914222 -0.384903
0.211914 0.229927 0.750713 -0.797916 -0.186518 0.573186
0.187569 0.586636 0.766721 -0.808646 0.124023 0.575074
0.134410 0.198769 0.418502 -0.925700 -0.361601 0.111015
0.390338 0.824966 0.860043 0.017296 0.239994 0.970620
0.685298 0.361642 0.461070 0.802383 0.195944 0.563726
0.401649 0.062667 0.851495 0.225112 -0.543704 0.808524
0.433775 0.578601 0.871006 0.115906 0.103380 0.987866
0.341199 0.222161 0.859734 -0.538998 -0.308523 0.783770
0.358173 0.399564 0.061408 -0.056306 -0.213938 -0.975223
0.273390 0.230708 0.769575 0.000000 -0.015805 0.999875
0.054100 0.754233 0.565207 -0.941957 0.147280 0.301706
0.443273 0.480708 0.843608 0.529313 -0.643977 0.552377
0.495556 0.158860 0.194390 0.269028 -0.848505 -0.455701
0.081295 0.826001 0.562339 -0.821648 0.539871 0.182849
0.094385 0.471499 0.516333 -0.938559 -0.135186 0.317541
0.204196 0.732140 0.131874 -0.431850 0.450271 -0.781512
0.166512 0.494700 0.094990 -0.437419 -0.074644 -0.896155
0.459135 0.376156 0.822055 0.375438 0.261918 0.889070
0.229760 0.424258 0.737348 -0.490201 -0.832263 0.258923
0.350680 0.789847 0.846102 -0.150154 0.174345 0.973169
0.232435 0.345588 0.796104 -0.613026 0.001874 0.790061
0.612278 0.320028 0.153724 0.495032 -0.319499 -0.808000
0.199467 0.305791 0.756347 -0.798366 -0.119975 0.590100
0.575054 0.129810 0.330717 0.373027 -0.911765 -0.171861
0.220615 0.495352 0.747237 -0.712140 0.622789 0.324022
0.141521 0.891415 0.530796 -0.579119 0.814174 0.041742
0.424828 0.227972 0.828996 0.385401 -0.126568 0.914028
0.434303 0.941296 0.626098 0.096666 0.978614 0.181579
0.392417 0.945362 0.344208 0.014828 0.974379 -0.224422
0.156998 0.224777 0.207086 -0.591694 -0.493082 -0.637784
0.416052 0.396987 0.062161 0.060202 -0.216719 -0.974376
0.722548 0.541381 0.239633 0.938755 0.012172 -0.344369
0.170084 0.739181 0.159910 -0.504656 0.477653 -0.719146
0.383105 0.953383 0.596355 -0.006091 0.988239 0.152798
0.096291 0.407037 0.397283 0.321736 -0.551561 -0.769588
0.471741 0.913740 0.283262 0.198060 0.922157 -0.332263
0.690375 0.358247 0.455225 0.832726 -0.007827 0.553629
0.337537 0.355203 0.771543 0.000000 -0.015805 0.999875
0.332083 0.175398 0.834403 -0.451025 -0.056638 0.890712
0.190779 0.522229 0.650854 0.000000 -0.028016 0.999608
0.355373 0.235680 0.834082 -0.180689 -0.106568 0.977750
0.420321 0.345515 0.771389 0.000000 -0.015805 0.999875
0.224586 0.093044 0.664846 -0.659113 -0.739630 0.136079
0.160126 0.479684 0.712462 -0.892614 -0.127410 0.432444
0.672744 0.863846 0.565700 0.720113 0.678038 0.147317
0.617239 0.797994 0.215367 0.511269 0.649128 -0.563238
0.728209 0.789640 0.412175 0.966887 0.255097 0.007406
0.605288 0.443685 0.106593 0.445142 -0.140196 -0.884417
0.280400 0.940406 0.587544 -0.213404 0.971271 0.105320
0.446568 0.581709 0.047440 0.122575 0.002450 -0.992456
0.596837 0.265808 0.167392 0.490986 -0.384996 -0.781480
0.506908 0.417952 0.799627 0.300057 0.271668 0.914419
0.592659 0.198657 0.660907 0.911288 -0.280487 0.301465
0.193240 0.856013 0.264847 -0.427228 0.800224 -0.420852
0.164505 0.682977 0.683273 -0.782148 -0.057976 0.620390
0.108936 0.483269 0.154838 -0.690774 -0.075802 -0.719087
0.381311 0.026701 0.717928 -0.019924 -0.999445 0.026698
0.613654 0.397380 0.692957 0.903781 -0.072562 0.421800
0.645570 0.274965 0.471472 0.961179 -0.173671 0.214415
0.374746 0.907429 0.789050 -0.022446 0.903333 0.428352
0.505619 0.065015 0.752311 0.692964 -0.574935 0.435030
0.318948 0.131481 0.295952 -0.204291 -0.948270 -0.242999
0.165275 0.900952 0.503799 -0.523000 0.852330 0.002399
0.423267 0.718705 0.823952 0.155935 0.012013 0.987694
0.274147 0.611816 0.851245 -0.481435 0.173859 0.859065
0.393327 0.941024 0.320624 0.016960 0.965524 -0.259761
0.641463 0.392488 0.633303 0.941092 -0.122172 0.315308
0.421464 0.345333 0.907194 0.763567 0.201015 0.613644
0.285113 0.426208 0.758871 0.543145 -0.763939 0.348413
0.482593 0.642859 0.850930 0.435544 0.220139 0.872834
0.373667 0.938044 0.308792 -0.029525 0.960222 -0.277672
0.532247 0.926947 0.634571 0.288395 0.944617 0.156614
0.709234 0.460724 0.310573 0.987608 -0.110374 -0.111570
0.042755 0.579477 0.460242 -0.979663 -0.141176 0.142585
0.599327 0.230589 0.189536 0.536446 -0.455646 -0.710360
0.125503 0.323584 0.532031 -0.964056 -0.173416 0.201304
0.476910 0.331621 0.098178 0.199815 -0.305738 -0.930913
0.479676 0.416364 0.074753 0.191019 -0.187591 -0.963494
0.476702 0.046188 0.684462 0.366207 -0.930523 -0.004491
0.182350 0.140979 0.312915 -0.395773 -0.908615 -0.133353
0.685520 0.841412 0.429571 0.768888 0.631811 -0.098110
0.530373 0.541723 0.839383 0.606053 0.072990 0.792069
0.083454 0.485838 0.366059 -0.994101 -0.107610 0.013520
0.436739 0.104309 0.846100 0.418457 0.074779 0.905153
0.631284 0.472143 0.658334 0.917370 -0.051118 0.394738
0.396428 0.941887 0.328374 0.024325 0.968344 -0.248431
0.057346 0.706943 0.606654 -0.921062 0.030447 0.388224
0.247315 0.096829 0.532792 -0.344581 -0.926531 -0.151008
0.506052 0.093644 0.768753 0.701674 -0.463313 0.541290
0.449907 0.306020 0.844708 0.683064 -0.085905 0.725289
0.353202 0.031797 0.694091 -0.168206 -0.985295 -0.030006
0.084796 0.856621 0.496640 -0.763187 0.645803 0.021999
0.727791 0.751297 0.441784 0.981997 0.174493 0.072340
0.673632 0.425422 0.481706 0.961495 -0.214245 0.172124
0.194205 0.183559 0.218888 -0.538286 -0.657470 -0.527239
0.247358 0.732456 0.103540 -0.333084 0.440041 -0.833918
0.522661 0.156114 0.777941 0.735061 -0.303872 0.606091
0.101464 0.733728 0.655854 -0.854152 0.066075 0.515809
0.474443 0.591690 0.864678 0.312826 0.133267 0.940415
0.634148 0.871398 0.417442 0.585315 0.796324 -0.152559
0.530137 0.775096 0.139974 0.335830 0.578420 -0.743404
0.588152 0.814739 0.210013 0.444789 0.695552 -0.564242
0.697466 0.433507 0.206857 0.833116 -0.145292 -0.533673
0.079654 0.452097 0.448843 -0.626803 -0.410972 0.661981
0.715547 0.554552 0.352345 0.998357 -0.056808 -0.007446
0.228872 0.223680 0.775672 -0.746895 -0.180306 0.640029
0.451265 0.101956 0.362782 0.083338 -0.967964 -0.236856
0.535776 0.313430 0.798855 0.636729 -0.048563 0.769557
0.332352 0.213038 0.843398 -0.391013 -0.443190 0.806654
0.507064 0.937864 0.456134 0.274826 0.959219 -0.066098
0.276872 0.144098 0.226256 -0.223712 -0.946332 -0.233258
0.371080 0.960766 0.439157 -0.035500 0.996118 -0.080552
0.733892 0.752923 0.363413 0.973940 0.216594 -0.067290
0.078603 0.462511 0.458208 -0.795491 -0.343973 0.498876
0.201553 0.390571 0.771669 -0.788919 0.023428 0.614051
0.640576 0.475749 0.627795 0.934350 -0.016801 0.355961
0.366891 0.403379 0.902089 -0.637572 0.267330 0.722521
0.221020 0.736661 0.124233 -0.393334 0.461418 -0.795224
0.247071 0.104567 0.498712 -0.335990 -0.928545 -0.157843
0.305208 0.679412 0.065215 -0.194557 0.219156 -0.956095
0.517970 0.093171 0.453212 0.296242 -0.940451 -0.166711
0.033700 0.661201 0.357037 -0.996911 0.056951 -0.054088
0.484995 0.202555 0.769130 0.000000 -0.015805 0.999875
0.692314 0.722535 0.241553 0.804624 0.402930 -0.436151
0.228854 0.924000 0.600656 -0.320684 0.940556 0.111875
0.156930 0.525376 0.713563 -0.902731 -0.084234 0.421879
0.557292 0.101606 0.645911 0.778886 -0.598567 0.187228
0.577617 0.748486 0.735576 0.723735 0.070748 0.686442
0.360648 0.049056 0.567445 -0.075449 -0.979546 -0.186538
0.516770 0.297879 0.808905 0.582692 -0.046520 0.811361
0.698723 0.509932 0.474743 0.953457 -0.228504 0.196738
0.057174 0.794719 0.496579 -0.939137 0.314128 0.139091
0.410251 0.783555 0.070512 0.055751 0.547283 -0.835089
0.336604 0.873569 0.184163 -0.109767 0.830395 -0.546255
0.126235 0.347036 0.549227 -0.960531 -0.168258 0.221517
0.041124 0.690932 0.425955 -0.996013 0.069132 0.056390
0.550131 0.333727 0.125210 0.362667 -0.304823 -0.880656
0.094106 0.449034 0.423515 -0.805090 0.180397 -0.565055
0.361730 0.080542 0.444646 -0.102247 -0.969595 -0.222329
0.290887 0.601580 0.057585 -0.201901 0.041900 -0.978509
0.578738 0.570583 0.093580 0.416296 0.043364 -0.908195
0.107350 0.412471 0.528980 -0.972772 -0.172997 0.154227
0.367325 0.216893 0.128265 -0.062982 -0.495917 -0.866083
0.173148 0.137323 0.514053 -0.742465 -0.668140 0.048310
0.414213 0.920615 0.724463 0.056139 0.940922 0.333936
0.125339 0.715012 0.170830 -0.596293 0.402502 -0.694570
0.205233 0.116338 0.643297 -0.779646 -0.605103 0.161254
0.529505 0.191153 0.170826 0.403976 -0.479999 -0.778720
0.320714 0.317860 0.846038 -0.766522 0.026840 0.641656
0.586997 0.895959 0.389670 0.468608 0.864386 -0.182329
0.669328 0.374625 0.468719 0.539630 0.761271 0.359536
0.419583 0.331104 0.076606 0.072571 -0.298754 -0.951567
0.684929 0.442704 0.429988 0.661110 -0.289972 0.691990
0.077659 0.374280 0.205158 -0.770284 -0.234129 -0.593166
0.637539 0.735967 0.180802 0.575929 0.468329 -0.670055
0.228689 0.733539 0.116740 -0.376176 0.449176 -0.810390
0.562682 0.378374 0.778443 0.741268 0.014051 0.671062
0.308195 0.833485 0.824796 -0.244799 0.308178 0.919293
0.397234 0.229171 0.832994 0.040285 -0.102346 0.993933
0.062033 0.812837 0.484898 -0.911147 0.401922 0.090937
0.214171 0.444031 0.648663 0.000000 -0.028016 0.999608
0.143920 0.377382 0.659022 -0.930604 -0.113032 0.348138
0.696222 0.655307 0.197904 0.828166 0.179388 -0.531000
0.632190 0.297159 0.583149 0.954566 -0.180701 0.236963
0.291769 0.895281 0.763148 -0.263249 0.816860 0.513264
0.709798 0.759447 0.600161 0.914789 0.203934 0.348670
0.648758 0.516202 0.600593 0.902101 -0.124093 0.413298
0.402642 0.787141 0.068409 0.037936 0.553053 -0.832282
0.394705 0.551935 0.874242 0.021157 0.020730 0.999561
0.293232 0.384443 0.816862 -0.272502 0.203579 0.940371
0.277082 0.418585 0.750314 0.367796 -0.885272 0.284641
0.286398 0.665652 0.841136 -0.447136 0.197005 0.872501
0.269033 0.089652 0.520696 -0.316621 -0.933581 -0.167863
0.431196 0.042735 0.822556 0.346542 -0.884950 0.311081
0.178623 0.128724 0.456680 -0.517055 -0.854129 -0.055835
0.689067 0.414280 0.358469 0.994842 -0.093336 0.039722
0.561922 0.918014 0.526251 0.392239 0.919604 0.021856
0.440633 0.952177 0.427456 0.128919 0.986668 -0.099325
0.649807 0.241587 0.437603 0.955283 -0.254566 0.150434
0.229393 0.100140 0.534024 -0.362536 -0.921444 -0.139670
0.095405 0.425368 0.474975 -0.968124 -0.219909 0.119897
0.283424 0.943710 0.447910 -0.237165 0.968689 -0.073445
0.136292 0.878666 0.619307 -0.647578 0.712668 0.269716
0.134374 0.865327 0.403275 -0.590502 0.786291 -0.181808
0.644014 0.242431 0.458691 0.956391 -0.234345 0.174351
0.070226 0.464060 0.328414 -0.989768 -0.112450 -0.087829
0.144957 0.582669 0.645234 -0.851560 -0.110183 0.512548
0.360103 0.530758 0.045430 -0.052641 -0.062034 -0.996685
0.335684 0.353930 0.646137 0.000000 -0.028016 0.999608
0.563276 0.500853 0.084313 0.358745 -0.074963 -0.930421
0.162977 0.132242 0.420248 -0.501303 -0.862739 -0.066154
0.447783 0.955239 0.529579 0.129607 0.990795 0.039085
0.189492 0.147727 0.640710 -0.884266 -0.404884 0.232685
0.081842 0.485913 0.445762 -0.955573 -0.273168 0.110721
0.728953 0.749567 0.423703 0.983276 0.178147 0.037850
0.098762 0.508494 0.536476 -0.926216 -0.142669 0.348954
0.157434 0.234642 0.590245 -0.937843 -0.246239 0.244576
0.693176 0.410382 0.201488 0.794775 -0.181816 -0.579030
0.450644 0.927136 0.678754 0.129561 0.958446 0.254155
0.110065 0.376687 0.427602 -0.864618 -0.417979 -0.278799
0.551283 0.534205 0.821715 0.685487 0.073565 0.724359
0.731977 0.718989 0.402564 0.990915 0.134236 0.008320
0.188685 0.902784 0.644812 -0.464578 0.852023 0.241295
0.706862 0.449079 0.220068 0.882010 -0.117306 -0.456397
0.193229 0.578603 0.094787 -0.420910 0.058144 -0.905237
0.085118 0.379519 0.193942 -0.737153 -0.228533 -0.635907
0.428115 0.220131 0.861014 0.495508 -0.373478 0.784210
0.656957 0.250215 0.417026 0.956109 -0.260171 0.134779
0.685770 0.464429 0.397971 0.836652 0.361292 -0.411681
0.551809 0.693318 0.103251 0.397698 0.312011 -0.862836
0.452231 0.508538 0.867200 0.216877 -0.333342 0.917523
0.085448 0.303715 0.340753 -0.963681 -0.250030 0.093828
0.257708 0.504332 0.773237 -0.066047 0.838989 0.540125
0.232795 0.179721 0.189904 -0.452095 -0.561386 -0.693149
0.686586 0.569321 0.557791 0.938556 -0.124825 0.321762
0.091701 0.824551 0.348705 -0.744521 0.617831 -0.252931
0.711977 0.710387 0.615917 0.914215 0.037924 0.403451
0.545389 0.924644 0.507988 0.349102 0.937072 -0.004795
0.405071 0.933379 0.288503 0.044637 0.950390 -0.307842
0.665033 0.869842 0.580441 0.705833 0.683612 0.185672
0.627827 0.245207 0.546171 0.952633 -0.220271 0.209693
0.281064 0.671756 0.072900 -0.252758 0.203679 -0.945848
0.294135 0.141234 0.239497 -0.210981 -0.947469 -0.240394
0.040698 0.773113 0.378886 -0.968957 0.242835 -0.046409
0.212104 0.727378 0.122953 -0.414570 0.432927 -0.800441
0.439227 0.899977 0.780069 0.142903 0.862079 0.486208
0.210008 0.137737 0.705804 -0.821088 -0.454922 0.344761
0.387722 0.730088 0.848466 0.006438 -0.097342 0.995230
0.083236 0.671378 0.198548 -0.798533 0.239249 -0.552364
0.518619 0.932211 0.576164 0.274035 0.957883 0.085819
0.391290 0.719859 0.833130 0.021149 -0.038590 0.999031
0.539002 0.446770 0.784217 0.476634 -0.379160 0.793132
0.134692 0.411877 0.644049 -0.931097 -0.084093 0.354945
0.446384 0.774690 0.084207 0.141047 0.541936 -0.828499
0.737522 0.707796 0.345444 0.985304 0.147524 -0.086096
0.553319 0.607354 0.087988 0.375534 0.095805 -0.921844
0.112761 0.411115 0.564935 -0.967548 -0.143628 0.207900
0.658710 0.849282 0.628404 0.753459 0.551936 0.357304
0.676027 0.743242 0.655901 0.855849 0.091347 0.509095
0.182315 0.357530 0.737831 -0.885318 -0.074580 0.458966
0.415723 0.055436 0.530800 0.053401 -0.979417 -0.194656
0.612051 0.894673 0.609313 0.534721 0.827244 0.172455
0.118873 0.244224 0.219168 -0.659002 -0.477740 -0.580931
0.340872 0.299284 0.869955 -0.623459 -0.504332 0.597451
0.738383 0.659734 0.360378 0.997481 0.052262 -0.047964
0.732982 0.706469 0.397603 0.993404 0.114624 0.003219
0.620826 0.895539 0.510827 0.557923 0.829771 0.014218
0.288010 0.370453 0.818847 -0.329382 0.154975 0.931392
0.280963 0.384876 0.772012 0.000000 -0.015805 0.999875
0.564262 0.575477 0.798224 0.735107 0.126903 0.665968
0.445425 0.043249 0.795151 0.403273 -0.869972 0.283759
0.580666 0.430993 0.747514 0.779692 0.123343 0.613894
0.481592 0.653021 0.847468 0.437098 0.220656 0.871927
0.446362 0.805848 0.108416 0.132082 0.634804 -0.761300
0.384130 0.432046 0.890919 -0.049354 0.414049 0.908916
0.055028 0.735555 0.609683 -0.918492 0.080767 0.387103
0.347143 0.954510 0.426201 -0.092334 0.990596 -0.100963
0.159290 0.291664 0.663208 -0.933613 -0.187256 0.305454
0.276324 0.114233 0.424741 -0.286013 -0.938963 -0.191170
0.602374 0.893719 0.421819 0.512632 0.848943 -0.128464
0.735113 0.606275 0.424928 0.993513 -0.083682 0.077006
0.225918 0.708996 0.105319 -0.384871 0.366300 -0.847171
0.603737 0.200670 0.219690 0.599022 -0.548843 -0.583048
0.115382 0.346362 0.161199 -0.572439 -0.275007 -0.772454
0.450805 0.448006 0.802646 0.650139 0.159331 0.742921
0.199179 0.155013 0.692820 -0.852694 -0.395935 0.340806
0.262206 0.112203 0.442944 -0.304975 -0.935403 -0.178917
0.211856 0.224959 0.749468 -0.798757 -0.191409 0.570394
0.692413 0.816654 0.344880 0.814682 0.534354 -0.225298
0.049920 0.683419 0.570802 -0.944419 -0.007739 0.328654
0.382549 0.374021 0.646700 0.000000 -0.028016 0.999608
0.620550 0.173509 0.290281 0.733728 -0.619865 -0.278226
0.449325 0.382356 0.822769 0.573894 0.266894 0.774218
0.254384 0.511886 0.748541 -0.038375 0.958726 0.281731
0.182194 0.123691 0.534739 -0.619940 -0.784649 0.000073
0.398217 0.308225 0.915809 0.324490 -0.759597 0.563665
0.287058 0.904962 0.277439 -0.227166 0.908089 -0.351810
0.436422 0.145861 0.768233 0.000000 -0.015805 0.999875
0.232094 0.646766 0.801792 -0.654753 0.208035 0.726649
0.127198 0.835799 0.688270 -0.740972 0.398532 0.540493
0.548890 0.088802 0.503459 0.401946 -0.909015 -0.110141
0.520029 0.934174 0.433526 0.306342 0.946968 -0.096988
0.450561 0.799115 0.105876 0.143674 0.617678 -0.773196
0.412407 0.045068 0.572780 0.062279 -0.981539 -0.180840
0.415615 0.108788 0.324269 0.002750 -0.966839 -0.255374
0.649744 0.845484 0.660707 0.744951 0.486074 0.456924
0.527395 0.725311 0.778337 0.587393 0.045750 0.808008
0.208516 0.136988 0.351811 -0.404721 -0.905380 -0.128401
0.554680 0.294778 0.140958 0.390942 -0.355934 -0.848808
0.445678 0.952782 0.435559 0.140631 0.986230 -0.087028
0.448836 0.881026 0.201659 0.138556 0.852807 -0.503510
0.085651 0.453830 0.362355 -0.990814 -0.135195 -0.003155
0.279426 0.131097 0.311727 -0.247897 -0.944174 -0.216984
0.187061 0.435846 0.101808 -0.406857 -0.152265 -0.900713
0.352670 0.174786 0.152664 -0.109576 -0.559300 -0.821691
0.481082 0.675001 0.069670 0.228354 0.210374 -0.950577
0.698801 0.827735 0.516154 0.854035 0.508270 0.110840
0.063336 0.568061 0.508060 -0.961384 -0.146043 0.233265
0.694220 0.393090 0.203743 0.784950 -0.207019 -0.583949
0.129545 0.267848 0.481640 -0.959542 -0.189669 0.208096
0.278385 0.394690 0.811225 -0.286070 0.227388 0.930838
0.735314 0.602654 0.370971 0.998941 -0.044930 -0.009864
0.739002 0.673458 0.346309 0.993460 0.085523 -0.075655
0.317259 0.342453 0.839557 -0.737437 0.208251 0.642509
0.404039 0.297270 0.084963 0.055739 -0.346192 -0.936506
0.277549 0.254847 0.814158 -0.629950 -0.104812 0.769531
0.187273 0.402021 0.113893 -0.417576 -0.201969 -0.885911
0.707175 0.480874 0.401802 0.916936 -0.151471 0.369169
0.644717 0.211661 0.404915 0.930214 -0.350637 0.108422
0.696666 0.407793 0.431260 0.667783 -0.248543 0.701635
0.410359 0.949908 0.386505 0.057460 0.985249 -0.161194
0.131217 0.758642 0.200705 -0.576055 0.536649 -0.616578
0.716023 0.807080 0.465656 0.932756 0.353149 0.072469
0.704560 0.684520 0.232326 0.865470 0.265262 -0.424967
0.221873 0.920282 0.389260 -0.380247 0.910430 -0.162878
0.306411 0.043516 0.669172 -0.299414 -0.951538 -0.070185
0.071098 0.566187 0.209411 -0.869058 0.074470 -0.489072
0.148598 0.738657 0.173730 -0.548503 0.476853 -0.686845
0.136338 0.803220 0.710911 -0.743810 0.247820 0.620751
0.272108 0.269098 0.770181 0.000000 -0.015805 0.999875
0.596244 0.298045 0.711963 0.893286 -0.165189 0.418034
0.408683 0.405729 0.899903 0.704582 0.229876 0.671358
0.084783 0.355279 0.458999 -0.836737 -0.053810 0.544954
0.098468 0.330715 0.394136 -0.971603 -0.165067 0.169530
0.493148 0.554914 0.061508 0.218547 -0.022233 -0.975573
0.140807 0.811318 0.717632 -0.727403 0.268210 0.631623
0.168851 0.902348 0.502553 -0.513639 0.858006 0.000067
0.653666 0.489975 0.585816 0.930303 -0.066856 0.360648
0.285968 0.508375 0.857395 -0.329433 -0.397816 0.856281
0.280430 0.058917 0.703979 -0.500534 -0.861032 0.089944
0.336464 0.835332 0.137633 -0.110385 0.724083 -0.680823
0.035642 0.609111 0.339608 -0.997559 -0.010716 -0.068998
0.164555 0.332015 0.147696 -0.483379 -0.302845 -0.821358
0.627213 0.477561 0.102730 0.475978 -0.091048 -0.874731
0.272224 0.938705 0.406916 -0.267015 0.954863 -0.130152
0.654759 0.602576 0.631214 0.882592 -0.075174 0.464091
0.183370 0.721369 0.137327 -0.478472 0.418529 -0.771944
0.252786 0.550190 0.068238 -0.271981 -0.023860 -0.962007
0.692752 0.781283 0.295120 0.806117 0.500353 -0.315947
0.475423 0.946839 0.429773 0.210166 0.972947 -0.095943
0.553870 0.171637 0.213997 0.472222 -0.714992 -0.515550
0.125147 0.347392 0.465238 0.623722 0.775463 0.098123
0.497708 0.654785 0.071367 0.264872 0.150062 -0.952536
0.418927 0.073126 0.463416 0.043396 -0.975891 -0.213903
0.467933 0.313777 0.831566 0.546522 -0.059085 0.835357
0.425952 0.056540 0.531525 0.076620 -0.978560 -0.191181
0.553398 0.919894 0.624706 0.341459 0.928824 0.143844
0.654497 0.848978 0.641498 0.748537 0.531008 0.397143
0.649648 0.315593 0.512842 0.971097 -0.165762 0.171737
0.096896 0.341874 0.436983 0.276213 -0.599093 -0.751528
0.083503 0.456252 0.193146 -0.810770 -0.113617 -0.574233
0.723675 0.700960 0.539291 0.962342 0.038340 0.269125
0.195515 0.512500 0.797600 -0.749782 -0.204974 0.629136
0.570248 0.101897 0.540004 0.679817 -0.732664 0.032452
0.144364 0.274792 0.579566 -0.951491 -0.198867 0.234772
0.585067 0.159039 0.648294 0.899850 -0.340664 0.272429
0.074995 0.503033 0.472130 -0.487190 0.676897 0.551775
0.543640 0.575093 0.079712 0.337689 0.030918 -0.940750
0.055580 0.420791 0.286248 -0.982524 -0.126810 -0.136255
0.184024 0.547747 0.094482 -0.426344 0.007706 -0.904528
0.380952 0.062933 0.496253 -0.029753 -0.977250 -0.209994
0.334666 0.357408 0.771577 0.000000 -0.015805 0.999875
0.492148 0.275586 0.819089 0.624874 -0.115331 0.772160
0.613703 0.221948 0.581584 0.939791 -0.248236 0.234885
0.454287 0.850397 0.823503 0.206614 0.399085 0.893332
0.187653 0.618625 0.757649 -0.806780 0.153232 0.570636
0.231282 0.141616 0.257991 -0.277358 -0.939648 -0.200333
0.509309 0.339051 0.813098 0.514162 0.022683 0.857393
0.508551 0.074456 0.534403 0.317810 -0.938483 -0.135081
0.533394 0.926769 0.623826 0.293627 0.945162 0.143009
0.481402 0.638941 0.852039 0.424178 0.213830 0.879971
0.652708 0.633666 0.640241 0.869538 -0.056350 0.490640
0.724596 0.735733 0.503527 0.973451 0.119741 0.195079
0.267733 0.906856 0.302625 -0.273366 0.909970 -0.311809
0.522070 0.090057 0.741713 0.733883 -0.523307 0.433088
0.606223 0.449404 0.104891 0.444991 -0.131904 -0.885767
0.475957 0.046904 0.653850 0.317899 -0.945982 -0.063709
0.437281 0.459157 0.823222 0.832146 -0.217223 0.510242
0.707150 0.503840 0.416617 0.901411 -0.234946 0.363675
0.177047 0.665459 0.705963 -0.791659 -0.005417 0.610939
0.236321 0.613777 0.081698 -0.338015 0.097396 -0.936087
0.455622 0.532992 0.878789 0.168044 0.018289 0.985610
0.161729 0.709794 0.691277 -0.774465 -0.000453 0.632616
0.465629 0.102012 0.367428 0.113022 -0.966082 -0.232190
0.127746 0.219708 0.234225 -0.670998 -0.534797 -0.513570
0.462408 0.218132 0.134555 0.240528 -0.446251 -0.861978
0.255604 0.070629 0.661054 -0.537141 -0.842850 0.032917
0.583766 0.189697 0.700204 0.874008 -0.278645 0.398079
0.464524 0.950424 0.503430 0.172374 0.985029 0.002436
0.670997 0.637431 0.164688 0.713074 0.197637 -0.672655
0.470184 0.198146 0.769060 0.000000 -0.015805 0.999875
0.156759 0.203612 0.552586 -0.937033 -0.280733 0.207744
0.673961 0.273445 0.216823 0.699874 -0.420523 -0.577353
0.131936 0.175264 0.346680 -0.848074 -0.524217 -0.077247
0.591111 0.854480 0.274247 0.453128 0.793273 -0.406686
0.269078 0.656466 0.834520 -0.519644 0.209646 0.828262
0.221747 0.440840 0.773488 -0.645827 -0.135762 0.751316
0.607724 0.784370 0.198523 0.500242 0.613413 -0.611132
0.224730 0.504767 0.080178 -0.328373 -0.073007 -0.941722
0.440815 0.742815 0.837941 0.232435 0.012757 0.972528
0.188885 0.689060 0.114881 -0.466844 0.308045 -0.828954
0.146653 0.286455 0.602794 -0.948790 -0.187975 0.253897
0.148066 0.353393 0.664616 -0.932189 -0.136731 0.335154
0.328349 0.135821 0.263995 -0.184936 -0.949143 -0.254808
0.206963 0.591857 0.090887 -0.396048 0.074371 -0.915213
0.152548 0.456170 0.681255 -0.898284 -0.069408 0.433900
0.093168 0.821038 0.606741 -0.823198 0.468893 0.320132
0.531360 0.219341 0.792441 0.718544 -0.191456 0.668609
0.621674 0.881893 0.426090 0.558644 0.819193 -0.129766
0.252669 0.934477 0.401303 -0.310425 0.940554 -0.137821
0.130095 0.744622 0.681915 -0.805201 0.093385 0.585602
0.592906 0.120041 0.471822 0.718038 -0.695577 0.024367
0.513462 0.693286 0.808580 0.536171 0.136498 0.833000
0.559919 0.705981 0.749642 0.721780 0.037090 0.691128
0.551883 0.877624 0.285721 0.374067 0.850837 -0.368986
0.244835 0.849731 0.213839 -0.315786 0.791389 -0.523434
0.089905 0.454528 0.372633 -0.990109 -0.138372 0.023191
0.148768 0.177797 0.463981 -0.924781 -0.353866 0.139851
0.535176 0.863167 0.782043 0.451902 0.475176 0.754978
0.300389 0.671457 0.065003 -0.205530 0.192138 -0.959604
0.530633 0.331612 0.801654 0.601303 -0.014740 0.798885
0.180961 0.805544 0.747648 -0.683905 0.231741 0.691788
0.153428 0.137635 0.382939 -0.560244 -0.826504 -0.054933
0.215452 0.523612 0.650893 0.000000 -0.028016 0.999608
0.351198 0.456989 0.056244 -0.070853 -0.147247 -0.986559
0.113518 0.331983 0.447164 -0.967062 -0.115788 0.226680
0.481394 0.663142 0.842789 0.430029 0.201837 0.879964
0.413305 0.394585 0.061802 0.054604 -0.219643 -0.974051
0.313169 0.475305 0.062973 -0.149273 -0.121305 -0.981327
0.541378 0.229050 0.780332 0.727930 -0.170598 0.664089
0.447013 0.442430 0.808172 0.690986 0.201422 0.694239
0.454187 0.309148 0.837296 0.636181 -0.047002 0.770107
0.501797 0.098889 0.778175 0.691099 -0.428331 0.582164
0.110472 0.829577 0.323953 -0.616791 0.709868 -0.340084
0.315394 0.358256 0.827324 -0.377766 0.253478 0.890529
0.324849 0.142254 0.826158 -0.452468 0.011315 0.891709
0.414531 0.568088 0.872185 0.069259 0.068383 0.995252
0.089071 0.796544 0.628910 -0.852760 0.328168 0.406332
0.472922 0.586428 0.053047 0.176491 0.011883 -0.984231
0.718882 0.818429 0.426096 0.926747 0.375673 -0.003237
0.281039 0.705359 0.822116 -0.443451 0.120286 0.888191
0.722984 0.664947 0.246375 0.927435 0.177114 -0.329386
0.160793 0.436370 0.111589 -0.460182 -0.150510 -0.874974
0.242371 0.289234 0.133567 -0.342207 -0.363002 -0.866674
0.472488 0.742250 0.823300 0.361317 0.101030 0.926953
0.486212 0.886885 0.236541 0.222142 0.873359 -0.433470
0.217639 0.106039 0.505117 -0.373261 -0.917901 -0.134661
0.066420 0.807594 0.348836 -0.881844 0.437185 -0.176694
0.367865 0.695960 0.044369 -0.043088 0.242705 -0.969143
0.333728 0.077545 0.480356 -0.180792 -0.961530 -0.206818
0.030065 0.623684 0.335095 -0.996702 0.002251 -0.081112
0.190223 0.819309 0.764712 -0.614048 0.290572 0.733834
0.461638 0.264332 0.825021 0.576595 -0.075227 0.813560
0.701872 0.359161 0.308603 0.979185 -0.201878 0.021016
0.436310 0.918642 0.256508 0.115507 0.924483 -0.363303
0.426691 0.165230 0.843020 0.387586 -0.077612 0.918561
0.099845 0.434690 0.506531 -0.966116 -0.174121 0.190531
0.391432 0.373068 0.771825 0.000000 -0.015805 0.999875
0.203355 0.139350 0.686827 -0.840154 -0.445870 0.308773
0.337591 0.939683 0.632801 -0.097553 0.976633 0.191499
0.120081 0.848847 0.375543 -0.613802 0.751593 -0.241568
0.136076 0.866213 0.402272 -0.586453 0.789052 -0.182948
0.461053 0.455886 0.742962 -0.970979 -0.193401 0.140700
0.704396 0.494215 0.425848 0.959412 -0.172354 0.223210
0.639470 0.289863 0.174905 0.557571 -0.351739 -0.751927
0.735647 0.717181 0.318790 0.970328 0.194687 -0.143388
0.332194 0.157408 0.768416 0.000000 -0.015805 0.999875
0.078218 0.499089 0.474067 -0.949266 -0.247582 0.193899
0.324720 0.708757 0.825519 -0.259284 0.085836 0.961979
0.221534 0.239879 0.159253 -0.414604 -0.418477 -0.808072
0.595795 0.119675 0.449992 0.630349 -0.775982 -0.022612
0.299679 0.947888 0.502847 -0.190390 0.981708 0.000198
0.203763 0.825648 0.210766 -0.404758 0.727306 -0.554253
0.092627 0.582787 0.178722 -0.771840 0.117771 -0.624814
0.108278 0.229064 0.321750 -0.894887 -0.443893 -0.046211
0.537652 0.657751 0.799987 0.642322 0.194745 0.741280
0.461464 0.377198 0.771890 0.000000 -0.015805 0.999875
0.115609 0.386010 0.492072 -0.933870 0.279856 -0.222637
0.419235 0.178094 0.855064 0.392627 -0.132967 0.910035
0.241521 0.517606 0.836953 -0.567707 -0.234119 0.789238
0.037036 0.610734 0.420810 -0.994934 -0.073246 0.068864
0.427782 0.240178 0.118505 0.130781 -0.436278 -0.890257
0.611036 0.229735 0.602652 0.937368 -0.245135 0.247486
0.031337 0.676701 0.322270 -0.987533 0.105362 -0.116953
0.156312 0.897783 0.483910 -0.550727 0.834415 -0.021241
0.249942 0.342661 0.805812 -0.555960 0.015405 0.831066
0.547281 0.306395 0.792604 0.679640 -0.071258 0.730076
0.175767 0.797146 0.739343 -0.693451 0.217182 0.686992
0.173654 0.522181 0.757705 -0.876686 -0.038852 0.479491
0.513929 0.296513 0.124869 0.303071 -0.353867 -0.884831
0.518176 0.122036 0.312294 0.211305 -0.949486 -0.232004
0.484773 0.073140 0.514789 0.238694 -0.957655 -0.161004
0.256799 0.895346 0.739073 -0.351517 0.799333 0.487342
0.720594 0.596017 0.505297 0.967523 -0.122881 0.220906
0.594477 0.127872 0.358222 0.435803 -0.889502 -0.137340
0.385774 0.968104 0.466804 -0.000890 0.999264 -0.038351
0.567387 0.902373 0.362910 0.414172 0.882680 -0.222121
0.704464 0.340044 0.296081 0.971278 -0.236540 0.025845
