0.592737 0.354026 0.562153 0.865511 -0.158101 0.475285
0.175300 0.179397 0.381326 -0.984056 -0.154185 0.088662
0.689007 0.795842 0.472949 -0.958299 -0.264830 -0.107371
0.289358 0.823449 0.736489 0.157926 -0.407413 -0.899485
0.133910 0.812504 0.465594 -0.800829 0.595463 0.064005
0.158590 0.287104 0.287514 0.918216 0.362121 0.160459
0.562042 0.875162 0.667714 -0.341574 -0.601763 -0.721947
0.185930 0.720624 0.075836 0.474379 -0.214562 0.853773
0.648192 0.620559 0.334255 0.979483 -0.072505 -0.188031
0.431890 0.692396 0.107911 0.218264 0.345863 -0.912546
0.232754 0.106589 0.495323 -0.725123 -0.303601 0.618080
0.635858 0.748192 0.442982 0.920896 0.389679 0.010022
0.580471 0.269554 0.470608 0.903285 -0.425887 0.051937
0.123113 0.564498 0.224344 -0.853586 -0.078507 -0.515002
0.538891 0.857521 0.684769 -0.304776 -0.546059 -0.780341
0.060158 0.517932 0.329801 0.985415 -0.015398 -0.169471
0.558015 0.532618 0.643267 0.763548 -0.135742 0.631323
0.494416 0.427029 0.139769 0.505620 -0.275759 -0.817500
0.659196 0.891635 0.355334 -0.702639 -0.706447 0.085033
0.593300 0.617497 0.640661 0.825496 -0.228439 0.516111
0.512258 0.479846 0.135360 0.607296 -0.159099 -0.778383
0.179994 0.273512 0.289268 -0.779282 -0.300117 -0.550136
0.076914 0.466520 0.354812 0.610429 -0.368579 -0.701089
0.225353 0.314758 0.202793 -0.508930 -0.434718 -0.742974
0.217671 0.869653 0.682615 0.360830 -0.538448 -0.761495
0.073026 0.866656 0.442540 0.806841 -0.590730 -0.006779
0.517393 0.693709 0.141467 0.538188 0.279021 -0.795299
0.594635 0.387718 0.238907 -0.813937 0.293861 0.501151
0.569083 0.942781 0.373082 -0.427544 -0.901095 0.072349
0.283695 0.316484 0.143682 0.274203 0.338629 0.900079
0.415243 0.908011 0.392772 0.100066 0.990589 -0.093384
0.563130 0.262608 0.312415 -0.909760 0.388928 0.145161
0.497736 0.061913 0.476343 0.773157 -0.222689 0.593834
0.391505 0.968344 0.281793 -0.063217 -0.956514 0.284754
0.161355 0.788581 0.623341 -0.718195 0.483997 0.499942
0.513561 0.752475 0.676150 0.469265 0.422518 0.775415
0.632723 0.692324 0.308705 0.931779 0.179546 -0.315517
0.320543 0.409483 0.098197 0.145407 0.379560 0.913669
0.537320 0.631884 0.155475 0.641112 0.078056 -0.763468
0.311709 0.576199 0.742564 -0.468642 -0.585317 0.661649
0.254542 0.283586 0.161072 0.371512 0.336806 0.865182
0.076751 0.699233 0.417111 -0.974658 0.221612 -0.030492
0.594220 0.333823 0.548720 0.868593 -0.263090 0.419916
0.375123 0.714957 0.097645 0.034089 0.454455 -0.890117
0.314019 0.217391 0.220193 -0.203299 -0.357614 -0.911472
0.174601 0.793297 0.102056 0.489091 -0.400999 0.774590
0.382106 0.717796 0.040485 -0.039202 -0.171383 0.984424
0.140961 0.326090 0.273038 0.919222 0.327887 0.217994
0.518726 0.881463 0.495862 0.460070 0.853295 0.245404
0.061061 0.841560 0.404211 0.853050 -0.520548 0.036552
0.393331 0.545750 0.710956 0.821960 -0.290347 0.489979
0.338330 0.506657 0.050104 0.079604 0.323543 0.942859
0.302287 0.089602 0.256820 -0.266797 -0.238843 -0.933688
0.613861 0.924298 0.279741 -0.537341 -0.815298 0.215765
0.404730 0.538003 0.087652 0.158571 -0.061807 -0.985411
0.217650 0.779115 0.178765 -0.466770 0.560223 -0.684307
0.665129 0.752521 0.563097 -0.919414 0.273419 -0.282700
0.324280 0.829398 0.668259 -0.107552 0.716889 0.688842
0.164085 0.471466 0.151300 0.656941 0.328235 0.678741
0.047173 0.711801 0.455827 0.995054 0.059490 -0.079548
0.287445 0.409851 0.110150 0.255993 0.373935 0.891426
0.689593 0.712594 0.354914 -0.992537 0.105448 0.061245
0.164871 0.749665 0.640967 -0.698610 0.403832 0.590646
0.595785 0.720230 0.117393 -0.626299 -0.112708 0.771393
0.282489 0.422843 0.704535 -0.735060 0.068128 0.674571
0.411364 0.288317 0.664279 0.141319 -0.987746 -0.066229
0.262193 0.586933 0.655193 0.407546 0.336652 0.848865
0.363558 0.308128 0.754223 -0.003950 -0.605732 0.795659
0.564162 0.846332 0.492990 0.695176 0.697320 0.174572
0.061760 0.692688 0.263300 0.947796 0.033096 0.317156
0.266070 0.966634 0.317283 0.256322 -0.958284 0.126453
0.534977 0.372576 0.629539 0.676455 -0.139386 0.723173
0.558421 0.449034 0.159701 -0.686612 0.325539 0.650068
0.635549 0.594029 0.307579 0.956310 -0.135018 -0.259311
0.291326 0.354242 0.152237 -0.273796 -0.452980 -0.848437
0.653491 0.817070 0.210749 -0.771439 -0.452712 0.447139
0.271100 0.892541 0.126946 0.278968 -0.702833 0.654372
0.202797 0.829585 0.105872 0.435263 -0.523091 0.732750
0.501031 0.263609 0.635748 0.713609 -0.242922 0.657077
0.518501 0.365709 0.188639 0.573703 -0.375585 -0.727874
0.349674 0.390346 0.112612 -0.052578 -0.420742 -0.905655
0.541607 0.580298 0.088955 -0.549221 0.221777 0.805712
0.071015 0.645371 0.386469 -0.996490 -0.013062 -0.082687
0.422403 0.116654 0.563764 0.381316 -0.761317 0.524399
0.465603 0.644041 0.725348 0.348203 0.145903 0.925995
0.386176 0.256687 0.192302 0.089882 -0.429776 -0.898451
0.390224 0.794179 0.061139 -0.055151 -0.344579 0.937136
0.603955 0.422368 0.236174 -0.844211 0.300333 0.443968
0.188291 0.102494 0.320517 -0.869505 -0.104672 -0.482706
0.194902 0.129060 0.313136 -0.811122 -0.139201 -0.568071
0.241718 0.752307 0.138565 -0.383561 0.507003 -0.771899
0.066890 0.455077 0.336100 0.991744 0.123031 0.036148
0.667547 0.874188 0.489836 -0.810485 -0.580453 -0.078662
0.251305 0.534822 0.068437 0.342601 0.297664 0.891078
0.083612 0.500695 0.425047 0.906024 -0.122118 -0.405226
0.569192 0.613383 0.661406 0.700290 -0.239467 0.672495
0.416301 0.341681 0.538337 0.039887 0.984422 0.171240
0.134785 0.804742 0.492867 -0.806702 0.575464 0.134436
0.344917 0.908401 0.671194 0.030884 -0.734184 -0.678248
0.543266 0.275818 0.214981 -0.773039 0.373989 0.512390
0.680059 0.847391 0.469897 -0.872163 -0.483611 -0.073835
0.640900 0.590036 0.341639 -0.647526 0.754383 -0.107779
0.423743 0.897376 0.533718 0.149984 0.953616 0.261000
0.435960 0.937578 0.613730 -0.105690 -0.900513 -0.421789
0.588226 0.821579 0.479782 0.785274 0.608950 0.111912
0.572812 0.659633 0.195294 0.751988 0.109950 -0.649942
0.100770 0.529702 0.224259 0.902110 0.237863 0.360025
0.296236 0.558894 0.668055 -0.535485 -0.414273 0.735958
0.232608 0.894610 0.474380 -0.362097 0.907617 0.212407
0.326989 0.131963 0.617693 -0.230092 -0.905487 0.356582
0.466360 0.490905 0.685160 0.413131 0.100865 0.905069
0.163689 0.230148 0.382609 -0.980190 -0.197162 -0.018837
0.383131 0.899888 0.541340 0.047108 0.976673 0.209499
0.617735 0.624403 0.584226 0.886037 -0.167505 0.432297
0.254831 0.683593 0.712740 -0.337389 0.296135 0.893573
0.499052 0.499883 0.674270 0.409466 -0.007549 0.912294
0.052265 0.742899 0.521506 0.879095 0.215589 -0.425104
0.301638 0.276730 0.529281 0.834163 -0.093776 -0.543487
0.220034 0.591399 0.694126 -0.298526 -0.921308 0.249149
0.462528 0.334029 0.554078 0.515885 0.841653 0.159631
0.680526 0.812686 0.547136 -0.938658 -0.266422 -0.218952
0.095579 0.492118 0.309536 -0.616824 0.259149 0.743216
0.117569 0.353434 0.514703 -0.936216 -0.277771 0.215273
0.397029 0.810070 0.070542 -0.071371 -0.397230 0.914939
0.353758 0.138475 0.696743 -0.086251 -0.924613 0.371015
0.190806 0.803793 0.639219 -0.605894 0.537029 0.586935
0.430567 0.331690 0.713904 0.665406 0.094153 0.740520
0.457055 0.600473 0.631761 -0.626162 0.556414 0.546191
0.301182 0.863324 0.104137 0.163778 -0.574689 0.801816
0.224529 0.825854 0.635417 -0.452435 0.607727 0.652663
0.454649 0.530932 0.062646 -0.326501 0.296414 0.897516
0.359460 0.286106 0.746181 -0.053814 0.311418 0.948748
0.076345 0.819540 0.274483 0.827318 -0.496851 0.262076
0.439692 0.967623 0.373779 -0.123621 -0.991714 0.034942
0.126990 0.389959 0.259389 0.834844 0.297418 0.463226
0.525679 0.282549 0.253987 0.649311 -0.404614 -0.643959
0.456971 0.584222 0.102611 0.360583 0.021404 -0.932481
0.441171 0.871632 0.575548 0.195221 0.876118 0.440801
0.431693 0.311201 0.723011 0.607852 -0.253963 0.752342
0.463129 0.686217 0.713795 0.302893 0.302768 0.903652
0.407587 0.745378 0.051640 -0.096435 -0.238193 0.966418
0.224918 0.602568 0.706267 -0.487490 -0.417150 0.767033
0.595439 0.567526 0.577570 0.822607 -0.297303 0.484694
0.283137 0.554315 0.640053 0.910467 -0.271900 0.311642
0.354210 0.804881 0.152764 -0.029547 0.725108 -0.688001
0.207240 0.879128 0.442317 -0.507921 0.856631 0.090552
0.568522 0.820714 0.130813 -0.529133 -0.485486 0.695932
0.545619 0.174429 0.414358 0.941536 -0.229047 0.247076
0.531553 0.661529 0.742561 -0.279556 0.457145 -0.844315
0.496526 0.955925 0.517770 -0.207888 -0.967677 -0.142775
0.281054 0.827727 0.735802 0.182937 -0.426947 -0.885579
0.073904 0.825188 0.306813 0.848181 -0.496484 0.184642
0.686896 0.698150 0.346396 -0.985602 0.151917 0.074230
0.130615 0.626836 0.122758 0.760713 0.079728 0.644173
0.300707 0.403948 0.753601 -0.851009 -0.333978 0.405268
0.412989 0.821368 0.674338 0.130490 0.669008 0.731711
0.143988 0.319450 0.337959 0.932023 0.345328 0.109914
0.357981 0.468802 0.797198 -0.252800 0.563291 0.786635
0.651435 0.605953 0.293468 -0.951333 0.275532 0.138014
0.485387 0.451649 0.675576 0.510490 0.011439 0.859808
0.676097 0.679932 0.476739 -0.945074 0.273763 -0.178576
0.185659 0.834016 0.126630 0.505342 -0.549363 0.665455
0.254093 0.762160 0.674681 0.548639 0.710006 -0.441459
0.293533 0.167128 0.209115 0.273396 0.773096 0.572344
0.143319 0.803406 0.314980 -0.736792 0.593227 -0.324374
0.333124 0.265685 0.190373 -0.123157 -0.447040 -0.885995
0.156313 0.834009 0.371077 -0.719908 0.668125 -0.187991
0.629339 0.862384 0.224066 -0.677922 -0.619359 0.396001
0.278625 0.752169 0.727953 0.549168 0.539396 -0.638331
0.093796 0.860332 0.310001 0.732658 -0.657954 0.174095
0.355309 0.855224 0.090069 0.025956 -0.525869 0.850169
0.183907 0.547309 0.650070 -0.520113 -0.297793 0.800501
0.110973 0.434597 0.529673 -0.936195 -0.093016 0.338949
0.593351 0.712394 0.114628 -0.618750 -0.095461 0.779766
0.179647 0.682931 0.682541 -0.601908 0.260018 0.755048
0.538945 0.613932 0.690071 0.616281 -0.264404 0.741814
0.488589 0.457585 0.673876 0.479176 0.017883 0.877537
0.582465 0.760582 0.619163 0.755118 0.400016 0.519408
0.107776 0.415387 0.337662 -0.931490 -0.244706 -0.269156
0.272304 0.526760 0.624383 0.676080 -0.689269 0.260431
0.256183 0.844613 0.730983 0.232756 -0.510554 -0.827744
0.246463 0.523292 0.073895 0.370612 0.317565 0.872811
0.110535 0.638729 0.253225 -0.890555 0.042361 -0.452899
0.700327 0.765165 0.368416 -0.996171 -0.074414 0.045896
0.357630 0.874437 0.099642 0.019970 -0.579650 0.814621
0.255471 0.384943 0.130164 0.360420 0.343091 0.867402
0.100053 0.456675 0.495627 -0.979088 -0.075924 0.188738
0.525461 0.858903 0.279302 0.485415 0.750146 -0.449057
0.363659 0.314648 0.511835 -0.000610 -0.985423 -0.170123
0.484299 0.892460 0.334778 0.349607 0.920377 -0.175158
0.252399 0.586015 0.679179 -0.219969 -0.964637 0.145222
0.208489 0.104547 0.299191 -0.725935 -0.153183 -0.670487
0.103575 0.476700 0.237030 0.866404 0.281025 0.412757
0.647232 0.622272 0.515655 0.970956 -0.136620 0.196415
0.421669 0.678365 0.101812 0.191993 0.304253 -0.933043
0.356304 0.849539 0.636894 -0.020425 0.852319 0.522623
0.455398 0.172214 0.221652 -0.340192 0.757572 0.557094
0.127758 0.804702 0.454351 -0.819574 0.571603 0.039614
0.592000 0.932599 0.532089 -0.488673 -0.861180 -0.139888
0.591529 0.794143 0.127684 -0.573083 -0.388557 0.721526
0.179306 0.273923 0.291024 -0.782265 -0.300500 -0.545675
0.492139 0.895714 0.442620 0.357536 0.924294 0.133600
0.140831 0.357450 0.578425 -0.826801 -0.151330 0.541755
0.168213 0.811605 0.612170 -0.697249 0.552771 0.456386
0.103946 0.498464 0.333058 0.970676 0.215976 0.105559
0.378162 0.408022 0.088253 -0.042173 0.379038 0.924420
0.306458 0.953033 0.242968 0.188787 -0.920174 0.342985
0.483915 0.824953 0.732701 -0.170663 -0.392677 -0.903703
0.229254 0.892696 0.475403 -0.378323 0.901280 0.211109
0.265793 0.134556 0.255461 -0.407825 -0.277495 -0.869871
0.500867 0.889506 0.385961 0.427048 0.903722 -0.030287
0.646787 0.904185 0.325946 -0.648633 -0.747815 0.141593
0.392228 0.670571 0.704087 0.213831 0.802110 -0.557580
0.205526 0.868569 0.675369 0.406011 -0.508729 -0.759177
0.444744 0.281795 0.155218 -0.283655 0.348245 0.893457
0.260603 0.503757 0.682692 -0.356477 0.143428 0.923229
0.417705 0.855136 0.613046 0.136119 0.838862 0.527050
0.093621 0.874082 0.612259 0.705543 -0.567791 -0.424056
0.250082 0.687034 0.119985 -0.401612 0.294579 -0.867139
0.305470 0.639356 0.094490 -0.224698 0.173405 -0.958875
0.269473 0.305527 0.188724 -0.354500 -0.474703 -0.805597
0.413284 0.676129 0.729181 0.150103 0.318321 0.936024
0.419121 0.308424 0.547866 0.111616 -0.980865 -0.159515
0.187256 0.906946 0.225877 0.489148 -0.808724 0.326650
0.467310 0.504507 0.111505 0.432237 -0.127507 -0.892700
0.557480 0.859087 0.440957 0.664543 0.745745 0.047413
0.263720 0.291904 0.155803 0.342185 0.339236 0.876258
0.075855 0.852655 0.512516 0.873739 -0.474580 -0.106556
0.296248 0.894642 0.536359 -0.173912 0.942425 0.285639
0.267617 0.138740 0.253975 -0.400323 -0.281227 -0.872154
0.046241 0.765750 0.489750 0.967714 -0.216956 -0.128293
0.525068 0.781043 0.079925 -0.360930 -0.348381 0.865078
0.104917 0.501615 0.279033 0.936205 0.243170 0.253749
0.196613 0.814585 0.634359 0.532331 0.766572 -0.359153
0.200027 0.294170 0.249067 -0.644730 -0.412346 -0.643657
0.637505 0.536742 0.424311 0.652748 0.296517 0.697135
0.132149 0.596775 0.618337 -0.827574 -0.309550 0.468295
0.314709 0.287248 0.670469 -0.149331 -0.987590 -0.048643
0.133658 0.391601 0.229600 0.799704 0.310917 0.513618
0.091757 0.487930 0.448239 -0.999207 0.038487 -0.010244
0.145287 0.316595 0.300926 0.925470 0.340830 0.165348
0.294660 0.775085 0.063551 0.183696 -0.318312 0.930018
0.288660 0.876504 0.688730 0.099208 -0.641792 -0.760434
0.605326 0.341502 0.499094 0.935320 -0.313724 0.163568
0.610503 0.778225 0.339328 0.838867 0.491187 -0.234599
0.510751 0.088459 0.296548 0.679232 -0.143829 -0.719693
0.630763 0.440952 0.343798 0.955885 -0.148703 -0.253320
0.619313 0.450251 0.526567 0.940798 -0.078530 0.329745
0.144362 0.638643 0.644903 -0.760926 -0.013218 0.648704
0.566602 0.557626 0.184477 0.763114 -0.094186 -0.639363
0.663710 0.578871 0.328969 0.796542 -0.537192 0.277390
0.353832 0.939324 0.613160 0.013544 -0.918272 -0.395718
0.294639 0.925946 0.165590 0.224543 -0.814518 0.534922
0.274170 0.474620 0.691851 -0.512236 0.087921 0.854333
0.560365 0.255293 0.236302 -0.841869 0.406634 0.354833
0.645630 0.583442 0.453667 -0.901548 0.385900 -0.195686
0.193212 0.211101 0.513565 -0.816785 -0.552640 0.165684
0.619325 0.432981 0.520932 0.950003 -0.099834 0.295850
0.602614 0.318805 0.436490 0.927969 -0.369604 -0.047604
0.255321 0.893025 0.527003 -0.275184 0.904159 0.326758
0.168240 0.644531 0.674445 -0.670533 0.046304 0.740433
0.211727 0.446806 0.659616 -0.504571 -0.060781 0.861228
0.512082 0.582401 0.063940 -0.445371 0.215121 0.869119
0.546211 0.947921 0.325101 -0.348962 -0.932469 0.093419
0.461491 0.947247 0.233084 -0.252918 -0.906661 0.337637
0.104299 0.659223 0.147079 0.795281 0.005665 0.606215
0.325426 0.363468 0.117664 0.129160 0.357102 0.925092
0.284868 0.578426 0.097954 -0.307333 0.015698 -0.951473
0.111136 0.491138 0.183537 0.810633 0.290612 0.508349
0.525324 0.373346 0.193028 0.602155 -0.360630 -0.712288
0.205383 0.951641 0.368197 0.358485 -0.931030 0.068347
0.382510 0.206042 0.732800 0.181052 0.115083 0.976717
0.361771 0.441560 0.816606 -0.087182 0.491827 0.866317
0.510442 0.939771 0.598467 -0.256602 -0.889840 -0.377280
0.250131 0.392270 0.148509 -0.433707 -0.360057 -0.825989
0.428977 0.395714 0.736283 0.763837 -0.351945 0.541006
0.347987 0.905307 0.518788 -0.045662 0.989059 0.140273
0.477994 0.964294 0.431251 -0.208879 -0.977503 -0.029267
0.271660 0.631499 0.103942 -0.353439 0.126389 -0.926880
0.135452 0.637105 0.117436 0.734069 0.043292 0.677693
0.295659 0.317904 0.171513 -0.257823 -0.486507 -0.834768
0.165531 0.541611 0.181462 -0.757568 -0.094738 -0.645845
0.405053 0.480363 0.732614 0.755224 0.374240 0.538128
0.664670 0.823467 0.601418 -0.920093 -0.161910 -0.356670
0.255692 0.701738 0.706571 -0.330741 0.331980 0.883402
0.650028 0.607998 0.272333 -0.941083 0.261589 0.214323
0.667917 0.646960 0.408791 -0.954181 0.289633 -0.075173
0.527999 0.448720 0.162358 0.632502 -0.240088 -0.736410
0.200766 0.579816 0.662086 -0.429190 0.316188 0.846062
0.633015 0.483585 0.417020 0.994682 0.088832 -0.052126
0.124917 0.431615 0.563165 -0.875078 -0.084275 0.476587
0.230703 0.662772 0.120165 -0.487947 0.187666 -0.852460
0.137176 0.362444 0.302823 -0.850570 -0.354639 -0.388282
0.568940 0.320906 0.586815 0.779619 -0.217369 0.587320
0.555097 0.946676 0.407449 -0.397708 -0.917335 0.018049
0.593529 0.666325 0.218152 0.808424 0.109319 -0.578360
0.526291 0.676260 0.756001 -0.247264 0.276772 -0.928578
0.084199 0.381882 0.376715 0.084400 0.725652 0.682866
0.521734 0.878478 0.331013 0.480577 0.837759 -0.259241
0.606312 0.520782 0.330108 0.981514 -0.116144 -0.152119
0.677164 0.858933 0.481176 -0.854225 -0.514635 -0.073824
0.613334 0.525450 0.375624 -0.928396 0.330445 -0.169964
0.304492 0.793752 0.067341 0.154065 -0.361628 0.919505
0.298668 0.502671 0.693703 -0.490499 0.368376 0.789753
0.043326 0.730815 0.404444 0.999824 -0.017024 0.007892
0.225393 0.586996 0.674745 -0.060281 -0.075595 0.995315
0.500526 0.523483 0.651828 -0.060793 -0.788208 0.612399
0.406711 0.730859 0.753984 0.101652 -0.007504 -0.994792
0.289422 0.277149 0.703839 -0.629645 -0.154700 0.761325
0.359153 0.282705 0.696762 -0.026095 -0.993049 -0.114777
0.177342 0.111232 0.376266 -0.983388 -0.105007 0.148060
0.350929 0.905377 0.523849 -0.036788 0.988450 0.147016
0.358485 0.892543 0.683403 0.013597 -0.684962 -0.728452
0.303167 0.038551 0.516817 -0.370701 -0.323839 0.870465
0.371900 0.680007 0.696228 0.272556 0.825643 -0.493990
0.624716 0.428555 0.336381 0.928719 -0.256213 -0.268024
0.645908 0.752600 0.169318 -0.783576 -0.192548 0.590706
0.175781 0.826310 0.705461 0.459487 0.660442 -0.593876
0.236747 0.941277 0.273984 0.371044 -0.900662 0.226131
0.145248 0.792593 0.275035 -0.708877 0.561167 -0.427300
0.265908 0.339703 0.688515 -0.709297 -0.023058 0.704533
0.630998 0.459543 0.466164 0.993394 -0.085443 0.076596
0.183801 0.379312 0.624247 -0.686570 -0.157085 0.709892
0.375390 0.357609 0.111257 -0.033735 0.356273 0.933773
0.577907 0.520174 0.600880 0.812679 -0.065347 0.579035
0.447353 0.190869 0.180165 -0.348456 0.665707 0.659858
0.649446 0.495083 0.347729 0.605094 0.050082 0.794577
0.279558 0.966612 0.412845 0.189646 -0.981776 0.012223
0.229656 0.423291 0.666470 -0.552556 -0.035382 0.832724
0.560967 0.882019 0.661307 -0.363984 -0.623757 -0.691695
0.477304 0.894814 0.676734 -0.200609 -0.662487 -0.721711
0.370632 0.712844 0.764415 0.261755 0.242289 -0.934227
0.164514 0.271644 0.297648 0.906270 0.392520 0.156853
0.388990 0.691404 0.730396 0.069179 0.369513 0.926647
0.190216 0.919412 0.280745 0.470127 -0.856759 0.211999
0.607397 0.515526 0.552687 0.879508 -0.099341 0.465399
0.458432 0.635637 0.104887 0.362467 0.132567 -0.922520
0.363754 0.413059 0.080657 0.002024 0.381528 0.924355
0.250907 0.584670 0.706878 -0.277404 -0.928859 0.245494
0.227614 0.180951 0.251693 0.590194 0.696060 0.408866
0.420017 0.285713 0.188920 0.211586 -0.473017 -0.855270
0.566651 0.439822 0.210578 0.759369 -0.237601 -0.605727
0.440409 0.576254 0.623965 -0.863598 0.119019 0.489931
0.200452 0.412210 0.176439 -0.616367 -0.302332 -0.727109
0.520347 0.878943 0.400736 0.515342 0.856856 -0.014855
0.585368 0.303965 0.377724 0.921214 -0.326154 -0.212103
0.677329 0.588402 0.314562 0.854092 0.285258 -0.434920
0.488998 0.499724 0.119181 0.521062 -0.127885 -0.843884
0.664208 0.775846 0.604814 -0.931144 0.166118 -0.324616
0.096827 0.456844 0.328073 -0.509281 0.405997 0.758814
0.355019 0.948451 0.219309 0.035126 -0.876978 0.479245
0.125899 0.390986 0.555470 -0.889481 -0.138117 0.435600
0.058022 0.736093 0.533650 0.622300 0.502363 -0.600312
0.305454 0.907703 0.383376 -0.126484 0.986455 -0.104442
0.623789 0.693439 0.568657 -0.784135 0.589589 -0.193695
0.119658 0.870828 0.253112 0.637739 -0.718733 0.276969
0.405213 0.155379 0.239895 -0.132579 0.791067 0.597189
0.109360 0.418627 0.297542 0.897838 0.290576 0.330836
0.531935 0.854849 0.555746 0.536291 0.752468 0.382340
0.635870 0.586485 0.371618 -0.450142 0.873595 0.184944
0.640378 0.752215 0.382568 0.916891 0.381845 -0.116215
0.596061 0.346173 0.549664 0.889761 -0.214190 0.403049
0.635255 0.474515 0.371437 0.967771 0.183520 -0.172451
0.271018 0.344727 0.520703 -0.113183 0.978567 0.172038
0.301090 0.906032 0.667819 0.100888 -0.730942 -0.674941
0.546540 0.920867 0.211462 -0.441502 -0.809158 0.387736
0.508035 0.641835 0.054891 -0.369862 0.027968 0.928666
0.058224 0.667304 0.316441 0.979497 0.152799 0.131295
0.093762 0.553415 0.459889 -0.980924 -0.160869 0.109128
0.414786 0.287763 0.667486 0.151356 -0.987005 -0.053960
0.299495 0.822691 0.179766 -0.187917 0.729603 -0.657546
0.505035 0.707003 0.132351 0.478043 0.330231 -0.813893
0.379572 0.732130 0.043405 -0.032950 -0.201843 0.978864
0.534552 0.466899 0.648310 0.598506 -0.088481 0.796217
0.645589 0.586062 0.343791 0.970824 -0.192345 -0.143196
0.111813 0.744803 0.510825 -0.258942 0.734654 -0.627082
0.566389 0.564621 0.630175 0.817198 -0.054267 0.573797
0.532516 0.752251 0.169360 0.534698 0.469688 -0.702489
0.262419 0.213643 0.655725 -0.732281 -0.309995 0.606356
0.304265 0.722192 0.710811 -0.172160 0.402979 0.898871
0.222200 0.617221 0.120362 -0.528619 0.070771 -0.845904
0.347626 0.299368 0.600301 -0.036938 -0.986093 -0.162037
0.563156 0.241989 0.498087 0.867989 -0.482161 0.118805
0.203622 0.594225 0.687152 -0.317049 -0.897123 0.307653
0.645200 0.500795 0.421003 0.946557 0.109464 0.303393
0.438922 0.602583 0.097213 0.289880 0.064259 -0.954903
0.453111 0.716217 0.053064 -0.201835 -0.185204 0.961749
0.162974 0.356258 0.258845 -0.764776 -0.374660 -0.524163
0.146376 0.271387 0.437681 -0.927585 -0.373458 0.010773
0.143681 0.287836 0.386284 -0.929709 -0.326599 -0.170218
0.615292 0.374907 0.502063 0.958558 -0.217605 0.183890
0.327507 0.043852 0.526966 -0.223993 -0.359674 0.905793
0.225565 0.515746 0.083447 0.442304 0.329702 0.834065
0.250119 0.787540 0.745816 0.528922 0.343302 -0.776135
0.250871 0.780905 0.724800 0.539252 0.517669 -0.664249
0.336245 0.884754 0.566470 -0.072389 0.945594 0.317194
0.507681 0.950304 0.575830 -0.198439 -0.949121 -0.244525
0.532864 0.086066 0.312828 0.801233 -0.098581 -0.590176
0.419828 0.645662 0.736527 0.202229 0.201280 0.958431
0.349611 0.523533 0.750495 -0.711826 0.298852 0.635603
0.385206 0.291098 0.138866 -0.075080 0.359106 0.930272
0.372626 0.268286 0.182554 0.034459 -0.446268 -0.894236
0.523680 0.283789 0.194956 -0.659799 0.352121 0.663834
0.127625 0.329202 0.504703 -0.926356 -0.331705 0.178428
0.226486 0.235930 0.625129 -0.725184 -0.322282 0.608475
0.566479 0.933192 0.270850 -0.455819 -0.855166 0.246818
0.104728 0.582695 0.273673 -0.928231 -0.112941 -0.354445
0.482951 0.600267 0.052075 -0.343071 0.174103 0.923033
0.093143 0.685195 0.554792 -0.920993 0.199244 0.334773
0.514070 0.620013 0.129664 0.559746 0.068480 -0.825830
0.519895 0.279223 0.192815 -0.635431 0.359114 0.683567
0.358574 0.806848 0.153562 -0.016868 0.733355 -0.679637
0.437879 0.519208 0.100274 0.294585 -0.112522 -0.948977
0.099643 0.536812 0.174797 0.841334 0.248192 0.480165
0.652123 0.817341 0.672354 -0.718612 -0.242212 -0.651867
0.616776 0.641296 0.598320 0.869694 -0.047553 0.491294
0.184166 0.839894 0.133256 0.517610 -0.571077 0.637143
0.373463 0.687990 0.729233 0.308709 0.566899 -0.763757
0.513867 0.426628 0.153840 0.570725 -0.279696 -0.772039
0.471233 0.665426 0.758257 -0.028440 0.350449 -0.936150
0.520702 0.830301 0.617352 0.508716 0.638045 0.578020
0.070478 0.697874 0.204788 0.875188 -0.050544 0.481136
0.418944 0.131672 0.245799 0.239395 -0.266454 -0.933645
0.596066 0.301904 0.457345 0.921776 -0.387721 0.001215
0.551493 0.912683 0.195859 -0.461494 -0.778331 0.425704
0.462563 0.502095 0.684421 0.375988 0.154399 0.913671
0.499759 0.890217 0.373686 0.421000 0.904672 -0.065787
0.101955 0.467569 0.375997 0.804195 -0.531450 -0.266142
0.073230 0.388110 0.379660 0.866678 0.422283 0.265604
0.261412 0.328769 0.562829 -0.790619 0.597149 0.135404
0.403443 0.070099 0.533928 0.244643 -0.437566 0.865266
0.363838 0.940054 0.192445 0.006401 -0.826764 0.562513
0.428095 0.766949 0.134357 0.196200 0.585385 -0.786657
0.121149 0.399869 0.546203 -0.908385 -0.130364 0.397294
0.607293 0.363319 0.357810 0.899704 -0.362241 -0.243545
0.520887 0.907582 0.651443 -0.296441 -0.710955 -0.637704
0.478696 0.648277 0.049030 -0.296331 0.006927 0.955060
0.390251 0.441898 0.077110 -0.080313 0.383067 0.920223
0.675526 0.669960 0.428107 -0.957527 0.273262 -0.092033
0.330082 0.910864 0.361952 -0.060319 0.988418 -0.139250
0.342400 0.289427 0.657850 -0.065571 -0.988828 -0.133862
0.549687 0.589630 0.092085 -0.560092 0.208541 0.801753
0.486685 0.453500 0.129203 0.499203 -0.220357 -0.837997
0.330751 0.654579 0.740226 -0.115975 0.267911 0.956438
0.332455 0.265571 0.730776 -0.376618 -0.310930 0.872629
0.097579 0.589495 0.523476 -0.933346 -0.200249 0.297936
0.149111 0.266642 0.437688 -0.927551 -0.373213 0.019021
0.123028 0.362240 0.340083 -0.889416 -0.351544 -0.292158
0.213751 0.116319 0.483700 -0.808575 -0.264952 0.525364
0.514346 0.239527 0.612735 0.753590 -0.348246 0.557518
0.616402 0.448746 0.250064 -0.905663 0.279994 0.318399
0.639218 0.711372 0.565685 -0.837672 0.500264 -0.219184
0.160086 0.786847 0.251958 -0.666517 0.558747 -0.493515
0.468812 0.743857 0.752779 -0.081346 -0.027672 -0.996302
0.455731 0.433012 0.688468 0.622280 0.053107 0.780991
0.490190 0.756236 0.683919 0.368701 0.426915 0.825714
0.288795 0.302860 0.704994 -0.577460 -0.372190 0.726646
0.086417 0.598259 0.324135 -0.972300 -0.116985 -0.202356
0.215801 0.961601 0.441680 0.326467 -0.945205 0.002562
0.104597 0.548160 0.516811 -0.930274 -0.140315 0.338973
0.341715 0.571269 0.747136 -0.182721 -0.211940 0.960049
0.632892 0.495516 0.457622 0.996578 -0.060984 0.055800
0.237789 0.718503 0.060460 0.343741 -0.199966 0.917527
0.060711 0.736931 0.254851 0.935763 -0.149308 0.319461
0.529474 0.956395 0.472352 -0.316662 -0.945557 -0.075151
0.597713 0.792756 0.329822 0.796318 0.543003 -0.266504
0.243782 0.291825 0.206763 -0.443792 -0.456511 -0.771133
0.459831 0.941989 0.602221 -0.140758 -0.918875 -0.368585
0.638381 0.642772 0.550201 0.943887 -0.030151 0.328890
0.230566 0.711815 0.060189 0.362896 -0.185674 0.913144
0.150763 0.916081 0.377136 0.531470 -0.842264 0.090174
0.177857 0.161740 0.389250 -0.975455 -0.163284 0.147737
0.607429 0.680980 0.586848 -0.729107 0.651675 -0.209102
0.237190 0.348753 0.664361 -0.661064 -0.065324 0.747481
0.428271 0.968313 0.439989 -0.110095 -0.993455 -0.030445
0.088804 0.872718 0.553708 0.802660 -0.553778 -0.221511
0.633346 0.480735 0.272237 -0.963066 0.237052 0.127708
0.202429 0.088216 0.305320 -0.757053 -0.125970 -0.641094
0.396788 0.347539 0.121736 -0.107286 0.345193 0.932380
0.540595 0.131964 0.415891 0.937756 -0.185417 0.293656
0.090278 0.485826 0.433272 -0.996188 0.065327 -0.057802
0.686561 0.716199 0.427693 -0.988699 0.127246 -0.079263
0.104620 0.478394 0.354137 -0.982630 0.051744 -0.178218
0.430543 0.454211 0.712377 0.685559 0.111453 0.719435
0.601969 0.612946 0.624514 0.848780 -0.284453 0.445711
0.181610 0.404052 0.202887 -0.682047 -0.314908 -0.660034
0.494908 0.759771 0.681304 0.384937 0.432897 0.815122
0.666196 0.509121 0.320524 0.995950 -0.034666 -0.082959
0.357470 0.341350 0.540257 0.033360 0.984825 0.170312
0.084265 0.443641 0.327806 -0.384219 0.509531 0.769905
0.534503 0.346570 0.620035 0.684210 -0.152358 0.713192
0.269121 0.309610 0.549798 -0.336097 -0.931141 -0.141474
0.070104 0.818595 0.585214 0.863110 -0.214684 -0.457113
0.356022 0.177941 0.222658 -0.033559 -0.292552 -0.955661
0.064193 0.536974 0.304171 0.902841 0.066904 -0.424737
0.140435 0.598713 0.632294 -0.770771 -0.408111 0.489242
0.602641 0.674611 0.577687 -0.712944 0.672886 -0.197320
0.674611 0.763111 0.226395 -0.882873 -0.225419 0.411973
0.416910 0.236029 0.211519 0.216889 -0.397358 -0.891665
0.585239 0.326123 0.345114 -0.941411 0.326769 0.083476
0.176136 0.518906 0.645721 -0.723462 -0.139314 0.676161
0.524365 0.789478 0.654287 0.527254 0.507329 0.681631
0.057739 0.770434 0.250650 0.900555 -0.285059 0.328241
0.323552 0.966190 0.491562 0.080293 -0.993612 -0.079295
0.233904 0.270311 0.643717 -0.710948 -0.213821 0.669951
0.248375 0.334397 0.149207 0.385270 0.312201 0.868388
0.317446 0.346274 0.511746 -0.019254 0.985056 0.171153
0.081079 0.856797 0.553998 0.835238 -0.497107 -0.235078
0.409019 0.285919 0.706674 0.441621 -0.172416 0.880479
0.228645 0.891962 0.460352 -0.391444 0.904416 0.169716
0.477233 0.421884 0.118193 -0.347103 0.362886 0.864773
0.640686 0.909045 0.319288 -0.625798 -0.764378 0.155251
0.529219 0.952379 0.309047 -0.296861 -0.950324 0.093587
0.144289 0.511184 0.592694 -0.828705 -0.050240 0.557426
0.258291 0.919663 0.652438 0.179869 -0.766512 -0.616528
0.539661 0.114553 0.414474 0.938154 -0.168385 0.302513
0.199632 0.227720 0.590189 -0.793444 -0.432324 0.428420
0.194498 0.759597 0.662123 -0.577686 0.445458 0.683993
0.100554 0.475594 0.314718 0.947080 0.246007 0.206206
0.167183 0.319346 0.272971 -0.768667 -0.386554 -0.509635
0.425821 0.297187 0.690050 0.802322 -0.036480 0.595776
0.429984 0.777482 0.689671 0.176096 0.514919 0.838957
0.491616 0.745733 0.750463 -0.175571 -0.034370 -0.983867
0.634986 0.732579 0.334217 0.912425 0.326504 -0.246731
0.663926 0.799729 0.622491 -0.934917 0.021824 -0.354195
0.386410 0.831482 0.723164 0.038751 -0.462459 -0.885794
0.208094 0.777757 0.080398 0.396189 -0.351939 0.848041
0.630755 0.581949 0.353445 -0.584098 0.810940 -0.034724
0.681119 0.699238 0.289868 -0.969919 0.110719 0.216792
0.260884 0.064650 0.502435 -0.595051 -0.298407 0.746235
0.500392 0.339046 0.655017 0.669938 -0.098461 0.735859
0.624861 0.417425 0.340031 -0.954215 0.267177 0.134498
0.445058 0.435684 0.700750 0.681147 0.075032 0.728292
0.160675 0.618610 0.666075 -0.713582 -0.151419 0.684012
0.213491 0.292704 0.184127 0.554771 0.338951 0.759830
0.582620 0.361288 0.283451 0.825904 -0.365752 -0.429078
0.423405 0.387862 0.130401 0.226324 -0.407703 -0.884622
0.680747 0.706663 0.284965 -0.969516 0.073126 0.233863
0.465812 0.899514 0.493584 0.261640 0.937814 0.228142
0.516409 0.559302 0.130611 0.580863 -0.048365 -0.812563
0.350870 0.315927 0.687435 -0.005473 0.979345 0.202122
0.563609 0.820008 0.276916 0.631350 0.626158 -0.457518
0.655892 0.882199 0.515810 -0.786431 -0.608970 -0.103347
0.533406 0.175791 0.471539 0.871548 -0.333008 0.359875
0.594615 0.925395 0.267213 -0.512912 -0.820080 0.253751
0.413091 0.246077 0.205300 0.200976 -0.416634 -0.886580
0.482096 0.585419 0.702696 0.288559 -0.939337 0.185418
0.566628 0.311256 0.225674 -0.840448 0.319025 0.438030
0.664078 0.783692 0.612013 -0.934203 0.121123 -0.335550
0.154171 0.257177 0.483169 -0.891411 -0.443946 0.091095
0.486184 0.274619 0.656298 0.714937 -0.179515 0.675751
0.594545 0.347667 0.348063 -0.945480 0.313801 0.087156
0.106560 0.524358 0.387898 -0.988012 -0.126791 -0.088074
0.364723 0.335732 0.116937 -0.001857 0.351836 0.936060
0.251724 0.760826 0.068125 0.297130 -0.299798 0.906551
0.684464 0.752529 0.278428 -0.954724 -0.122990 0.270877
0.075140 0.635837 0.205966 0.918596 0.125933 0.374597
0.549871 0.711235 0.744247 -0.357950 0.110586 -0.927169
0.392555 0.909682 0.398805 0.049654 0.995647 -0.078877
0.487158 0.963393 0.384637 -0.209061 -0.977895 0.003869
0.665790 0.855376 0.607096 -0.859127 -0.368416 -0.355204
0.462956 0.798937 0.075761 -0.223084 -0.383073 0.896376
0.390662 0.292640 0.716809 0.176400 -0.182225 0.967304
0.535369 0.921108 0.202997 -0.421926 -0.809848 0.407584
0.655767 0.893970 0.353947 -0.692352 -0.716097 0.088622
0.577709 0.537204 0.146524 -0.723320 0.285991 0.628505
0.342494 0.954808 0.240921 0.075024 -0.913007 0.400986
0.198782 0.183497 0.334137 0.800821 0.568221 0.189238
0.093747 0.546368 0.309595 0.966500 0.239053 0.093445
0.440350 0.948457 0.581074 -0.077053 -0.967264 -0.241792
0.424116 0.953837 0.547538 -0.070424 -0.979501 -0.188727
0.156993 0.803181 0.590582 -0.739639 0.542086 0.398845
0.687404 0.709117 0.382231 -0.991357 0.130949 0.008007
0.571402 0.293909 0.333309 -0.934183 0.344459 0.093005
0.437120 0.580015 0.719629 0.437209 -0.766456 0.470525
0.300280 0.727307 0.713638 0.514579 0.629530 -0.582152
0.317212 0.347712 0.503423 -0.016154 0.985113 0.171146
0.632105 0.513489 0.361381 0.746792 -0.439096 0.499496
0.362477 0.051430 0.541537 -0.008592 -0.395214 0.918549
0.401377 0.140194 0.663438 0.319228 -0.900449 0.295441
0.286311 0.803403 0.747716 0.313384 -0.180082 -0.932395
0.272113 0.278604 0.688024 -0.666940 -0.120305 0.735335
0.128688 0.801053 0.477737 -0.819074 0.566426 0.090994
0.362913 0.261825 0.607140 0.599036 -0.236777 -0.764913
0.368660 0.426640 0.094490 0.018188 -0.344901 -0.938463
0.237922 0.579882 0.113143 -0.479100 0.002754 -0.877756
0.608439 0.441332 0.225833 -0.863282 0.293096 0.410900
0.107828 0.439829 0.320606 -0.936572 -0.162801 -0.310369
0.552808 0.190517 0.412503 0.950930 -0.241701 0.193167
0.475885 0.900970 0.420532 0.305206 0.949453 0.073407
0.210369 0.910085 0.183958 0.446316 -0.794599 0.411600
0.618186 0.661471 0.138268 -0.735765 0.132774 0.664094
0.487981 0.931087 0.198178 -0.325408 -0.847671 0.419003
0.113858 0.357337 0.427494 -0.943499 -0.328872 -0.040664
0.099846 0.546990 0.431998 0.782182 0.522629 -0.339192
0.609709 0.524449 0.180035 -0.797175 0.273301 0.538347
0.273428 0.311632 0.529298 -0.248332 -0.956377 -0.153864
0.446440 0.178379 0.668775 0.727902 -0.397065 0.559015
0.450695 0.903266 0.408242 0.245155 0.969482 0.001833
0.151315 0.822816 0.675132 0.325575 0.723526 -0.608696
0.641348 0.579172 0.257190 -0.920615 0.282409 0.269653
0.191973 0.359645 0.181118 0.592824 0.308504 0.743898
0.387204 0.603813 0.081723 0.088402 0.101857 -0.990863
0.191607 0.857272 0.524851 -0.576633 0.764132 0.289131
0.277071 0.966334 0.390727 0.193825 -0.980606 0.029062
0.278004 0.966488 0.412982 0.193032 -0.981114 0.012408
0.491785 0.650323 0.686942 -0.206933 0.841174 -0.499605
0.573060 0.940808 0.376875 -0.441643 -0.894518 0.069198
0.385358 0.764156 0.120285 0.060467 0.598161 -0.799091
0.228956 0.530611 0.119402 -0.533511 -0.079489 -0.842050
0.152186 0.519751 0.137549 0.682111 0.293167 0.669908
0.373997 0.571002 0.032415 -0.033588 0.185466 0.982077
0.630087 0.731474 0.315971 0.897122 0.328178 -0.295757
0.112641 0.476064 0.273878 -0.928447 -0.096387 -0.358741
0.617259 0.740816 0.138745 -0.700597 -0.140519 0.699585
0.626338 0.740953 0.709622 -0.689042 0.197125 -0.697397
0.109024 0.483940 0.369548 0.780066 -0.216329 -0.587111
0.561075 0.860372 0.163923 -0.556065 -0.620613 0.552839
0.675265 0.694107 0.254827 -0.939644 0.122629 0.319425
0.064085 0.678627 0.254899 0.944120 0.066372 0.322851
0.165376 0.362641 0.204838 0.690770 0.305529 0.655354
0.327546 0.423931 0.106637 -0.141937 -0.343189 -0.928480
0.200187 0.812074 0.621475 0.535888 0.782147 -0.317914
0.629957 0.711550 0.633115 -0.797047 0.542096 -0.266174
0.080867 0.600893 0.213113 0.930382 0.212882 0.298446
0.222211 0.089921 0.480561 -0.790936 -0.245983 0.560280
0.080145 0.851543 0.561759 0.830884 -0.486997 -0.269193
0.237966 0.663907 0.049844 0.344344 -0.059346 0.936966
0.165506 0.925525 0.376975 0.480236 -0.872369 0.091352
0.332658 0.894349 0.292335 -0.056386 0.954240 -0.293678
0.277813 0.946209 0.588698 0.106810 -0.952688 -0.284566
0.139697 0.766115 0.128047 0.622383 -0.318729 0.714878
0.400653 0.386955 0.122501 0.137564 -0.419464 -0.897288
0.452352 0.664886 0.107677 0.325075 0.231633 -0.916882
0.598918 0.928188 0.280751 -0.509422 -0.833088 0.215531
0.051128 0.565388 0.296928 0.833690 -0.121435 0.538716
0.319979 0.115161 0.574124 -0.285366 -0.820584 0.495185
0.636655 0.735727 0.499027 0.922625 0.364499 0.126111
0.677992 0.862184 0.378437 -0.810913 -0.583880 0.038790
0.496335 0.193784 0.191525 -0.532028 0.672172 0.514909
0.609688 0.353078 0.470318 0.945399 -0.316207 0.078959
0.457430 0.159850 0.620306 0.611011 -0.725548 0.316616
0.241073 0.151963 0.298024 0.533316 0.777961 0.332191
0.302589 0.281052 0.532496 0.819931 0.012156 -0.572334
0.281640 0.297875 0.608943 -0.177929 -0.975784 -0.127228
0.511154 0.101416 0.294862 0.679560 -0.156087 -0.716823
0.618335 0.464008 0.231543 -0.912202 0.270943 0.307373
0.203171 0.647218 0.707125 -0.534244 0.062125 0.843044
0.103729 0.659310 0.147632 0.796738 0.005874 0.604297
0.346733 0.460811 0.090518 -0.066232 -0.231463 -0.970587
0.092302 0.687362 0.157785 0.787537 -0.061176 0.613224
0.484552 0.179236 0.215983 -0.451415 0.740971 0.497178
0.313048 0.631118 0.036861 0.133955 0.062700 0.989002
0.568801 0.285051 0.349031 0.912027 -0.241499 -0.331490
0.601963 0.625258 0.134072 -0.711624 0.174385 0.680574
0.571042 0.941693 0.361502 -0.430572 -0.898526 0.085192
0.396811 0.284604 0.685771 0.134750 -0.990865 -0.005335
0.136071 0.817937 0.456503 -0.792798 0.607848 0.044634
0.653931 0.692594 0.373894 0.978016 0.170223 -0.120453
0.569646 0.690960 0.654127 0.690146 0.243938 0.681317
0.136531 0.538681 0.212357 -0.817638 -0.103787 -0.566301
0.512229 0.880980 0.672984 -0.271442 -0.630095 -0.727530
0.072948 0.673666 0.200233 0.885258 0.017985 0.464752
0.582107 0.717841 0.105104 -0.571655 -0.133707 0.809526
0.524810 0.115659 0.461812 0.866690 -0.227531 0.443934
0.621165 0.468683 0.236458 -0.924295 0.264586 0.275088
0.161864 0.849784 0.406377 -0.708598 0.698872 -0.097299
0.276263 0.303934 0.653705 -0.824729 -0.010459 0.565431
0.302344 0.125487 0.248960 -0.266598 -0.262717 -0.927311
0.526270 0.427852 0.167907 0.617838 -0.273697 -0.737134
0.425211 0.904697 0.431232 0.169694 0.985412 0.012922
0.452516 0.921701 0.157183 -0.246449 -0.793642 0.556234
0.519858 0.198499 0.285631 0.705557 -0.235587 -0.668348
0.365776 0.912278 0.334538 0.003169 0.986520 -0.163609
0.279166 0.398395 0.134671 -0.327598 -0.373380 -0.867910
0.261561 0.951285 0.567398 0.133927 -0.968651 -0.209235
0.310556 0.912712 0.663872 0.090167 -0.749016 -0.656388
0.568654 0.299191 0.580436 0.794924 -0.287489 0.534272
0.299738 0.883874 0.684451 0.086520 -0.664777 -0.742015
0.036806 0.780006 0.351457 0.970128 -0.222329 0.097060
0.641223 0.457539 0.406294 0.972536 0.228697 -0.043263
0.471857 0.643821 0.724164 0.367709 0.141858 0.919057
0.669672 0.878839 0.363758 -0.752854 -0.654734 0.067330
0.291209 0.777472 0.760550 0.434458 0.118385 -0.892878
0.477427 0.279247 0.163187 -0.392098 0.335281 0.856648
0.262695 0.226619 0.662210 -0.729557 -0.245811 0.638219
0.552364 0.782538 0.223674 0.605832 0.542571 -0.581880
0.145065 0.473527 0.215339 -0.775200 -0.195879 -0.600580
0.551059 0.150993 0.387379 0.971577 -0.156414 0.177686
0.422064 0.293155 0.688408 0.594771 -0.549636 0.586642
0.402632 0.564292 0.709723 0.701722 -0.550141 0.452693
0.369943 0.684789 0.709885 0.301381 0.729281 -0.614263
0.441579 0.440924 0.117400 0.308141 -0.265733 -0.913474
0.323061 0.838203 0.188336 -0.119482 0.790491 -0.600706
0.075310 0.782179 0.570347 0.233978 0.625909 -0.743971
0.312957 0.273385 0.546754 0.814709 -0.129916 -0.565129
0.429836 0.767968 0.749750 0.019088 -0.161160 -0.986744
0.682606 0.849132 0.431877 -0.846376 -0.530551 -0.046513
0.263521 0.678109 0.114097 -0.359596 0.274231 -0.891901
0.469372 0.215604 0.651152 0.730280 -0.319396 0.603885
0.197976 0.933349 0.595585 0.349745 -0.855648 -0.381503
0.537403 0.692028 0.753013 -0.305809 0.209648 -0.928724
0.540823 0.713204 0.748049 -0.334403 0.110961 -0.935875
0.446643 0.549433 0.662879 0.151455 0.384918 0.910439
0.189064 0.840758 0.573183 -0.597109 0.692067 0.405590
0.438598 0.947739 0.230690 -0.198672 -0.905652 0.374597
0.206491 0.328024 0.178612 0.540911 0.311922 0.781102
0.356016 0.911356 0.396967 -0.014430 0.997644 -0.067064
0.037920 0.765932 0.375790 0.984560 -0.165599 0.056729
0.327836 0.890074 0.281905 -0.065114 0.943915 -0.323706
0.531569 0.278695 0.203555 -0.708594 0.366398 0.603032
0.309547 0.660924 0.037009 0.147652 -0.033259 0.988480
0.368248 0.285778 0.171392 0.015353 -0.467501 -0.883860
0.147479 0.366228 0.272451 -0.815055 -0.352508 -0.459808
0.279433 0.283614 0.492416 0.873683 -0.002394 -0.486489
0.397685 0.836474 0.084388 -0.073510 -0.479341 0.874545
0.680313 0.694844 0.458232 -0.966032 0.215895 -0.142027
0.161318 0.255846 0.526667 -0.869025 -0.459019 0.184654
0.391867 0.756254 0.115700 0.083854 0.573866 -0.814645
0.536678 0.435558 0.176945 0.655984 -0.262100 -0.707806
0.377890 0.367449 0.107489 -0.041422 0.360639 0.931785
0.582778 0.439587 0.229748 0.807963 -0.224208 -0.544910
0.674911 0.591258 0.349631 0.913884 -0.405561 0.018340
0.443230 0.609123 0.739456 0.347850 0.021382 0.937307
0.655313 0.645687 0.482079 0.995287 -0.040216 0.088244
0.622899 0.911113 0.493695 -0.600352 -0.792990 -0.103659
0.581287 0.776583 0.247412 0.703114 0.506067 -0.499527
0.605696 0.473945 0.301006 0.960729 0.177593 -0.213216
0.622545 0.628498 0.263180 0.910178 0.000957 -0.414216
0.339908 0.678004 0.735232 -0.070885 0.343125 0.936611
0.346821 0.760893 0.050453 0.049962 -0.264316 0.963141
0.549777 0.618196 0.168437 0.684228 0.043586 -0.727965
0.595903 0.333600 0.377047 0.904161 -0.367225 -0.218262
0.603751 0.497420 0.364410 0.979901 0.058341 -0.190760
0.579120 0.796444 0.116938 -0.527813 -0.396719 0.751018
0.646618 0.492623 0.407252 0.996397 0.067829 0.050912
0.429537 0.534447 0.096098 0.256663 -0.079405 -0.963234
0.103217 0.719818 0.499439 -0.182052 0.711950 -0.678222
0.186272 0.273554 0.214081 0.743844 0.391708 0.541536
0.311927 0.287496 0.669033 -0.154655 -0.986740 -0.049260
0.375661 0.875443 0.694117 0.023988 -0.625326 -0.779995
0.586387 0.528199 0.157432 -0.746209 0.284565 0.601826
0.309849 0.959218 0.260092 0.179163 -0.936145 0.302546
0.591065 0.821289 0.407665 0.789073 0.611226 -0.061369
0.497447 0.787826 0.171405 0.404800 0.586932 -0.701176
0.601059 0.789505 0.515766 0.831073 0.521155 0.194203
0.412134 0.920831 0.145812 -0.132750 -0.763714 0.631758
0.468154 0.321789 0.561121 0.998910 -0.023713 0.040198
0.072514 0.639640 0.489156 -0.992392 -0.066967 0.103308
0.559852 0.259465 0.350761 0.924709 -0.190840 -0.329384
0.513984 0.849572 0.695418 -0.266140 -0.521371 -0.810766
0.487105 0.456931 0.674650 0.485872 0.018500 0.873834
0.538017 0.478966 0.163814 0.684637 -0.176979 -0.707072
0.633756 0.580013 0.506725 0.950321 -0.180323 0.253719
0.504180 0.811930 0.089405 -0.316915 -0.431387 0.844672
0.072886 0.625494 0.243875 0.948721 0.185523 0.255947
0.180838 0.475219 0.136731 0.602766 0.335177 0.724106
0.389244 0.334028 0.582644 0.022545 0.984953 0.171348
0.459078 0.217530 0.232844 0.384238 -0.361593 -0.849477
0.417902 0.096495 0.253201 0.234870 -0.243061 -0.941147
0.668029 0.477301 0.310623 0.986614 -0.115989 -0.114628
0.162272 0.302221 0.228111 0.868110 0.346658 0.355265
0.656965 0.495030 0.294700 -0.049311 -0.320784 -0.945868
0.393410 0.153215 0.714917 0.398670 -0.728134 0.557569
0.131672 0.743911 0.595045 -0.815376 0.372164 0.443458
0.582357 0.811316 0.540749 0.770613 0.575052 0.274718
0.365731 0.407766 0.083790 -0.004034 0.379155 0.925324
0.240679 0.843607 0.717677 0.326428 -0.449391 -0.831560
0.687255 0.804722 0.474933 -0.947111 -0.303327 -0.104752
0.633408 0.630285 0.549073 0.930439 -0.111184 0.349172
0.101502 0.395194 0.392942 -0.950861 -0.283588 -0.124267
0.335938 0.631199 0.084949 -0.106533 0.172385 -0.979252
0.105483 0.515782 0.521534 -0.933073 -0.106594 0.343528
0.357513 0.660413 0.745838 -0.020498 0.320149 0.947145
0.319261 0.294735 0.627115 -0.106967 -0.984153 -0.141426
0.477190 0.482618 0.117243 0.486106 -0.157619 -0.859568
0.198422 0.457909 0.651011 -0.564661 -0.083047 0.821134
0.506708 0.523221 0.650332 0.075193 -0.793714 0.603626
0.529243 0.726430 0.159466 0.550645 0.387483 -0.739356
0.671957 0.584357 0.326076 0.828625 -0.509487 0.231956
0.085751 0.685553 0.164251 0.808066 -0.051005 0.586880
0.656942 0.894891 0.344188 -0.689667 -0.716358 0.105788
0.643923 0.577307 0.438916 -0.906184 0.385298 -0.174286
0.435690 0.318839 0.720485 0.664236 -0.012143 0.747424
0.139702 0.286594 0.400777 -0.931578 -0.344406 -0.116393
0.392805 0.680162 0.740993 0.247956 0.485917 -0.838095
0.602427 0.668642 0.228008 0.830238 0.108951 -0.546657
0.483578 0.363313 0.164887 0.447143 -0.402734 -0.798667
0.172969 0.125757 0.340428 -0.962821 -0.081874 -0.257435
0.532898 0.937332 0.585572 -0.325956 -0.887199 -0.326544
0.572893 0.698854 0.647845 0.706780 0.259898 0.657963
0.643354 0.621986 0.178934 -0.829515 0.179317 0.528914
0.136830 0.285387 0.427369 -0.931518 -0.361061 -0.043690
0.519407 0.791651 0.081398 -0.347772 -0.370979 0.861063
0.155230 0.853237 0.656222 0.563777 -0.290176 -0.773274
0.316436 0.796619 0.684686 -0.130625 0.609383 0.782042
0.624857 0.762661 0.346517 0.876667 0.432131 -0.211466
0.662921 0.624615 0.322080 -0.963185 0.260245 0.067438
0.269563 0.154091 0.603181 -0.606431 -0.707830 0.362242
0.561841 0.857608 0.316657 0.603144 0.706340 -0.370541
0.572278 0.845453 0.339936 0.670142 0.682525 -0.291666
0.514167 0.184815 0.297517 -0.646473 0.702020 0.298731
0.602010 0.778712 0.291554 0.786242 0.498000 -0.365814
0.683932 0.703803 0.426397 -0.982174 0.170563 -0.079013
0.388537 0.793571 0.146039 0.066839 0.682229 -0.728077
0.530324 0.667193 0.707018 0.508911 0.227794 0.830132
0.484205 0.647748 0.672061 -0.193957 0.898142 -0.394617
0.601444 0.335859 0.391743 0.913557 -0.369124 -0.170767
0.404481 0.285189 0.145300 -0.143050 0.357881 0.922745
0.250961 0.815959 0.088640 0.290580 -0.449592 0.844648
0.293109 0.874638 0.571992 -0.183080 0.889930 0.417739
0.548907 0.196703 0.429994 0.932933 -0.291927 0.210748
0.537543 0.322973 0.244163 0.669525 -0.419371 -0.613078
0.455405 0.741080 0.754350 -0.024537 -0.015994 -0.999571
0.303712 0.905956 0.410996 -0.157096 0.986843 -0.038224
0.179224 0.819305 0.120183 0.510543 -0.497962 0.700985
0.654986 0.641781 0.499152 0.991010 -0.060140 0.119507
0.296143 0.797921 0.160379 -0.204958 0.667027 -0.716287
0.504750 0.953483 0.570743 -0.175318 -0.961383 -0.212147
0.584687 0.689756 0.212032 0.774682 0.211979 -0.595763
0.456285 0.282724 0.688769 0.665521 -0.108955 0.738383
0.652820 0.882658 0.275225 -0.703192 -0.664312 0.253399
0.215796 0.554204 0.669683 -0.900469 -0.404180 -0.160603
0.301595 0.761778 0.696651 -0.169562 0.478546 0.861535
0.389502 0.346695 0.509309 -0.015465 0.985199 0.170715
0.474552 0.149857 0.556341 0.635499 -0.634492 0.439956
0.568368 0.331827 0.591030 0.796511 -0.165843 0.581435
0.236537 0.942240 0.279316 0.369890 -0.903909 0.214778
0.340832 0.819817 0.168586 -0.068381 0.756735 -0.650135
0.638979 0.730435 0.505244 0.926795 0.349361 0.137832
0.130275 0.716253 0.606922 -0.810440 0.275189 0.517164
0.227711 0.930339 0.241884 0.399566 -0.868178 0.294303
0.578854 0.307149 0.354557 0.904564 -0.297715 -0.305173
0.553898 0.897567 0.646569 -0.421575 -0.670312 -0.610702
0.457963 0.434717 0.105094 -0.289935 0.373454 0.881175
0.428880 0.688838 0.720747 0.195437 0.330483 0.923356
0.640835 0.587733 0.471214 -0.869805 0.414996 -0.266867
0.054330 0.589112 0.348904 0.705971 0.691677 0.152274
0.301701 0.663407 0.038247 0.170043 -0.045325 0.984394
0.618893 0.426816 0.320305 0.915722 -0.254401 -0.311020
0.333524 0.961493 0.262666 0.102769 -0.939714 0.326153
0.362231 0.720305 0.096306 -0.006538 0.475376 -0.879758
0.161732 0.565232 0.183186 -0.757857 -0.063602 -0.649313
0.252665 0.229887 0.649420 -0.723899 -0.286078 0.627797
0.187335 0.689024 0.164781 -0.621739 0.270551 -0.735012
0.330025 0.288539 0.587852 0.733999 0.502610 -0.456760
0.128011 0.890566 0.285988 0.587279 -0.783796 0.201909
0.653984 0.873531 0.265687 -0.715490 -0.638568 0.283381
0.279562 0.200864 0.235537 -0.343137 -0.337779 -0.876449
0.150796 0.918909 0.400050 0.536078 -0.842086 0.059257
