0.258030 0.197084 0.387824 0.649543 -0.759971 0.023212
0.432128 0.077033 0.806367 0.825085 -0.554028 0.110848
0.418644 0.050731 0.370200 -0.068818 -0.997606 0.006739
0.552419 0.194483 0.287169 0.848135 -0.529533 0.016174
0.444932 0.198358 0.416824 0.984893 -0.173081 0.005287
0.706474 0.205207 0.635290 0.366912 -0.929822 0.028400
0.458146 0.145920 0.935884 -0.930983 -0.364548 -0.019397
0.357336 0.200721 0.494362 0.871608 0.489976 -0.014965
0.434808 0.098196 0.784649 0.980817 0.159555 0.111980
0.480671 0.037656 0.296533 0.927977 -0.360987 -0.092452
0.302838 0.201897 0.541098 0.858289 -0.512927 0.015667
0.500396 0.206779 0.694135 0.965941 0.258643 -0.007899
0.491079 0.191496 0.190599 0.957490 -0.288332 0.008807
0.240002 0.196071 0.338261 0.729629 0.683524 -0.020876
0.410926 0.187312 0.055994 0.998136 -0.060997 0.001864
0.436216 0.193029 0.418230 0.842689 0.524465 0.121701
0.492314 0.193220 0.247499 0.929018 -0.369861 0.011297
0.354308 0.201634 0.530162 0.891437 -0.452933 0.013834
0.364019 0.081938 0.446168 -0.993069 -0.112416 0.034300
0.274398 0.208772 0.758360 0.326687 0.944692 -0.028853
0.524460 0.205873 0.664654 0.943852 0.330216 -0.010082
0.544003 0.207570 0.718912 0.475220 -0.879457 0.026861
0.457450 0.113649 0.576202 0.935564 0.173386 0.307663
0.403535 0.192426 0.222586 0.993477 0.113983 -0.003481
0.198744 0.200769 0.499456 0.614528 -0.788527 0.024105
0.463254 0.204545 0.623355 0.957451 0.288463 -0.008810
0.250511 0.197516 0.385697 0.706980 0.706904 -0.021590
0.541105 0.195467 0.333025 0.639811 0.768174 -0.023462
0.267992 0.196713 0.359776 0.760952 0.648506 -0.019807
0.487644 0.205928 0.664880 0.849671 -0.527068 0.016099
0.618548 0.196790 0.361440 0.674337 -0.738080 0.022544
0.572568 0.202962 0.566018 0.528640 -0.848450 0.025914
0.146666 0.203610 0.583145 0.315323 0.948542 -0.028971
0.693939 0.191740 0.217265 0.281150 0.959217 -0.029297
0.240348 0.194346 0.282304 0.776434 0.629905 -0.019222
0.320171 0.194668 0.305882 0.644953 -0.763866 0.023331
0.232280 0.197345 0.379792 0.677329 0.735338 -0.022459
0.386145 0.101348 0.865388 -0.958086 -0.000350 0.286481
0.385163 0.142565 0.503926 -0.807501 0.581231 0.100559
0.113863 0.200689 0.486997 0.329227 0.943811 -0.028826
0.608720 0.205239 0.639674 0.394449 -0.918490 0.028053
0.183850 0.207522 0.711938 0.395808 0.917905 -0.028035
0.617608 0.205268 0.640238 0.381959 -0.923748 0.028214
0.298384 0.192852 0.248197 0.538614 -0.842160 0.025722
0.574037 0.195128 0.323859 0.584860 0.810757 -0.024762
0.508019 0.200717 0.494349 0.729319 -0.683855 0.020887
0.170343 0.195092 0.322211 0.415908 -0.908983 0.027763
0.458481 0.202495 0.552341 0.959499 -0.281580 0.008601
0.535956 0.194324 0.282287 0.872633 -0.488149 0.014910
0.074494 0.197663 0.393255 -0.985374 0.170334 -0.004980
0.675589 0.204982 0.628377 0.314607 -0.948779 0.028979
0.407124 0.110153 0.733639 -0.918310 0.373382 0.131498
0.384602 0.132199 0.556256 -0.886072 0.411922 0.212598
0.242075 0.200576 0.485979 0.589502 0.807390 -0.024659
0.339189 0.206218 0.674447 0.772038 0.635280 -0.019403
0.142694 0.194016 0.287136 0.328907 -0.943922 0.028830
0.688539 0.190700 0.185595 0.267409 0.963134 -0.029417
0.644445 0.201314 0.516529 0.570224 0.821107 -0.025045
0.727313 0.192811 0.240562 0.262600 0.964455 -0.029447
0.697351 0.195389 0.318986 -0.949689 -0.313045 0.009736
0.573966 0.186956 0.058612 0.291931 0.955994 -0.029198
0.453966 0.054343 0.244454 0.378827 -0.906641 -0.185719
0.279811 0.193821 0.280691 0.551444 -0.833823 0.025468
0.451040 0.210052 0.799732 0.975110 -0.221616 0.006770
0.206675 0.203361 0.576499 0.431921 0.901491 -0.027534
0.398140 0.200981 0.504795 0.988055 -0.154028 0.004705
0.414852 0.204973 0.633849 0.999368 -0.035526 0.001086
0.233281 0.199207 0.453373 0.670687 -0.741394 0.022645
0.373372 0.064623 0.284580 -0.805651 -0.587419 -0.076581
0.131363 0.193904 0.273398 -0.347206 -0.937345 0.028846
0.439145 0.058375 0.579867 0.740540 -0.646471 0.183509
0.397525 0.197886 0.401379 0.987362 0.158407 -0.004837
0.368775 0.104591 0.393761 -0.989414 0.143955 -0.018344
0.158436 0.203940 0.597004 0.087828 0.995677 -0.030229
0.374953 0.117362 0.312836 -0.885852 0.460946 -0.052871
0.208955 0.204578 0.616822 0.389131 0.920753 -0.028122
0.647726 0.203970 0.596006 0.390656 -0.920108 0.028103
0.290331 0.193507 0.269929 0.553117 -0.832715 0.025434
0.151657 0.206216 0.668612 0.357706 0.933399 -0.028508
0.559830 0.209083 0.765946 0.670464 -0.741596 0.022651
0.408810 0.263342 0.916096 0.922108 0.386695 -0.013546
0.201758 0.207500 0.711609 0.497660 0.866968 -0.026479
0.145619 0.205720 0.652293 0.376336 0.926051 -0.028284
0.376655 0.061718 0.353748 -0.766314 -0.642448 0.004767
0.563909 0.196343 0.347827 0.785530 -0.618535 0.018892
0.271684 0.187361 0.071459 0.310922 -0.949992 0.029016
0.190795 0.204397 0.612954 0.267610 0.963088 -0.029089
0.369463 0.111071 0.457330 -0.984301 0.176048 0.012624
0.431045 0.210698 0.880447 -0.923885 -0.382636 -0.005061
0.389268 0.187240 0.055773 0.974965 -0.222255 0.006789
0.339920 0.205570 0.653207 0.776534 0.629782 -0.019235
0.501212 0.206919 0.697385 0.772664 -0.634519 0.019381
0.442683 0.182771 0.955572 -0.923626 -0.383174 -0.009646
0.597157 0.202091 0.542949 0.769691 0.638120 -0.019489
0.457183 0.148938 0.873839 0.915534 0.402239 0.000726
0.454507 0.134546 0.553387 0.857722 0.441515 0.263395
0.394580 0.192895 0.240406 0.983503 -0.180810 0.005523
0.188736 0.197352 0.379216 0.588614 0.808038 -0.024679
0.742476 0.193134 0.256879 0.219825 0.975085 -0.029782
0.401930 0.095010 0.633047 -0.991710 0.048855 0.118844
0.319222 0.187689 0.077462 0.638462 -0.769295 0.023497
0.136983 0.204738 0.619880 0.268103 0.962941 -0.029411
0.373080 0.027938 0.294158 0.264934 -0.852567 -0.450488
0.510691 0.201706 0.526733 0.711482 -0.702377 0.021453
0.413945 0.124397 0.694367 -0.563985 0.808636 0.167416
0.249144 0.207531 0.713639 0.758302 0.651600 -0.019901
0.223456 0.195216 0.310335 0.716688 0.697070 -0.021278
0.436618 0.097174 0.225831 0.346548 0.764227 -0.543931
0.254047 0.208545 0.746855 0.675252 0.737243 -0.022517
0.068495 0.194302 0.290839 0.188088 -0.981694 0.029984
0.499556 0.199883 0.474051 0.835903 0.548621 -0.016756
0.357873 0.192676 0.236879 0.874352 -0.485067 0.014816
0.156357 0.206216 0.668707 0.382960 0.923334 -0.028201
0.471166 0.107811 0.418992 0.993006 0.117991 -0.004152
0.156307 0.205644 0.650032 0.444230 0.895495 -0.027350
0.431948 0.191322 0.186391 0.997004 -0.077311 0.002362
0.440756 0.199956 0.471073 0.990002 0.140984 -0.004305
0.461348 0.197862 0.400660 0.952281 -0.305080 0.009319
0.715374 0.195721 0.330165 -0.988900 -0.148509 0.004681
0.273453 0.199006 0.449365 0.739811 -0.672501 0.020541
0.193841 0.203586 0.588076 -0.991516 -0.129903 0.004727
0.565127 0.209603 0.785556 0.333056 -0.942468 0.028786
0.263918 0.208757 0.754404 0.666697 0.744981 -0.022753
0.467404 0.052219 0.312648 -0.390844 0.639011 0.662500
0.587459 0.199839 0.474233 0.727926 0.685336 -0.020932
0.522386 0.201751 0.528201 0.639908 -0.768093 0.023460
0.125194 0.205500 0.644664 0.291548 0.956110 -0.029202
0.600988 0.188063 0.096035 0.294586 0.955180 -0.029174
0.335322 0.209628 0.786107 0.747700 0.663727 -0.020272
0.233169 0.206721 0.687083 0.749631 0.661548 -0.020197
0.321551 0.200224 0.477876 0.701496 0.712342 -0.021756
0.468806 0.123165 0.467954 0.962077 0.272208 0.017618
0.429229 0.097523 0.830845 0.881360 0.421131 0.214134
0.529716 0.204437 0.619927 0.914106 0.405286 -0.012378
0.656606 0.202564 0.555485 -0.446659 0.894297 -0.026995
0.105918 0.194383 0.289623 -0.395184 -0.918169 0.028215
0.469990 0.110874 0.311004 0.883190 0.465739 -0.055344
0.164193 0.203633 0.587881 -0.279260 0.959779 -0.028961
0.453818 0.203608 0.591953 0.970114 0.242537 -0.007407
0.735901 0.204381 0.607678 0.294813 -0.955110 0.029172
0.420270 0.188379 0.924016 -0.951081 0.303955 0.055278
0.054840 0.196194 0.349959 -0.462821 -0.886035 0.027183
0.629272 0.193875 0.286273 0.462650 0.886128 -0.027064
0.266626 0.188742 0.116571 0.349697 -0.936426 0.028601
0.412514 0.202664 0.558475 0.998695 -0.051050 0.001560
0.489691 0.188287 0.093901 0.839330 0.543369 -0.016595
0.413273 0.199976 0.470400 0.998951 -0.045781 0.001399
0.299019 0.208486 0.745877 0.888198 0.459247 -0.014026
0.313789 0.208407 0.743687 0.937036 0.349070 -0.010659
0.213200 0.190815 0.186821 0.353186 -0.935117 0.028561
0.709147 0.196120 0.342465 -0.878359 -0.477774 0.014749
0.425294 0.199950 0.469346 0.999482 0.032157 -0.000981
0.362726 0.199969 0.469726 0.895663 0.444526 -0.013576
0.421100 0.065044 0.749076 0.054226 -0.992549 0.109119
0.435727 0.195892 0.336042 0.994534 -0.104367 0.003188
0.532671 0.202711 0.566524 0.881142 0.472632 -0.014435
0.330416 0.192111 0.210354 0.936275 0.351103 -0.010723
0.742427 0.195707 0.336192 0.272598 0.961680 -0.029371
0.633545 0.201826 0.533082 0.631385 0.775109 -0.023639
0.367285 0.099081 0.438404 -0.999221 0.037220 0.013121
0.582057 0.202234 0.541507 0.544957 -0.838073 0.025597
0.281084 0.195388 0.331494 0.613387 -0.789414 0.024111
0.304782 0.189143 0.116451 0.951946 -0.306122 0.009382
0.447401 0.189404 0.123300 0.989753 -0.142720 0.004360
0.207577 0.194002 0.272795 0.538065 0.842520 -0.025428
0.397186 0.158162 0.509602 -0.440643 0.888046 0.131179
0.237489 0.189502 0.142867 0.339036 -0.940335 0.028721
0.398974 0.197225 0.381724 0.989049 -0.147522 0.004506
0.136392 0.190229 0.169985 0.227525 -0.973318 0.029728
0.644849 0.191305 0.189379 0.594299 0.803870 -0.024535
0.459496 0.143808 0.882066 0.914663 0.404217 -0.000048
0.790134 0.195238 0.319685 -0.240507 0.970196 -0.029595
0.471822 0.192821 0.235200 0.945750 -0.324744 0.009919
0.592242 0.188610 0.113290 0.322809 0.946023 -0.028894
0.297032 0.208808 0.759425 0.478801 0.877514 -0.026801
0.413347 0.201601 0.523591 0.998969 -0.045375 0.001387
0.089231 0.202417 0.543075 0.236597 0.971155 -0.029661
0.272368 0.194471 0.302225 0.566786 -0.823481 0.025152
0.397802 0.204326 0.614342 0.987621 -0.156783 0.004789
0.543632 0.208111 0.736610 0.477821 -0.878048 0.026818
0.783035 0.195919 0.341389 -0.334818 0.941845 -0.028717
0.341055 0.198662 0.427046 0.783238 0.621432 -0.018980
0.549979 0.203100 0.571562 0.552617 -0.833047 0.025444
0.554445 0.203082 0.570778 0.547540 -0.836389 0.025546
0.594553 0.200987 0.499727 0.578315 -0.815433 0.024906
0.735294 0.197465 0.391893 0.018719 0.999360 -0.030486
0.677196 0.193309 0.253229 -0.259087 0.965409 -0.029317
0.471919 0.101821 0.303700 0.967147 0.251376 -0.037896
0.402428 0.098936 0.230313 -0.233137 0.829102 -0.508171
0.425637 0.070423 0.812468 0.415623 -0.896796 0.151706
0.127091 0.190482 0.177147 0.215932 -0.975953 0.029809
0.730571 0.200248 0.479787 -0.956746 0.290792 -0.008746
0.199727 0.207097 0.699692 0.289478 0.956739 -0.029221
0.717775 0.204068 0.597701 0.258276 -0.965621 0.029493
0.462309 0.037535 0.306998 -0.879347 -0.288180 0.379079
0.699345 0.198344 0.412003 0.302727 -0.952632 0.029119
0.470621 0.113872 0.484727 0.986957 0.156251 0.038749
0.391417 0.199008 0.440864 0.978555 -0.205892 0.006289
0.095852 0.202890 0.558655 0.237339 0.970974 -0.029656
0.643903 0.198203 0.407182 0.578577 -0.815247 0.024900
0.725171 0.205962 0.659506 0.200628 -0.979211 0.029908
0.583697 0.195653 0.341434 0.592721 0.805032 -0.024587
0.199725 0.192254 0.234308 0.386698 -0.921776 0.028154
0.313341 0.189191 0.127232 0.596435 -0.802287 0.024505
0.626324 0.203547 0.582974 0.434869 -0.900074 0.027491
0.557736 0.206831 0.693314 0.959645 -0.281083 0.008635
0.713489 0.195362 0.327528 0.330876 0.943234 -0.028809
0.187875 0.192774 0.235310 0.044143 -0.998547 0.030911
0.346644 0.203501 0.591191 0.926364 -0.376454 0.011499
0.700345 0.189774 0.154389 0.245711 0.968891 -0.029592
0.536148 0.191207 0.181006 0.944990 -0.326945 0.009999
0.438182 0.050673 0.367504 0.154079 -0.988058 -0.000330
0.445770 0.049240 0.289995 0.222086 -0.974926 -0.014003
0.416451 0.159244 0.385309 -0.110171 0.919409 -0.377557
0.427716 0.199647 0.459652 0.998831 0.048312 -0.001475
0.596157 0.206569 0.684209 0.362583 -0.931517 0.028451
0.380354 0.204909 0.631393 0.955397 0.295186 -0.009015
0.085789 0.202033 0.530442 0.239602 0.970419 -0.029639
0.405290 0.078822 0.691161 -0.945620 -0.305839 0.110747
0.202019 0.199787 0.469105 0.621663 -0.782920 0.023913
0.681524 0.199248 0.450070 0.413216 0.910209 -0.027781
0.159288 0.207048 0.695908 0.315195 0.948585 -0.028972
0.288932 0.201172 0.507741 0.625951 0.779499 -0.023808
0.111066 0.202563 0.551821 -0.470107 0.882204 -0.026744
0.458176 0.191408 0.192949 0.960309 0.278808 -0.008515
0.060685 0.195564 0.328670 -0.606857 -0.794436 0.024417
0.467747 0.197077 0.374997 0.933344 -0.358816 0.010960
0.576289 0.189911 0.154645 0.386811 0.921729 -0.028152
0.367966 0.203135 0.578131 0.930583 -0.365911 0.011177
0.465862 0.204401 0.614762 0.939162 -0.343315 0.010487
0.117032 0.192903 0.243205 0.235824 -0.971342 0.029699
0.293014 0.192319 0.231203 0.511552 -0.858851 0.026232
0.277941 0.192234 0.214372 0.904530 0.426213 -0.012980
0.549602 0.192215 0.227940 0.505141 0.862635 -0.026347
0.683785 0.197381 0.391804 0.450463 0.892379 -0.027255
0.072242 0.201564 0.516009 0.044053 0.998565 -0.030463
0.689236 0.204103 0.601620 0.199550 -0.979429 0.029968
0.662169 0.198405 0.424853 0.528725 0.848398 -0.025912
0.472962 0.086134 0.512651 0.975204 -0.185793 0.120245
0.473137 0.200813 0.497331 0.914340 -0.404758 0.012363
0.119941 0.194180 0.290603 0.286595 -0.957605 0.029248
0.766020 0.203989 0.594227 0.186628 -0.981973 0.029992
0.404790 0.051017 0.386088 -0.281069 -0.959084 0.034026
0.432181 0.207997 0.895538 -0.923738 -0.382981 -0.005805
0.529981 0.187917 0.085794 0.576407 0.816782 -0.024946
0.420270 0.106298 0.808089 -0.500718 0.849913 0.164102
0.731179 0.193287 0.255519 0.139280 0.989792 -0.030206
0.128827 0.192106 0.218139 0.374870 -0.926645 0.028303
0.469247 0.204131 0.610251 0.949131 0.314734 -0.009612
0.619669 0.187786 0.088097 0.263793 0.964130 -0.029447
0.476332 0.080960 0.337918 0.999618 -0.026377 -0.008301
0.310893 0.195303 0.314709 0.854639 0.518981 -0.015850
0.664395 0.202529 0.554110 -0.842678 0.538177 -0.016137
0.254367 0.203513 0.583619 0.489154 0.871791 -0.026627
0.115314 0.196148 0.350948 0.326406 -0.944789 0.028857
0.289586 0.199860 0.464414 0.677572 0.735114 -0.022452
0.444469 0.195521 0.326237 0.985543 0.169344 -0.005171
0.588680 0.205586 0.652058 0.407453 -0.912801 0.027880
0.307730 0.199466 0.462391 0.791794 -0.610504 0.018647
0.393152 0.065286 0.567151 -0.654738 -0.728460 0.201653
0.171621 0.194187 0.280043 -0.994465 0.105034 -0.002715
0.408152 0.067699 0.647108 -0.863345 -0.489202 0.123762
0.496159 0.203192 0.581267 0.919573 0.392736 -0.011995
0.563267 0.190333 0.154827 0.965719 0.259470 -0.007864
0.082454 0.192912 0.248940 0.186198 -0.982054 0.029995
0.570839 0.208611 0.749320 0.751616 -0.659293 0.020137
0.472293 0.072028 0.280584 0.857587 -0.508123 -0.079720
0.406295 0.198685 0.428803 0.995568 -0.093995 0.002872
0.261617 0.194682 0.309670 0.560886 -0.827507 0.025275
0.650877 0.189648 0.144075 0.475731 0.879181 -0.026852
0.455423 0.208610 0.753671 0.993730 0.111756 -0.003413
0.121450 0.197160 0.382854 0.301786 -0.952931 0.029122
0.212576 0.205633 0.652340 0.662620 0.748609 -0.022789
0.132205 0.205963 0.659920 0.282866 0.958712 -0.029281
0.276482 0.197923 0.399790 0.735084 0.677660 -0.020697
0.531602 0.206214 0.674437 0.563921 -0.825444 0.025212
0.331469 0.200675 0.492976 0.722156 0.691408 -0.021117
0.630939 0.193931 0.288180 0.462543 0.886184 -0.027066
0.051665 0.200438 0.481440 -0.625514 0.779854 -0.023670
0.428359 0.216983 0.900681 0.917154 0.398517 -0.003571
0.609798 0.188154 0.099469 0.286906 0.957512 -0.029245
0.475133 0.190660 0.163596 0.973466 -0.228726 0.006987
0.592059 0.195653 0.341912 0.581784 0.812964 -0.024830
0.420914 0.208479 0.748103 0.999989 -0.004753 0.000146
0.225635 0.197469 0.399276 0.604554 -0.796193 0.024318
0.395603 0.202294 0.545711 0.984934 0.172853 -0.005279
0.435657 0.202626 0.556535 0.994546 -0.104254 0.003185
0.315138 0.199060 0.448797 0.785941 -0.618013 0.018876
0.429677 0.052183 0.449175 0.080495 -0.996618 0.016501
0.233449 0.192455 0.238946 0.438519 -0.898303 0.027437
0.151270 0.202264 0.539222 0.360948 0.932151 -0.028470
0.334438 0.207792 0.725985 0.741916 0.670180 -0.020469
0.528600 0.192825 0.233373 0.909033 -0.416529 0.012723
0.341620 0.197345 0.383574 0.820781 0.570977 -0.017439
0.367373 0.096248 0.367184 -0.999491 0.029158 -0.012949
0.462018 0.134615 0.464424 0.895487 0.445060 0.004914
0.700405 0.193740 0.267848 -0.339702 0.940098 -0.028590
0.762492 0.199301 0.448766 -0.979086 0.203357 -0.006099
0.409205 0.068714 0.719610 -0.860711 -0.496327 0.113293
0.606522 0.192594 0.243430 0.444608 0.895308 -0.027345
0.606897 0.188044 0.095736 0.286905 0.957512 -0.029245
0.317536 0.193497 0.267793 0.626302 -0.779217 0.023800
0.468012 0.066361 0.280918 0.756102 -0.650620 -0.070729
0.408737 0.210101 0.801312 0.999817 -0.019131 0.000588
0.399127 0.206441 0.681449 0.989305 0.145794 -0.004452
0.389639 0.194677 0.299255 0.975536 -0.219737 0.006712
0.403628 0.188955 0.108925 0.993531 0.113509 -0.003466
0.366316 0.193859 0.269412 0.925964 0.377436 -0.011527
0.350631 0.205286 0.643875 0.838084 0.545286 -0.016654
0.377011 0.201727 0.531335 0.946116 -0.323677 0.009887
0.303645 0.201921 0.541895 0.859863 -0.510287 0.015586
0.398675 0.149348 0.532910 -0.559694 0.806103 0.192202
0.441501 0.142552 0.306025 0.510965 0.817679 -0.265170
0.793042 0.199409 0.450889 -0.995457 -0.095164 0.003005
0.424368 0.052136 0.446508 0.016631 -0.999752 0.014796
0.664901 0.197330 0.378722 0.525803 -0.850210 0.025976
0.697042 0.198292 0.419346 0.374907 0.926631 -0.028290
0.430687 0.098554 0.823117 0.876996 0.441562 0.189477
0.054991 0.198862 0.431758 -0.945584 0.325232 -0.009731
0.429502 0.213958 0.940633 -0.927075 -0.373961 -0.026173
0.579015 0.190770 0.182669 0.413736 0.909973 -0.027793
0.425553 0.208392 0.745275 0.999394 -0.034797 0.001064
0.716319 0.190615 0.179045 0.236231 0.971244 -0.029664
0.409356 0.202638 0.557936 0.997352 -0.072694 0.002221
0.124901 0.192720 0.245971 0.261724 -0.964693 0.029465
0.420270 0.166493 0.864105 0.637014 0.759638 0.131007
0.678179 0.190779 0.188502 0.287948 0.957200 -0.029235
0.427202 0.207432 0.713821 0.998953 -0.045724 0.001397
0.300241 0.202432 0.549910 0.590975 0.806314 -0.024627
0.575328 0.196365 0.348320 0.766057 -0.642473 0.019624
0.420978 0.194693 0.296729 0.999990 -0.004414 0.000136
0.285004 0.191882 0.217479 0.484800 -0.874217 0.026701
0.430734 0.099384 0.231089 0.210612 0.778998 -0.590597
0.144521 0.197429 0.392449 0.424437 -0.905035 0.027643
0.056488 0.197657 0.396160 -0.857855 -0.513647 0.015879
0.390894 0.204423 0.615436 0.977784 0.209519 -0.006399
0.378755 0.209921 0.794456 0.989395 0.145179 -0.004433
0.763913 0.200560 0.484281 -0.149095 -0.988361 0.030227
0.468843 0.080598 0.525662 0.928728 -0.325539 0.177450
0.586056 0.205577 0.653001 0.986669 -0.162659 0.005167
0.680970 0.206196 0.668140 0.270444 -0.962287 0.029391
0.406083 0.080961 0.763247 -0.960645 -0.258023 0.102886
0.356563 0.188852 0.111832 0.868279 -0.495844 0.015145
0.442731 0.052892 0.246252 0.228431 -0.959195 -0.166625
0.660059 0.202775 0.562036 -0.893906 0.448056 -0.013356
0.255893 0.202671 0.561719 0.805229 -0.592688 0.018103
0.230535 0.205311 0.641995 0.390129 0.920331 -0.028109
0.467239 0.056158 0.298117 -0.227147 0.963487 -0.141761
0.346721 0.206403 0.683004 0.965819 -0.259096 0.007914
0.452183 0.191205 0.182639 0.973958 -0.226622 0.006922
0.077252 0.203236 0.570669 0.093159 0.995188 -0.030367
0.243546 0.194047 0.272764 0.791337 0.611096 -0.018639
0.440657 0.053026 0.528068 0.265159 -0.962813 0.051777
0.674046 0.206276 0.671072 0.276235 -0.960642 0.029341
0.280177 0.205915 0.664179 0.431581 0.901654 -0.027539
0.477624 0.208219 0.739852 0.896296 -0.443249 0.013539
0.336790 0.207750 0.724578 0.997154 -0.075350 0.002353
0.346014 0.189777 0.143168 0.812963 -0.582044 0.017778
0.532149 0.192151 0.224635 0.560951 0.827463 -0.025273
0.718293 0.205091 0.631234 0.316008 -0.948314 0.028964
0.215395 0.195488 0.337533 0.525131 -0.850625 0.025981
0.529285 0.200784 0.495933 0.668542 -0.743328 0.022704
0.565678 0.199403 0.462150 0.755895 0.654388 -0.019986
0.443202 0.182020 0.882863 0.916652 0.399686 -0.000315
0.555596 0.193625 0.259055 0.862881 -0.505172 0.015430
0.213841 0.206688 0.685351 0.659283 0.751545 -0.022954
0.474260 0.092483 0.420791 0.999619 -0.027134 0.005070
0.434321 0.111401 0.659601 0.981347 0.135205 0.136667
0.599297 0.209037 0.765548 0.289737 -0.956660 0.029219
0.397874 0.120968 0.267834 -0.296104 0.801654 -0.519301
0.412611 0.192719 0.232844 0.998756 -0.049835 0.001523
0.640745 0.204511 0.616993 0.323447 -0.945799 0.029077
0.327621 0.201499 0.527250 0.869008 -0.494567 0.015106
0.220300 0.197286 0.377630 0.655538 0.754810 -0.023053
0.437900 0.194999 0.873048 -0.931611 -0.363387 -0.007073
0.225731 0.204257 0.606950 0.422997 0.905709 -0.027663
0.443962 0.057984 0.558762 0.697865 -0.698867 0.156750
0.203195 0.206420 0.677478 0.316388 0.948188 -0.028960
0.770459 0.198166 0.409266 -0.947267 -0.320292 0.009889
0.747054 0.204675 0.617047 0.214198 -0.976335 0.029820
0.403725 0.198860 0.434783 0.993647 -0.112490 0.003437
0.323413 0.190109 0.145715 0.980590 0.195979 -0.005950
0.359876 0.188771 0.102177 0.993408 0.114581 -0.003483
0.125838 0.193588 0.263931 -0.064986 -0.997417 0.030594
0.577924 0.197057 0.386695 0.654647 0.755582 -0.023077
0.378205 0.191586 0.194796 0.966465 0.256678 -0.007839
0.502495 0.190342 0.162439 0.765238 0.643447 -0.019652
0.109963 0.205196 0.634369 0.208500 0.977566 -0.029857
0.680358 0.200792 0.491217 0.421679 -0.906322 0.027682
0.386967 0.193038 0.242698 0.970342 0.241625 -0.007379
0.473458 0.073784 0.325680 0.937626 -0.346369 -0.029778
0.789598 0.202255 0.538606 -0.083502 -0.996042 0.030445
0.222030 0.193745 0.281451 0.471953 -0.881213 0.026915
0.205718 0.201395 0.519440 0.633494 -0.773386 0.023661
0.420270 0.165423 0.870133 0.818142 0.564691 0.108474
0.080008 0.198072 0.405890 -0.921479 0.388255 -0.011633
0.455782 0.152260 0.908500 -0.961096 -0.272233 -0.046736
0.374066 0.066892 0.460923 -0.844605 -0.532160 0.058719
0.540951 0.199056 0.449517 0.770352 0.637321 -0.019465
0.668491 0.188922 0.127058 0.311351 0.949852 -0.029011
0.448090 0.192473 0.226790 0.980267 0.197586 -0.006034
0.319708 0.191630 0.206443 0.641778 -0.766533 0.023413
0.574606 0.197351 0.380604 0.739988 -0.672306 0.020535
0.434179 0.052674 0.248523 0.129853 -0.979621 -0.153232
0.336623 0.196983 0.380020 0.756085 -0.654168 0.019981
0.184292 0.194830 0.299773 0.101444 0.994389 -0.030010
0.465964 0.195438 0.321334 0.939035 -0.343662 0.010497
0.666466 0.197262 0.389342 0.485630 0.873757 -0.026687
0.504233 0.194026 0.273595 0.905586 -0.423965 0.012950
0.445993 0.197928 0.402751 0.983424 -0.181237 0.005536
0.226483 0.193707 0.279965 0.476463 -0.878785 0.026841
0.429332 0.074288 0.815349 0.699041 -0.697014 0.159729
0.654755 0.189020 0.130084 0.260314 0.965074 -0.029476
0.359401 0.195930 0.343270 0.881271 -0.472392 0.014429
0.409264 0.073007 0.795030 -0.892964 -0.438282 0.102586
0.376608 0.191726 0.203923 0.945151 -0.326481 0.009972
0.390847 0.153792 0.497862 -0.813644 0.562750 0.145929
0.315095 0.207072 0.702398 0.995224 -0.097569 0.003061
0.381000 0.093946 0.587201 -0.902326 -0.262370 0.342008
0.058513 0.198107 0.410397 -0.919242 -0.393503 0.012219
0.475221 0.200389 0.488671 0.906645 0.421699 -0.012879
0.430221 0.150758 0.558722 0.172302 0.961730 0.213045
0.498540 0.196481 0.363064 0.789655 0.613265 -0.018730
0.074174 0.202199 0.538498 -0.313656 0.949098 -0.028875
0.434064 0.203155 0.573830 0.995672 -0.092894 0.002838
0.230215 0.208048 0.732495 0.294935 0.955072 -0.029170
0.522848 0.198968 0.445665 0.785974 0.617971 -0.018874
0.361054 0.196943 0.370674 0.888405 0.458847 -0.014014
0.102340 0.194094 0.280878 -0.181571 -0.982916 0.030139
0.466830 0.068158 0.494993 0.822730 -0.565913 0.053454
0.252727 0.203249 0.579620 0.816074 -0.577677 0.017665
0.584515 0.191607 0.210159 0.436995 0.899045 -0.027459
0.409786 0.130017 0.637252 -0.933330 0.308939 0.182897
0.721040 0.195913 0.343987 0.329244 0.943805 -0.028826
0.433248 0.205507 0.968875 -0.922767 -0.385227 -0.010040
0.333725 0.209044 0.764859 0.951575 0.307274 -0.009384
0.094303 0.196891 0.368190 -0.989767 0.142634 -0.004112
0.405693 0.201158 0.508442 0.995192 0.097900 -0.002989
0.366113 0.203658 0.595181 0.938836 -0.344205 0.010514
0.253203 0.204263 0.608377 0.458720 0.888167 -0.027127
0.075746 0.194676 0.302889 0.203512 -0.978616 0.029892
0.333111 0.194078 0.275187 0.902075 0.431378 -0.013175
0.386217 0.050002 0.327428 -0.538560 -0.842550 -0.007870
0.416404 0.041818 0.798368 -0.967605 -0.088949 0.236280
0.433811 0.070620 0.621597 0.957150 -0.255042 0.137175
0.431872 0.112068 0.254634 0.094604 0.841483 -0.531937
0.386356 0.189718 0.133376 0.986396 0.164307 -0.005018
0.342776 0.188655 0.099257 0.998926 -0.046316 0.001465
0.685696 0.194956 0.304896 -0.948187 -0.317560 0.009898
0.462755 0.199798 0.468097 0.948597 0.316338 -0.009661
0.603486 0.197712 0.391874 0.675803 -0.736738 0.022503
0.379651 0.106902 0.266769 -0.619407 0.640020 -0.454653
0.498906 0.197192 0.378507 0.825777 -0.563734 0.017219
0.519475 0.209606 0.785446 0.650566 -0.759095 0.023185
0.469428 0.196516 0.356646 0.927752 -0.373023 0.011394
0.349589 0.206387 0.679922 0.832535 0.553715 -0.016911
0.519975 0.206440 0.682690 0.966237 0.257535 -0.007855
0.262818 0.198281 0.411013 0.705952 0.707929 -0.021622
0.450784 0.137623 0.348580 0.753398 0.646418 -0.120563
0.351874 0.203327 0.585238 0.925821 -0.377785 0.011539
0.630459 0.202045 0.533122 0.488033 -0.872418 0.026646
0.749455 0.204561 0.613275 0.212971 -0.976603 0.029828
0.530638 0.201176 0.508834 0.651903 -0.757949 0.023150
0.218755 0.188663 0.116685 0.288619 -0.956998 0.029230
0.420270 0.138350 0.878738 -0.042468 0.961255 0.272371
0.475040 0.087040 0.337996 0.997672 0.067018 -0.012648
0.382762 0.189390 0.126842 0.961363 -0.275156 0.008405
0.213360 0.200729 0.498903 0.673263 -0.739058 0.022574
0.347327 0.101348 0.889168 -0.018234 -0.999068 0.039135
0.443492 0.191548 0.196063 0.986760 0.162115 -0.004951
0.372305 0.113825 0.304408 -0.883411 0.464968 -0.058220
0.489321 0.204526 0.618985 0.841017 -0.540757 0.016517
0.466219 0.199772 0.467572 0.938384 0.345433 -0.010550
0.343514 0.196602 0.359094 0.844501 0.535305 -0.016349
0.420270 0.150824 0.866278 -0.773387 0.623694 0.113484
0.056868 0.195828 0.338514 -0.310873 -0.950006 0.029110
0.427260 0.219864 0.833058 -0.927862 -0.372853 0.007288
0.388504 0.209015 0.765780 0.973566 0.228301 -0.006972
0.741972 0.202312 0.539797 0.256648 -0.966054 0.029506
0.359415 0.201065 0.505625 0.881226 0.472475 -0.014430
0.618455 0.203035 0.566394 0.465116 -0.884837 0.027026
0.633564 0.201226 0.514173 0.649271 0.760203 -0.023206
0.448933 0.193306 0.254169 0.978918 0.204158 -0.006235
0.804466 0.198350 0.417260 -0.997346 0.072781 -0.002127
0.470795 0.054619 0.294577 0.031888 0.924886 -0.378905
0.435350 0.082647 0.740731 0.983216 -0.150131 0.103666
0.396381 0.148454 0.326433 -0.351642 0.904205 -0.242406
0.246944 0.207944 0.727069 0.703481 0.710383 -0.021696
0.497734 0.188883 0.114201 0.794205 0.607366 -0.018550
0.231382 0.205627 0.652479 0.379739 0.924662 -0.028241
0.488464 0.189864 0.137257 0.974501 -0.224277 0.006851
0.591448 0.196403 0.366226 0.611994 0.790494 -0.024143
0.398693 0.098197 0.229078 -0.285206 0.815877 -0.502993
0.327510 0.195056 0.317856 0.695979 -0.717728 0.021922
0.457711 0.130504 0.552853 0.908632 0.334154 0.250458
0.599649 0.190345 0.157179 0.782938 0.621810 -0.018977
0.434479 0.101428 0.762984 0.986559 0.119992 0.110917
0.475270 0.086845 0.391425 0.998230 -0.059451 -0.001704
0.418168 0.189898 0.139723 0.999906 0.013719 -0.000418
0.133085 0.192214 0.220969 0.374737 -0.926699 0.028311
0.452648 0.141157 0.390640 0.803050 0.588136 -0.095949
0.706313 0.205872 0.656984 0.301444 -0.953040 0.029109
0.622783 0.198327 0.425186 0.613040 0.789684 -0.024119
0.417807 0.196146 0.344523 0.999876 -0.015724 0.000481
0.412768 0.156016 0.535178 -0.167172 0.969264 0.180504
0.352765 0.101348 0.860534 0.031982 0.999391 0.013950
0.274370 0.190843 0.170770 0.999513 -0.031168 0.001211
0.125155 0.200365 0.476619 0.361317 0.932008 -0.028466
0.384628 0.069786 0.545822 -0.733691 -0.643065 0.219466
0.662382 0.193450 0.256775 -0.873280 0.487001 -0.014561
0.297902 0.190283 0.164513 0.485820 -0.873651 0.026684
0.628869 0.207422 0.709260 0.563073 -0.826022 0.025229
0.652460 0.206333 0.673220 0.550361 -0.834538 0.025490
0.372974 0.051137 0.313099 0.176884 0.734908 0.654693
0.187541 0.194413 0.286512 -0.123294 0.991924 -0.029747
0.419631 0.209162 0.770435 0.999995 0.003319 -0.000101
0.304038 0.208820 0.756897 0.881702 0.471588 -0.014403
0.136826 0.198384 0.422001 0.282645 -0.958776 0.029328
0.125549 0.198496 0.417413 0.097343 0.994790 -0.030297
0.456366 0.149935 0.938287 -0.926336 -0.376488 -0.012621
0.670576 0.207717 0.718861 0.235995 -0.971301 0.029666
0.141810 0.192608 0.232692 0.291032 -0.956266 0.029258
0.687384 0.189963 0.162533 0.250608 0.967637 -0.029554
0.708150 0.196157 0.343580 -0.851606 -0.523934 0.016159
0.387957 0.207247 0.710492 0.987255 -0.159070 0.004859
0.352949 0.195531 0.324100 0.880630 0.473583 -0.014464
0.475529 0.086734 0.445045 0.995428 -0.094147 0.016080
0.494822 0.209534 0.781108 0.954664 -0.297547 0.009089
0.431772 0.194147 0.280002 0.997073 0.076422 -0.002333
0.414925 0.059288 0.675602 -0.507148 -0.851434 0.133643
0.523533 0.189744 0.134491 0.997349 -0.072728 0.002264
0.073712 0.199770 0.459564 -0.488631 0.872088 -0.026489
0.234174 0.190166 0.164605 0.357455 -0.933495 0.028512
0.351886 0.194587 0.292851 0.902410 0.430678 -0.013153
0.412579 0.198236 0.413497 0.998730 -0.050363 0.001539
0.359868 0.032460 0.292955 -0.746894 -0.532595 -0.398109
0.612527 0.208740 0.755268 0.270099 -0.962384 0.029394
0.381545 0.204469 0.616958 0.958387 0.285340 -0.008714
0.724572 0.201799 0.528547 -0.937015 -0.349123 0.010802
0.236798 0.198670 0.437075 0.662615 -0.748611 0.022865
0.339874 0.201086 0.506398 0.776101 0.630315 -0.019251
0.168732 0.191272 0.204141 0.312278 -0.949548 0.029002
0.054992 0.197595 0.394146 -0.857826 -0.513694 0.015879
0.586279 0.195628 0.340772 0.588379 0.808209 -0.024685
0.255844 0.207289 0.708543 0.351680 0.935684 -0.028578
0.260058 0.198081 0.420077 0.690126 -0.723352 0.022094
0.617824 0.193420 0.270866 0.460669 0.887158 -0.027096
0.308084 0.194495 0.287933 0.873037 0.487427 -0.014887
0.431045 0.127861 0.644202 0.930299 0.339062 0.139931
0.454421 0.142885 0.434474 0.784101 0.617630 -0.060982
0.359724 0.189585 0.128257 0.979617 0.200782 -0.006132
0.163434 0.202099 0.534019 0.390313 0.920253 -0.028107
0.385513 0.140359 0.428602 -0.799993 0.599360 -0.027912
0.587426 0.202674 0.561617 0.801245 0.598057 -0.018266
0.330845 0.200050 0.472534 0.718457 0.695247 -0.021234
0.368243 0.104472 0.451775 -0.994139 0.106934 0.015871
0.466724 0.130381 0.469483 0.938869 0.343589 0.021738
0.420270 0.185499 0.899990 0.869292 0.485407 0.093337
0.456420 0.191339 0.186900 0.971333 -0.237612 0.007258
0.270617 0.201720 0.525078 0.580978 0.813540 -0.024847
0.772834 0.198286 0.413124 -0.943897 -0.330084 0.010187
0.465913 0.194954 0.305459 0.939202 -0.343205 0.010483
0.307836 0.209649 0.786075 0.656526 0.753952 -0.023027
0.405910 0.106824 0.707584 -0.945890 0.297013 0.130676
0.628874 0.202256 0.540155 0.481809 -0.875868 0.026752
0.420270 0.148389 0.890103 -0.359178 0.898176 0.253518
0.173934 0.193495 0.258418 -0.764960 -0.643761 0.020203
0.111746 0.197777 0.395361 -0.552366 0.833220 -0.025230
0.617166 0.206373 0.675796 0.714950 -0.698850 0.021355
0.660783 0.206900 0.691529 0.439124 -0.898008 0.027428
0.321824 0.194720 0.307404 0.656594 -0.753893 0.023026
0.497367 0.206432 0.683640 0.964438 0.264185 -0.008068
0.137198 0.194155 0.280870 -0.663071 -0.748199 0.023156
0.707290 0.196486 0.353882 -0.681550 -0.731426 0.022486
0.242587 0.203640 0.591563 0.811226 -0.584458 0.017940
0.402625 0.053026 0.537106 -0.398222 -0.912663 0.092004
0.226206 0.202658 0.560015 0.726429 -0.686919 0.021046
0.438301 0.160398 0.467530 0.347440 0.922681 0.167167
0.612982 0.188959 0.125801 0.308870 0.950661 -0.029036
0.408698 0.070522 0.724576 -0.876951 -0.467383 0.111845
0.465233 0.064626 0.411428 0.915287 -0.402504 0.015513
0.763566 0.202731 0.553121 0.206771 -0.977933 0.029869
0.400873 0.197256 0.382568 0.991062 -0.133341 0.004073
0.512986 0.198603 0.433266 0.783917 0.620576 -0.018954
0.619976 0.190733 0.183751 0.359828 0.932584 -0.028483
0.640539 0.201324 0.509357 0.488963 -0.871898 0.026631
0.290413 0.196337 0.347979 0.804855 0.593195 -0.018117
0.334288 0.208466 0.746682 0.982455 0.186413 -0.005669
0.198865 0.199890 0.472048 0.617862 -0.785920 0.024005
0.414704 0.208557 0.751204 0.999325 -0.036707 0.001122
0.473702 0.206290 0.676654 0.912063 -0.409859 0.012519
0.625862 0.201460 0.521837 0.682507 0.730539 -0.022303
0.651615 0.202283 0.540510 0.437370 -0.898863 0.027454
0.583543 0.196871 0.364716 0.737700 -0.674814 0.020611
0.656283 0.195271 0.328676 0.451263 0.891975 -0.027243
0.397247 0.202729 0.559927 0.987066 0.160238 -0.004893
0.183174 0.190640 0.171440 0.532189 -0.846231 0.025847
0.448169 0.200132 0.477581 0.980233 0.197753 -0.006039
0.598409 0.206969 0.697323 0.345804 -0.937870 0.028645
0.547303 0.191548 0.192192 0.934528 -0.355724 0.010883
0.420417 0.052956 0.490862 -0.017616 -0.999596 0.022326
0.515282 0.189517 0.127039 0.997273 -0.073764 0.002288
0.711088 0.194952 0.315075 0.325386 0.945140 -0.028867
0.614090 0.193983 0.288930 0.487223 0.872871 -0.026660
0.423655 0.200262 0.479075 0.999760 -0.021900 0.000670
0.461088 0.129448 0.393054 0.907880 0.416074 -0.051348
0.446171 0.160367 0.461325 0.555354 0.830831 0.036073
0.474327 0.209407 0.777541 0.989014 -0.147752 0.004515
0.352571 0.192948 0.246313 0.848369 -0.529158 0.016163
0.588142 0.197973 0.416671 0.675068 0.737411 -0.022522
0.143462 0.200523 0.482104 0.394658 0.918400 -0.028050
0.112683 0.191564 0.209501 0.212755 -0.976650 0.029830
0.329473 0.190793 0.167251 0.952584 0.304133 -0.009288
0.462309 0.055735 0.298936 -0.514417 0.857518 0.006163
0.385504 0.139786 0.424526 -0.806128 0.590956 -0.030475
0.164928 0.205055 0.631793 0.458328 0.888370 -0.027103
0.295365 0.188737 0.114142 0.467976 -0.883329 0.026980
0.502485 0.188804 0.112079 0.765245 0.643439 -0.019652
0.561561 0.208374 0.741816 0.817980 -0.574978 0.017562
0.408744 0.202150 0.540906 0.997085 0.076263 -0.002329
0.362434 0.190813 0.168520 0.970725 0.240084 -0.007332
0.263552 0.196660 0.373759 0.640153 -0.767889 0.023454
0.441833 0.184426 0.860160 0.918400 0.395648 0.001878
0.187031 0.193408 0.254987 -0.970006 -0.242947 0.008093
0.691521 0.194972 0.317022 0.367051 0.929767 -0.028397
0.539172 0.192808 0.232632 0.898453 -0.438865 0.013405
0.515085 0.205567 0.653180 0.681363 -0.731605 0.022346
0.135886 0.195346 0.317935 -0.996305 0.085860 -0.002303
0.399784 0.206637 0.687884 0.990022 0.140851 -0.004301
0.263310 0.199701 0.470679 0.742925 -0.669062 0.020436
0.421882 0.232874 0.895329 -0.922708 -0.385475 -0.004319
0.401276 0.103771 0.594879 -0.986378 0.007238 0.164335
0.294723 0.193972 0.284765 0.576526 -0.816698 0.024945
0.179277 0.204857 0.624725 0.340768 0.939709 -0.028701
0.063727 0.198340 0.417960 -0.923349 -0.383775 0.011927
0.127359 0.205965 0.659824 0.221451 0.974717 -0.029770
0.364994 0.085688 0.394352 -0.990542 -0.137210 -0.000506
0.364573 0.209654 0.785435 0.980786 0.194996 -0.005955
0.658769 0.196931 0.379674 0.493144 0.869542 -0.026558
0.615955 0.207053 0.697503 0.678251 -0.734487 0.022434
0.547142 0.198714 0.438755 0.751966 0.658895 -0.020124
0.447359 0.200237 0.478347 0.981379 -0.191992 0.005865
0.443623 0.093715 0.594013 0.977941 0.030149 0.206694
0.212930 0.195825 0.347756 0.529460 -0.847939 0.025899
0.141837 0.195231 0.314067 -0.991616 0.129166 -0.003603
0.226684 0.203668 0.591881 0.739272 -0.673086 0.020800
0.354837 0.204019 0.607555 0.939708 -0.341819 0.010441
0.458453 0.200356 0.482290 0.959603 -0.281226 0.008590
0.203850 0.207896 0.724550 0.466043 0.884350 -0.027010
0.736100 0.201899 0.526407 0.278334 -0.960037 0.029322
0.245236 0.195437 0.317619 0.757005 0.653104 -0.019947
0.761803 0.196382 0.353024 -0.987196 0.159439 -0.004757
0.678661 0.198337 0.421641 0.489702 0.871484 -0.026617
0.243341 0.188481 0.105445 0.653869 -0.756255 0.023099
0.411008 0.257846 0.893478 0.919896 0.392158 -0.001721
0.454280 0.144414 0.457384 0.799108 0.601131 -0.008191
0.413926 0.055223 0.623715 -0.572949 -0.808714 0.133086
0.399011 0.192730 0.232551 0.989057 0.147464 -0.004503
0.260662 0.189638 0.145978 0.372703 -0.927518 0.028329
0.420270 0.139590 0.856596 -0.711555 0.689780 0.133766
0.731538 0.195583 0.326611 -0.990475 0.137634 -0.004072
0.445331 0.053026 0.527573 0.412074 -0.907889 0.077017
0.268820 0.189734 0.148635 0.386325 -0.921933 0.028159
0.109645 0.195749 0.338254 0.304395 -0.952102 0.029080
0.423933 0.159012 0.506265 0.045135 0.992758 0.111334
0.550478 0.204044 0.602764 0.515247 -0.856642 0.026165
0.702438 0.193340 0.265976 0.302745 0.952627 -0.029096
0.432717 0.190623 0.164705 0.996527 0.083234 -0.002541
0.287928 0.199703 0.471170 0.779571 -0.626022 0.019121
0.067936 0.195699 0.332466 -0.736066 -0.676589 0.020847
0.285925 0.204149 0.606039 0.505753 0.862276 -0.026336
0.477805 0.203184 0.574982 0.895671 -0.444510 0.013577
0.091980 0.195535 0.326065 -0.879585 -0.475513 0.014757
0.541981 0.195628 0.338321 0.644850 0.763953 -0.023333
0.422797 0.229983 0.852160 0.921473 0.388422 0.003851
0.427259 0.100049 0.837900 0.764448 0.622117 0.169085
0.464884 0.187794 0.070819 0.999950 -0.010024 0.000320
0.636138 0.198334 0.411606 0.590705 -0.806512 0.024634
0.235403 0.197099 0.371797 0.690755 0.722751 -0.022074
0.417824 0.242353 0.841714 -0.926661 -0.375825 0.007414
0.461748 0.138591 0.877353 0.913095 0.407748 0.000079
0.451961 0.084890 0.220140 0.601290 0.584814 -0.544466
0.499614 0.190125 0.155068 0.782975 0.621763 -0.018990
0.446502 0.189556 0.128373 0.988943 -0.148226 0.004528
0.725345 0.191342 0.199677 0.248804 0.968102 -0.029568
0.404181 0.120990 0.594498 -0.969978 0.121920 0.210423
0.508014 0.189041 0.120400 0.729732 0.683415 -0.020873
0.060852 0.196567 0.361933 -0.488141 -0.872354 0.026775
0.480648 0.195692 0.329711 0.883532 -0.468153 0.014299
0.347270 0.193881 0.269294 0.914998 0.403269 -0.012316
0.414352 0.188877 0.106331 0.999248 0.038754 -0.001183
0.501731 0.202346 0.547654 0.769599 -0.638230 0.019494
0.420914 0.206034 0.668028 0.999989 -0.004620 0.000142
0.450673 0.163677 0.922830 -0.926168 -0.376954 -0.010892
0.767061 0.199175 0.444622 -0.981499 0.191382 -0.005735
0.576170 0.201593 0.520573 0.578115 -0.815575 0.024910
0.437586 0.194951 0.825907 0.921536 0.388227 0.007217
0.182291 0.193619 0.261773 -0.993639 -0.112539 0.004006
0.296540 0.206109 0.671356 0.972006 -0.234846 0.007250
0.271724 0.199369 0.461045 0.749647 -0.661529 0.020205
0.456240 0.186716 0.039139 0.964706 0.263206 -0.008038
0.321103 0.190871 0.169755 0.949204 0.314515 -0.009601
0.195118 0.188935 0.124305 0.441068 -0.897055 0.027399
0.223482 0.207322 0.706268 0.642364 0.766042 -0.023396
0.521987 0.199685 0.468890 0.809736 0.586520 -0.017913
0.654920 0.199781 0.467844 0.580438 0.813925 -0.024858
0.401489 0.092941 0.634039 -0.992771 0.035759 0.114570
0.296901 0.192059 0.222548 0.506837 -0.861640 0.026317
0.474681 0.089480 0.360892 0.998455 -0.054773 -0.009359
0.746254 0.196940 0.369721 -0.978981 -0.203851 0.006347
0.478231 0.196569 0.363897 0.894219 0.447421 -0.013665
0.661760 0.192805 0.252308 0.372763 0.927494 -0.028328
0.440216 0.053026 0.556145 0.577595 -0.805766 0.130863
0.246058 0.207939 0.729572 0.317623 0.947775 -0.028947
0.789255 0.195058 0.313536 -0.294939 0.955072 -0.029127
0.518192 0.193606 0.270868 0.660547 0.750434 -0.022920
0.160411 0.196964 0.367829 0.309632 0.950416 -0.028936
0.657321 0.207966 0.727682 0.242159 -0.969784 0.029620
0.435426 0.193736 0.265468 0.994771 -0.102079 0.003119
0.120970 0.191535 0.209154 0.227445 -0.973337 0.029729
0.420270 0.116472 0.855143 0.863391 0.480354 0.154323
0.431511 0.053026 0.582351 0.533272 -0.833947 0.141961
0.082330 0.197158 0.381377 -0.308677 -0.950720 0.029157
0.500616 0.197463 0.387407 0.815894 -0.577932 0.017652
0.354303 0.207715 0.723371 0.857086 0.514934 -0.015727
0.229092 0.192066 0.226560 0.418425 -0.907828 0.027728
0.561399 0.194726 0.310125 0.585705 0.810146 -0.024744
0.603155 0.198983 0.433473 0.637851 -0.769801 0.023512
0.607227 0.197860 0.396662 0.664001 -0.747383 0.022828
0.391519 0.197333 0.383280 0.978744 0.204992 -0.006260
0.252379 0.205296 0.644122 0.986133 -0.165865 0.005496
0.371884 0.119995 0.399710 -0.935012 0.353340 -0.030047
0.461619 0.124965 0.355227 0.869508 0.491067 -0.053000
0.329506 0.207061 0.702070 0.709207 0.704672 -0.021522
0.780994 0.199344 0.446717 -0.817767 -0.575278 0.017664
0.329777 0.200618 0.498556 0.846879 -0.531537 0.016235
0.438260 0.195287 0.317946 0.992427 0.122777 -0.003749
0.269309 0.198428 0.416154 0.708024 0.705859 -0.021558
0.634415 0.194290 0.281891 0.541100 -0.840563 0.025780
0.522674 0.191766 0.211068 0.628840 0.777172 -0.023737
0.569082 0.189206 0.120828 0.842615 0.538266 -0.016439
0.780715 0.195806 0.336227 -0.725681 0.687714 -0.020918
0.437388 0.194899 0.853965 0.919419 0.393271 0.002747
0.306520 0.207771 0.725437 0.546587 0.837012 -0.025564
0.396733 0.192743 0.235212 0.986407 -0.164245 0.005017
0.387802 0.209239 0.773384 0.997975 -0.063571 0.001949
0.341189 0.205180 0.640454 0.784267 0.620134 -0.018940
0.702998 0.205093 0.631498 0.260408 -0.965049 0.029475
0.610716 0.200121 0.481304 0.690059 0.723416 -0.022095
0.436452 0.197698 0.907085 -0.923898 -0.382577 -0.006876
0.686579 0.199600 0.452121 0.444287 -0.895467 0.027350
0.545121 0.195319 0.314676 0.839034 -0.543825 0.016611
0.257219 0.195909 0.349730 0.602887 -0.797455 0.024357
0.430768 0.211738 0.868303 -0.925614 -0.378442 -0.004405
0.551258 0.194349 0.282811 0.852687 -0.522179 0.015949
0.333232 0.202827 0.570068 0.904842 -0.425550 0.012998
0.456984 0.115407 0.577129 0.929302 0.196258 0.312857
0.119233 0.200915 0.494482 0.333826 0.942195 -0.028777
0.186846 0.201021 0.499213 0.470516 0.881980 -0.026938
0.642973 0.197463 0.397165 0.543650 0.838921 -0.025623
0.507272 0.207279 0.709589 0.988210 0.153036 -0.004657
0.172508 0.203180 0.569567 0.378089 0.925338 -0.028262
0.810689 0.199074 0.439434 -0.985549 -0.169308 0.005264
0.474820 0.090856 0.470991 0.997251 -0.070672 0.022272
0.420270 0.200053 0.930841 -0.950150 0.308294 0.046588
0.631018 0.202764 0.556866 0.458938 -0.888054 0.027124
0.406103 0.109432 0.686322 -0.952738 0.270111 0.139031
0.419414 0.146865 0.582016 -0.017346 0.976192 0.216213
0.588021 0.209101 0.767547 0.365369 -0.930429 0.028418
0.633834 0.193078 0.243766 -0.824130 -0.566113 0.018034
0.775909 0.200932 0.498864 -0.828410 -0.559858 0.017196
0.682080 0.200872 0.493814 0.415712 -0.909072 0.027766
0.312123 0.189702 0.144089 0.587674 -0.808721 0.024701
0.734157 0.201042 0.498402 0.304696 -0.952006 0.029077
0.311271 0.209165 0.771066 0.580865 0.813620 -0.024850
0.372533 0.200330 0.481502 0.932434 0.361172 -0.011030
0.320305 0.101348 0.871044 0.629172 0.766934 -0.126312
0.708991 0.193740 0.268307 -0.224597 0.974001 -0.029654
0.433652 0.198022 0.407052 0.995991 0.089409 -0.002730
0.118161 0.192131 0.227358 0.235393 -0.971447 0.029671
0.584903 0.188886 0.121862 0.340990 0.939629 -0.028699
0.073857 0.198652 0.424377 -0.855685 0.517263 -0.015589
0.544235 0.198653 0.436622 0.753004 0.657709 -0.020088
0.384355 0.132182 0.368874 -0.834342 0.547953 -0.060171
0.246524 0.205530 0.651105 0.947805 0.318711 -0.009395
0.420269 0.235738 0.869012 0.920515 0.390704 0.001301
0.675004 0.192823 0.238047 0.167349 0.985441 -0.030009
0.609724 0.198109 0.419367 0.634460 0.772595 -0.023597
0.610287 0.192417 0.222034 0.860929 -0.508474 0.015997
0.184370 0.189032 0.130559 0.258975 -0.965434 0.029487
0.376523 0.208531 0.750654 0.991353 -0.131158 0.004007
0.365421 0.201740 0.532901 0.906616 -0.421761 0.012882
0.442737 0.124003 0.272015 0.137469 0.829761 -0.540924
0.457189 0.095090 0.246521 0.669665 0.603109 -0.433368
0.731053 0.192011 0.218326 0.272749 0.961637 -0.029371
0.492218 0.209794 0.790161 0.927746 -0.373038 0.011394
0.145771 0.190068 0.165663 0.241360 -0.969983 0.029626
0.472559 0.088202 0.275453 0.986327 0.026320 -0.162685
0.068883 0.201761 0.524685 -0.502314 0.864287 -0.026254
0.240403 0.208073 0.731147 0.653494 0.756579 -0.023108
0.467400 0.089684 0.542482 0.962710 -0.164452 0.214813
0.205287 0.206816 0.689339 0.595579 0.802922 -0.024523
0.145460 0.206909 0.691083 0.230953 0.972511 -0.029703
0.149239 0.203815 0.589909 0.314898 0.948683 -0.028975
0.190523 0.192428 0.224463 0.331556 -0.942988 0.029043
0.223735 0.200434 0.480673 0.565361 0.824459 -0.025181
0.322992 0.208838 0.757916 0.937000 0.349166 -0.010664
0.780687 0.202554 0.547664 0.088614 -0.995601 0.030417
0.490842 0.101348 0.881595 0.277699 0.958457 0.065142
0.434526 0.110736 0.656830 0.981653 0.131364 0.138203
0.429036 0.103512 0.824739 0.806902 0.575310 0.133895
0.620362 0.197516 0.400349 0.594557 0.803678 -0.024546
0.159858 0.192764 0.249738 0.332545 -0.942648 0.028791
0.332946 0.188789 0.103960 0.993672 -0.112264 0.003476
0.378345 0.200700 0.493574 0.949972 0.312189 -0.009534
0.255461 0.197214 0.392203 0.651346 -0.758427 0.023165
0.361443 0.191570 0.200327 0.890418 -0.454931 0.013896
0.080306 0.199069 0.441538 -0.935171 -0.354026 0.011037
0.141898 0.193804 0.280544 0.321915 -0.946327 0.028904
0.214484 0.207177 0.701323 0.607458 0.793982 -0.024250
0.097847 0.200864 0.498656 -0.998859 0.047745 -0.001214
0.405631 0.081119 0.743873 -0.961146 -0.255505 0.104478
0.362086 0.101348 0.878036 0.592597 -0.805498 -0.001328
0.410641 0.259278 0.914970 -0.919121 -0.393585 -0.017512
0.093432 0.200057 0.473146 -0.984625 -0.174592 0.005574
0.455530 0.153563 0.876940 0.909246 0.416259 -0.001140
0.586426 0.206955 0.695484 0.821325 -0.570194 0.017426
0.632593 0.190378 0.172931 0.331634 0.942968 -0.028801
0.193460 0.198761 0.425393 0.554160 0.832022 -0.025412
0.573652 0.201330 0.512004 0.591811 -0.805701 0.024609
0.320011 0.209447 0.778172 0.862232 0.506277 -0.015462
0.450571 0.189937 0.140795 0.985615 -0.168927 0.005160
0.258832 0.197826 0.411878 0.678987 -0.733808 0.022413
0.323020 0.197848 0.399377 0.787057 0.616592 -0.018832
0.527313 0.192579 0.225350 0.914445 -0.404521 0.012356
0.281494 0.189636 0.144767 0.398958 -0.916542 0.027994
0.459368 0.089278 0.587879 0.950624 -0.098382 0.294339
0.400740 0.092508 0.598179 -0.992160 -0.043479 0.117165
0.610935 0.188980 0.120686 0.627416 0.778322 -0.023772
0.537618 0.204324 0.612596 0.521038 -0.853135 0.026058
0.637895 0.206910 0.692344 0.569182 -0.821829 0.025101
0.439489 0.060223 0.584155 0.760601 -0.617729 0.199740
0.420270 0.170288 0.903145 -0.879880 0.465629 0.094874
0.367609 0.192178 0.213888 0.954882 0.296847 -0.009066
0.420270 0.120620 0.867355 0.743696 0.632197 0.217355
0.462524 0.200216 0.481738 0.949249 0.314378 -0.009601
0.625994 0.206384 0.675615 0.684794 -0.728397 0.022251
0.778282 0.198603 0.426169 -0.969559 0.244745 -0.007371
0.473873 0.209312 0.775621 0.911332 -0.411480 0.012568
0.433999 0.162045 0.405091 0.521564 0.736082 -0.431457
0.364830 0.189714 0.132595 0.980635 0.195752 -0.005978
0.254396 0.194846 0.315379 0.557739 -0.829630 0.025340
0.686398 0.192225 0.232732 0.307711 0.951036 -0.029047
0.371249 0.191654 0.196734 0.963345 0.268140 -0.008189
