0.405227 0.223894 0.509164 0.723342 0.688352 -0.054296
0.446650 0.161116 0.669012 0.928580 0.366614 0.057735
0.362639 0.089133 0.753680 -0.970495 0.218694 0.101549
0.380830 0.110302 0.810863 -0.805349 0.592000 0.030797
0.399025 0.147572 0.200950 -0.566913 0.812356 -0.136705
0.361616 0.102848 0.717302 -0.968159 0.214704 0.128724
0.453259 0.131008 0.496216 0.982071 0.109889 -0.153168
0.466047 0.120460 0.544465 0.948100 -0.317911 -0.006286
0.371871 0.168215 0.619107 -0.833742 -0.229934 0.502000
0.429369 0.143032 0.339977 0.981914 0.179323 -0.060725
0.412525 0.060559 0.494225 0.069705 -0.932189 -0.355197
0.555153 0.216144 0.576844 0.015334 -0.999805 0.012459
0.389264 0.102382 0.415423 -0.597300 -0.763438 -0.245756
0.402094 0.027546 0.816997 -0.038280 -0.956018 -0.290799
0.456136 0.116594 0.695644 0.984043 0.162586 0.072290
0.406430 0.146024 0.151536 -0.674281 -0.639595 -0.369140
0.447060 0.222033 0.084922 -0.442196 -0.874525 -0.199168
0.353888 0.222696 0.629908 0.000167 0.624414 0.781094
0.394174 0.048536 0.842896 0.845998 -0.245060 0.473532
0.424541 0.127048 0.268631 0.944692 -0.261545 -0.197866
0.444366 0.146089 0.223929 0.965193 0.207697 0.158947
0.385010 0.225363 0.671248 0.276068 0.954851 0.109752
0.415997 0.230790 0.622528 0.367032 0.863043 -0.347051
0.385035 0.179739 0.675987 -0.540390 0.840058 0.047759
0.566344 0.115836 0.574847 0.480830 0.872226 -0.089583
0.568268 0.218785 0.811621 0.490761 -0.772406 -0.403166
0.488601 0.143004 0.212035 0.530592 -0.829363 0.175012
0.449996 0.064907 0.763823 0.695947 -0.717853 0.018564
0.367099 0.099784 0.479781 -0.973677 -0.079263 -0.213707
0.397768 0.216144 0.454783 0.153873 -0.987736 -0.026473
0.600076 0.097611 0.575255 0.688904 0.717034 -0.106177
0.370210 0.089370 0.465970 -0.911598 -0.296485 -0.284755
0.403731 0.067466 0.854201 0.589385 -0.796533 -0.134764
0.384964 0.223410 0.406360 -0.596125 0.800900 0.056519
0.403613 0.037822 0.838030 0.480250 0.830879 0.281068
0.430874 0.097171 0.425358 0.507306 -0.820567 -0.263269
0.374421 0.168341 0.539433 -0.897967 0.439854 -0.013550
0.361208 0.095217 0.697960 -0.998724 0.041781 0.028359
0.452746 0.094014 0.481744 0.950491 -0.204354 -0.234108
0.383507 0.129818 0.412902 -0.986725 0.104845 -0.124023
0.446112 0.166531 0.549592 0.890875 0.454245 -0.001854
0.339602 0.145118 0.196009 -0.257009 0.918234 -0.301317
0.361800 0.074607 0.556787 -0.974551 -0.223451 -0.017862
0.373931 0.108234 0.765650 -0.889470 0.413920 0.193683
0.524043 0.216874 0.594073 0.222670 -0.834103 0.504669
0.376054 0.064424 0.845649 -0.946723 -0.233525 0.221769
0.417613 0.131890 0.207831 0.761793 -0.600776 -0.242362
0.395175 0.032363 0.831557 -0.996077 0.080877 0.035907
0.361139 0.113691 0.560954 -0.966111 -0.254065 -0.045624
0.409881 0.192602 0.636204 0.004049 0.996276 0.086129
0.424194 0.122178 0.288839 0.796030 -0.560909 -0.227414
0.365950 0.068007 0.564531 -0.786170 -0.616791 -0.038805
0.395874 0.138253 0.230993 -0.838216 -0.545211 -0.011840
0.044774 0.216144 0.540676 0.108859 -0.816011 -0.567693
0.443325 0.119530 0.773293 0.888613 0.346565 0.300433
0.518829 0.221619 0.779180 -0.741939 0.198549 0.640395
0.458201 0.079491 0.704620 0.997664 -0.063268 0.025781
0.415337 0.165792 0.418841 0.446211 0.889774 -0.095910
0.380077 0.028707 0.790827 -0.894459 -0.403218 -0.193281
0.399848 0.225363 0.490386 0.177782 0.983956 -0.014944
0.392508 0.051507 0.613967 -0.173461 -0.984295 -0.032769
0.343516 0.144921 0.194319 -0.318931 0.885562 -0.337732
0.452656 0.070537 0.520966 0.798650 -0.594149 -0.095634
0.522108 0.219920 0.575781 -0.424962 0.067319 -0.902705
0.450238 0.146466 0.491960 0.964573 0.210337 -0.159237
0.495959 0.216624 0.734633 0.250858 -0.944815 -0.210702
0.465947 0.146974 0.219064 0.407124 0.900584 0.152312
0.419978 0.168381 0.730185 -0.280878 0.382120 0.880393
0.506376 0.218510 0.586381 -0.356302 -0.525924 -0.772304
0.411010 0.233450 0.082817 0.665089 0.054863 -0.744746
0.436873 0.113363 0.417512 0.954262 -0.243429 -0.173570
0.301345 0.225363 0.609202 -0.008800 0.999293 0.036564
0.361286 0.078658 0.580628 -0.995086 -0.098740 -0.007394
0.722139 0.219379 0.496971 -0.232184 -0.747104 -0.622837
0.395653 0.155855 0.662779 -0.324093 0.617977 -0.716288
0.222750 0.216144 0.926127 -0.393770 -0.892989 -0.217980
0.403417 0.231400 0.638992 -0.197639 0.977447 0.074407
0.456344 0.128431 0.625527 0.989818 0.010212 0.141975
0.385475 0.060626 0.768818 -0.484803 0.160508 -0.859769
0.494666 0.217643 0.728623 0.413820 -0.836472 -0.359261
0.328164 0.216144 0.759617 -0.141436 -0.987434 -0.070495
0.440981 0.087575 0.453287 0.727157 -0.581922 -0.364155
0.415218 0.174526 0.141399 0.905307 -0.335805 -0.260106
0.449516 0.064041 0.663796 0.655447 -0.755240 -0.001077
0.035896 0.222260 0.553125 -0.271449 -0.099661 0.957279
0.393223 0.029992 0.784764 0.800416 -0.486260 -0.350552
0.391625 0.027379 0.806112 0.773247 -0.631856 0.053354
0.458411 0.144178 0.190137 0.745734 -0.313993 -0.587613
0.414984 0.176781 0.635138 0.882321 -0.397711 -0.251664
0.371793 0.153279 0.692998 -0.960666 0.262386 0.090965
0.379038 0.076831 0.841431 -0.761408 0.501767 0.410473
0.594571 0.109064 0.576620 0.475767 0.879241 -0.024114
0.385053 0.168950 0.649481 0.277878 -0.813922 -0.510210
0.435087 0.147033 0.435114 0.884245 0.437174 -0.164286
0.385693 0.123804 0.377315 -0.971994 -0.203432 -0.117658
0.370796 0.070712 0.503797 -0.752587 -0.616989 -0.230083
0.430706 0.139535 0.351539 0.992667 0.050681 -0.109744
0.437105 0.132961 0.421877 0.981268 0.145888 -0.125813
0.050958 0.216981 0.550339 -0.095923 -0.950397 0.295877
0.241203 0.216315 0.906877 0.171890 -0.975769 0.135383
0.372952 0.142207 0.206453 -0.678562 -0.734454 -0.011442
0.574117 0.108580 0.579076 -0.337422 -0.750501 0.568239
0.422317 0.170961 0.725086 -0.279753 0.376364 -0.883226
0.379518 0.216498 0.620949 0.162557 -0.803844 -0.572197
0.376845 0.076831 0.800591 -0.566756 0.803487 -0.182199
0.367536 0.152161 0.539575 -0.938685 0.344259 -0.018849
0.376137 0.068827 0.793784 -0.832540 0.496749 -0.245189
0.405163 0.037735 0.843832 0.559595 0.783582 0.269912
0.388093 0.144007 0.386115 -0.902271 0.423583 -0.080522
0.439527 0.177400 0.593943 0.826022 0.563613 -0.005284
0.394936 0.161771 0.443296 -0.504253 0.838186 -0.207779
0.452280 0.130115 0.487738 0.978967 0.102243 -0.176551
0.370954 0.128421 0.466558 -0.966692 0.156207 -0.202747
0.434573 0.183201 0.521173 0.763762 0.642696 -0.060074
0.388497 0.139721 0.768969 -0.503118 0.751891 0.426066
0.225451 0.105189 0.563324 -0.415537 0.782931 -0.462977
0.382964 0.219877 0.450482 -0.968354 -0.228474 0.100455
0.443300 0.147162 0.213372 0.450412 0.890756 0.060685
0.453305 0.146519 0.589799 0.809268 0.577164 0.109398
0.292144 0.224006 0.810393 -0.563251 0.751776 -0.342900
0.366021 0.067937 0.560197 -0.781127 -0.623075 -0.040221
0.376559 0.073981 0.791806 -0.734587 0.632735 -0.245007
0.420793 0.153290 0.269629 0.730062 0.682655 -0.031495
0.402977 0.156518 0.730063 0.666020 -0.307144 0.679765
0.409234 0.216543 0.603975 0.177821 -0.982985 -0.046054
0.373482 0.132396 0.724914 -0.910744 0.408987 0.057232
0.376984 0.096298 0.824509 -0.965507 0.233858 0.114481
0.330191 0.121169 0.546804 -0.789137 0.346011 -0.507483
0.377215 0.100504 0.821349 -0.957951 0.269894 0.097406
0.277238 0.117465 0.581758 -0.249475 -0.566743 0.785216
0.414561 0.192602 0.626833 0.100270 0.990153 0.097692
0.397319 0.225285 0.509825 -0.229645 0.973172 0.014093
0.361293 0.077208 0.579415 -0.994550 -0.103901 -0.008667
0.437820 0.174938 0.495335 0.812132 0.557593 -0.171848
0.446452 0.150996 0.480262 0.928403 0.313745 -0.199078
0.435069 0.055442 0.750739 0.404062 -0.914341 -0.026736
0.380983 0.051289 0.664397 -0.197495 -0.979580 -0.037653
0.380079 0.218991 0.371721 -0.634085 -0.772511 0.034096
0.469058 0.145841 0.221515 0.831527 0.491068 0.259646
0.696656 0.216144 0.521007 0.119924 -0.965966 0.229188
0.361258 0.118972 0.638746 -0.998354 0.015090 0.055323
0.399133 0.065894 0.879809 -0.221868 -0.687207 0.691752
0.409740 0.076672 0.838267 0.061136 0.946967 -0.315463
0.414080 0.228262 0.097344 0.776494 0.386716 -0.497502
0.399992 0.222328 0.587530 -0.786329 0.399627 0.471153
0.414173 0.050437 0.718608 0.126434 -0.990854 -0.047155
0.394175 0.069928 0.818534 0.805212 0.587045 0.083729
0.421108 0.220601 0.111329 0.755678 -0.615426 -0.224056
0.566089 0.225363 0.829714 -0.270427 0.930656 0.246473
0.449925 0.156470 0.524266 0.921308 0.386395 -0.043468
0.453233 0.146101 0.603654 0.767368 0.614678 0.182532
0.516183 0.113173 0.553763 0.429178 -0.888745 0.161057
0.246831 0.219251 0.913440 0.544170 -0.757573 0.360503
0.734470 0.222692 0.511254 0.309778 0.605228 0.733305
0.360342 0.054980 0.739312 -0.700392 -0.710901 0.063797
0.452079 0.067694 0.776794 0.788447 -0.613848 0.039261
0.615964 0.225363 0.553569 0.065316 0.987710 0.141998
0.413876 0.206442 0.117959 0.757064 -0.508270 -0.410507
0.394639 0.114090 0.331381 -0.667656 -0.698980 -0.256245
0.364453 0.136916 0.606664 -0.869617 0.281985 0.405280
0.283678 0.218904 0.852843 0.539442 -0.767565 0.346188
0.429708 0.106562 0.856659 0.579016 0.700029 0.417972
0.499896 0.124727 0.580508 0.053020 -0.781875 0.621177
0.399310 0.182972 0.662520 -0.069579 0.978659 0.193355
0.378084 0.058509 0.601467 -0.504308 -0.861496 -0.059152
0.413026 0.215351 0.139930 0.880233 0.359098 0.310224
0.271994 0.219388 0.839449 -0.829302 -0.256926 -0.496233
0.401236 0.026068 0.827870 -0.172646 -0.984557 -0.028995
0.435022 0.139391 0.418308 0.961159 0.252103 -0.112324
0.397798 0.166854 0.660767 -0.483724 -0.660539 -0.574195
0.222600 0.072245 0.563905 0.327428 -0.431830 -0.840425
0.282864 0.216144 0.833387 -0.105783 -0.993623 -0.039038
0.311831 0.216144 0.790017 0.049908 -0.997689 0.046105
0.413365 0.199443 0.639608 0.673702 -0.340011 0.656138
0.697856 0.221461 0.504721 -0.368304 -0.141438 -0.918884
0.452705 0.147302 0.642360 0.940171 0.332437 -0.074587
0.407809 0.120296 0.837391 -0.028500 0.981905 0.187218
0.447335 0.223946 0.086739 0.574747 -0.792763 -0.202960
0.394972 0.182690 0.671908 -0.132008 0.983552 0.123288
0.391065 0.101099 0.863865 -0.292082 0.545104 0.785844
0.356151 0.142339 0.205813 -0.559038 -0.828359 -0.036028
0.361213 0.094456 0.624612 -0.999680 -0.022522 0.011505
0.451568 0.148398 0.506337 0.963374 0.240730 -0.118147
0.761863 0.222820 0.483095 -0.334502 0.164213 -0.927978
0.425589 0.056604 0.507235 0.213373 -0.936495 -0.278297
0.361909 0.109382 0.702334 -0.974639 0.195434 0.109017
0.649635 0.222702 0.545365 0.313697 0.569948 0.759443
0.394081 0.151758 0.651798 -0.633166 0.773571 -0.026239
0.439785 0.050188 0.825376 0.692178 -0.719215 0.060165
0.430685 0.128716 0.332574 0.967970 -0.215275 -0.129193
0.403260 0.156650 0.156848 -0.964903 -0.207437 -0.161033
0.296343 0.225363 0.603578 0.099264 0.909630 -0.403387
0.372135 0.164016 0.596828 -0.914612 0.402805 0.035121
0.604428 0.220892 0.846838 0.743212 -0.235878 -0.626097
0.394174 0.045279 0.838793 0.898997 -0.216378 0.380769
0.373185 0.166203 0.586091 -0.907575 0.419048 0.026573
0.222536 0.072623 0.564507 0.467878 -0.416981 -0.779241
0.400309 0.137043 0.779136 -0.013571 0.549986 0.835064
0.393737 0.222416 0.575698 -0.696559 0.707149 0.121436
0.394081 0.180289 0.480151 -0.370470 0.855283 -0.362273
0.387236 0.224101 0.628126 -0.188855 0.959337 -0.209775
0.458244 0.091766 0.620026 0.999213 -0.015638 -0.036463
0.359201 0.069327 0.707856 -0.925389 0.378825 -0.012116
0.375900 0.090977 0.452228 -0.779907 -0.517822 -0.351577
0.398494 0.117889 0.841725 -0.196454 0.935159 0.294760
0.289550 0.123359 0.567852 -0.465396 0.816865 -0.340790
0.515289 0.217922 0.598572 0.289398 -0.688879 0.664601
0.362595 0.124591 0.580303 -0.744116 -0.618069 0.253539
0.399112 0.103106 0.387893 -0.277121 -0.931359 -0.236167
0.356082 0.216148 0.624512 0.011128 -0.920680 0.390160
0.385833 0.221582 0.494420 -0.805630 0.582838 0.106117
0.441454 0.173005 0.670286 0.826098 0.562092 0.040191
0.403731 0.068338 0.858623 0.571311 -0.820182 -0.030071
0.363372 0.131251 0.543808 -0.942401 0.203669 -0.265329
0.407122 0.218347 0.137615 -0.825730 0.540991 0.159686
0.391780 0.225331 0.426865 -0.281901 0.959408 0.008226
0.440173 0.076056 0.858006 0.903592 0.261978 0.338952
0.444771 0.128835 0.747994 0.930443 0.347358 0.116702
0.298527 0.217017 0.612583 -0.092513 -0.912379 0.398755
0.431139 0.156815 0.445469 0.736285 0.654138 -0.173171
0.445809 0.225328 0.676726 0.260602 0.922031 -0.286262
0.394038 0.150754 0.336002 -0.848744 0.526051 -0.053883
0.599432 0.092137 0.581767 0.438449 0.609630 0.660389
0.361243 0.087689 0.643714 -0.999481 -0.030731 0.009629
0.492372 0.115190 0.543889 0.857515 -0.514454 -0.002447
0.601665 0.222536 0.564813 0.337641 0.473735 0.813372
0.373677 0.108069 0.765163 -0.891620 0.410754 0.190513
0.410595 0.119976 0.802804 0.051760 0.996705 -0.062454
0.374595 0.163733 0.694089 -0.933671 0.350902 0.071599
0.410205 0.177698 0.641903 0.453761 -0.256719 0.853344
0.389816 0.147156 0.383148 -0.876535 0.476015 -0.071387
0.291518 0.225363 0.820671 -0.039966 0.999148 -0.010330
0.404800 0.058792 0.499272 -0.030945 -0.942958 -0.331471
0.131500 0.222862 0.575377 -0.188146 0.599559 0.777901
0.288233 0.106910 0.541204 -0.736370 0.173500 -0.653955
0.381700 0.111232 0.791126 -0.743822 0.631095 0.220107
0.395313 0.083249 0.447202 -0.242298 -0.889917 -0.386443
0.361228 0.091422 0.587165 -0.998444 -0.055678 0.003191
0.367269 0.066955 0.529470 -0.730057 -0.680878 -0.058492
0.219395 0.098353 0.575429 -0.749126 0.646176 0.145831
0.382461 0.059553 0.774988 -0.789388 0.183938 -0.585690
0.379075 0.044629 0.789751 -0.983451 -0.066615 -0.168482
0.391392 0.224207 0.467568 -0.434127 0.899964 0.039988
0.409047 0.102788 0.863675 0.004916 0.392148 0.919889
0.420227 0.129790 0.231755 0.830075 -0.506925 -0.232385
0.428939 0.052466 0.664920 0.344661 -0.938714 -0.005053
0.491857 0.216144 0.736317 -0.016257 -0.999527 0.026094
0.475728 0.221358 0.593744 -0.350527 0.618409 -0.703350
0.479672 0.216819 0.714306 0.281446 -0.928532 -0.242110
0.239146 0.222112 0.891824 -0.745365 0.487318 -0.454919
0.405497 0.178503 0.712355 0.186226 0.880842 0.435244
0.378477 0.074612 0.855735 -0.935440 0.143983 0.322831
0.400001 0.230817 0.622528 -0.148433 0.858519 -0.490828
0.372169 0.164183 0.546251 -0.916098 0.400833 -0.009828
0.361132 0.105349 0.686174 -0.992191 0.105837 0.065991
0.451798 0.216144 0.621883 -0.058850 -0.977802 0.201095
0.366141 0.067817 0.627508 -0.816085 -0.577313 -0.026730
0.402664 0.096031 0.419719 -0.107681 -0.964352 -0.241722
0.258363 0.219406 0.590414 0.202693 -0.362095 -0.909837
0.458206 0.080021 0.653523 0.998878 -0.046300 0.009904
0.384950 0.183747 0.546793 -0.767412 0.641104 -0.008025
0.309933 0.122886 0.580439 -0.268795 -0.679183 0.682979
0.394175 0.064758 0.829243 0.772922 0.624442 0.112534
0.361043 0.066393 0.899502 -0.782955 0.620402 0.045639
0.406617 0.180468 0.665618 0.132201 0.960150 0.246242
0.366629 0.067335 0.586371 -0.791267 -0.610754 -0.029592
0.502321 0.120683 0.572502 0.121351 -0.923103 0.364903
0.400858 0.067074 0.842397 0.310690 -0.754000 -0.578753
0.426170 0.118786 0.315446 0.796172 -0.562340 -0.223346
0.113246 0.223656 0.568494 -0.158673 0.765299 0.623811
0.406629 0.115250 0.298327 0.030089 -0.971970 -0.233170
0.584068 0.220634 0.822408 0.743807 -0.205671 -0.635964
0.387816 0.165354 0.463903 -0.608420 0.701453 -0.371200
0.440574 0.096981 0.836313 0.952120 0.249134 0.177198
0.458272 0.098535 0.601919 0.997955 0.010103 -0.063120
0.463203 0.118330 0.534326 0.990109 -0.021435 -0.138654
0.582271 0.216302 0.839242 0.189654 -0.972336 -0.136358
0.456798 0.072291 0.655154 0.891863 -0.452301 0.002068
0.149691 0.225079 0.573516 -0.101090 0.932127 0.347734
0.659676 0.222810 0.921303 0.772779 0.174172 -0.610308
0.455822 0.070281 0.646933 0.795776 -0.605590 0.000339
0.475885 0.143474 0.214258 0.664385 -0.730820 0.156510
0.455251 0.069716 0.632233 0.786126 -0.618063 -0.002202
0.395880 0.224518 0.380334 0.552835 0.831928 -0.047641
0.475172 0.146893 0.221542 0.393399 0.899218 0.191426
0.221212 0.221093 0.580190 0.226511 0.083526 -0.970421
0.371040 0.161181 0.592227 -0.920525 0.389504 0.030322
0.456214 0.128279 0.611111 0.887968 -0.375971 0.264873
0.394705 0.182792 0.483464 -0.321713 0.871050 -0.371177
0.455608 0.084173 0.500552 0.938831 -0.291150 -0.183923
0.596152 0.081358 0.552654 -0.414348 -0.907739 0.065769
0.399153 0.057726 0.847572 0.204749 -0.778680 0.593073
0.413112 0.238966 0.111727 0.595526 0.761037 0.257240
0.458342 0.113460 0.608365 0.995763 0.081284 -0.043008
0.398613 0.192511 0.525588 -0.110193 0.992473 -0.053423
0.365332 0.142940 0.607383 -0.847381 0.407848 0.340009
0.402910 0.160391 0.730387 0.535823 -0.067262 0.841647
0.444846 0.168623 0.577999 0.885037 0.465456 0.007772
0.399779 0.110248 0.340804 -0.338204 -0.908117 -0.246863
0.713779 0.216144 0.515715 0.207904 -0.874163 0.438879
0.433138 0.180293 0.493186 0.760634 0.616299 -0.203987
0.449080 0.066694 0.803513 0.894726 -0.439799 0.077727
0.290565 0.217213 0.611154 -0.100565 -0.895485 0.433583
0.430484 0.046017 0.794985 0.445570 -0.881363 -0.157055
0.267511 0.225091 0.603057 -0.067459 0.961622 0.265956
0.370469 0.159752 0.556340 -0.924603 0.380926 -0.001989
0.491251 0.145548 0.198601 0.663199 -0.210564 -0.718213
0.336762 0.225363 0.745403 -0.229484 0.963524 -0.137690
0.424886 0.158208 0.655941 0.691957 0.175006 -0.700406
0.382375 0.178140 0.672955 -0.656538 0.753083 0.042695
0.389000 0.188228 0.591465 -0.616469 0.787355 0.006202
0.384161 0.156895 0.731844 -0.339322 -0.053151 0.939168
0.446456 0.148086 0.146414 -0.889097 0.113021 0.443546
0.222088 0.223117 0.948340 0.763933 0.405713 0.501801
0.414423 0.088971 0.868948 -0.003545 0.350286 0.936636
0.439850 0.062749 0.857451 0.863367 -0.359194 0.354368
0.391241 0.218817 0.527912 -0.919345 -0.376850 0.113087
0.396381 0.050437 0.656556 -0.054985 -0.998249 -0.021815
0.365754 0.053112 0.695366 -0.510693 -0.859647 0.014131
0.437608 0.115163 0.787272 0.742900 0.370883 0.557265
0.374038 0.062842 0.834463 -0.940746 -0.302703 0.152866
0.365238 0.141109 0.563874 -0.454217 0.784753 -0.421723
0.392997 0.076831 0.830423 0.394721 0.911554 0.115177
0.325160 0.117878 0.543690 -0.841744 0.211894 -0.496556
0.405027 0.026068 0.841094 0.580945 -0.798107 0.159775
0.391878 0.042402 0.821483 -0.336199 -0.941286 0.030832
0.422019 0.132259 0.233646 0.947146 -0.259588 -0.188488
0.566244 0.113232 0.565077 0.547869 0.724406 -0.418420
0.216105 0.225363 0.584476 0.059693 0.962479 -0.264711
0.365073 0.058847 0.880938 0.994889 -0.100504 0.009733
0.417429 0.050437 0.604906 0.143848 -0.989242 -0.026612
0.494459 0.221333 0.717284 0.606804 0.561339 -0.562750
0.361392 0.144846 0.191329 -0.646208 0.646037 -0.406266
0.599898 0.221993 0.846246 0.741554 0.240036 -0.626483
0.397098 0.216144 0.470025 -0.024332 -0.999677 -0.007289
0.457441 0.219790 0.674702 0.681665 0.295289 -0.669430
0.389668 0.143178 0.736344 -0.233661 0.966121 -0.109604
0.423335 0.192387 0.597680 0.271916 0.962290 0.007694
0.261217 0.224696 0.602621 -0.079044 0.939264 0.333968
0.401413 0.225192 0.646193 -0.380371 0.752081 0.538230
0.578578 0.223585 0.847964 -0.527480 0.714405 0.459773
0.387753 0.217872 0.250178 0.907299 -0.410346 -0.091790
0.421044 0.225900 0.633037 0.650700 0.757730 -0.049342
0.285774 0.219450 0.616436 -0.188405 -0.131334 0.973270
0.394175 0.043901 0.812344 0.998042 -0.021252 0.058833
0.417777 0.180124 0.157868 0.998565 -0.042014 -0.033199
0.461244 0.118076 0.531495 0.979717 0.092960 -0.177519
0.394174 0.216144 0.440023 -0.102717 -0.994709 -0.001998
0.532267 0.220884 0.760523 0.725469 0.226908 -0.649775
0.394175 0.064585 0.812025 0.950484 0.302792 0.069974
0.398750 0.183803 0.482217 -0.142411 0.914367 -0.379014
0.365857 0.077797 0.500868 -0.922012 -0.328333 -0.205163
0.220205 0.083311 0.564593 -0.870004 0.365077 -0.331378
0.387430 0.054561 0.770384 -0.220836 -0.070005 -0.972795
0.361694 0.098394 0.731640 -0.963277 0.239912 0.120585
0.447406 0.230698 0.098210 0.757803 0.639710 0.128472
0.102615 0.221899 0.570917 -0.243335 0.077057 0.966877
0.407259 0.228728 0.126764 -0.803612 0.559928 0.201713
0.458298 0.092066 0.689611 0.996221 0.058122 0.064535
0.398840 0.192602 0.610333 -0.215800 0.976434 -0.002680
0.406678 0.073979 0.874392 0.069572 -0.924039 0.375914
0.399864 0.173727 0.465991 -0.172960 0.917000 -0.359439
0.372906 0.115113 0.451655 -0.968768 -0.062068 -0.240075
0.414194 0.108716 0.342679 0.133691 -0.957684 -0.254888
0.416360 0.137071 0.177325 0.899249 -0.372905 -0.228678
0.421312 0.058878 0.863834 0.476326 -0.850652 0.222496
0.187067 0.219965 0.593154 -0.207982 -0.354106 0.911785
0.361206 0.098588 0.535740 -0.963853 -0.262110 -0.047813
0.589105 0.217586 0.555909 -0.165935 -0.891122 -0.422337
0.529702 0.218896 0.790841 -0.675809 -0.437416 0.593253
0.478296 0.225354 0.604819 -0.070935 0.982983 -0.169448
0.395119 0.173277 0.468631 -0.355948 0.863403 -0.357542
0.492567 0.122978 0.551208 0.771236 0.546183 -0.326923
0.286742 0.218844 0.614922 -0.177661 -0.429559 0.885390
0.378206 0.223742 0.293753 -0.703333 0.710180 0.031096
0.403545 0.215159 0.650674 0.036320 -0.862952 0.503979
0.360778 0.065615 0.893560 -0.949120 0.311222 0.048089
0.457944 0.120078 0.571264 0.998079 -0.044834 -0.042763
0.365410 0.068541 0.588180 -0.815621 -0.577738 -0.031319
0.405137 0.164975 0.141916 -0.800113 -0.443708 -0.403662
0.436172 0.167764 0.649667 0.028006 -0.767669 -0.640234
0.533861 0.218748 0.795614 -0.666590 -0.461196 0.585624
0.407689 0.134911 0.166104 -0.354843 -0.895685 -0.268020
0.399467 0.218957 0.407795 0.924397 -0.370770 -0.089557
0.408796 0.125743 0.227111 0.112926 -0.964850 -0.237303
0.364561 0.124427 0.693094 -0.970011 0.226359 0.088546
0.432130 0.047489 0.791274 0.479356 -0.861843 -0.165665
0.310236 0.219055 0.621430 -0.179889 -0.204744 0.962143
0.423761 0.158460 0.410964 0.715086 0.696456 -0.060015
0.597344 0.100156 0.557221 0.639017 -0.682365 -0.355015
0.296127 0.223152 0.830077 0.554388 0.769183 0.317823
0.437776 0.056755 0.635959 0.463853 -0.885877 -0.007951
0.410915 0.223018 0.573291 0.913299 0.400887 -0.071935
0.394903 0.216144 0.419314 0.124573 -0.991857 -0.026480
0.371290 0.111515 0.458700 -0.968149 -0.068568 -0.240803
0.484479 0.144995 0.218029 0.882079 0.269976 0.386068
0.414640 0.233923 0.108350 0.666634 0.745198 0.016739
0.330076 0.225184 0.751822 -0.427758 0.865447 -0.260816
0.320534 0.224301 0.785075 0.369864 0.903076 0.218299
0.454152 0.144137 0.538214 0.883255 0.455319 -0.112004
0.478624 0.125789 0.573980 0.215129 -0.908248 0.358895
0.302738 0.225045 0.604184 0.128626 0.845433 -0.518361
0.479946 0.218030 0.612888 0.280939 -0.706244 0.649840
0.431645 0.145385 0.404054 0.928025 0.363553 -0.081231
0.398992 0.224916 0.549505 -0.259621 0.965362 0.025938
0.469423 0.144282 0.190563 0.615852 -0.556207 -0.557997
0.456117 0.130951 0.546197 0.828798 0.493524 -0.263680
0.416009 0.227603 0.112580 0.644542 0.758084 -0.099372
0.142506 0.220038 0.582179 -0.207499 -0.491215 0.845962
0.255876 0.224065 0.889437 0.470271 0.834090 0.288339
0.497580 0.218157 0.590990 -0.323244 -0.636114 -0.700623
0.371266 0.088548 0.806990 -0.899178 0.392450 0.193553
0.449080 0.157997 0.519713 0.919421 0.388785 -0.059257
0.410297 0.166142 0.438073 0.194715 0.950031 -0.243982
0.359047 0.221991 0.629098 0.196810 0.368460 0.908572
0.347367 0.145587 0.198258 -0.266160 0.928761 -0.257997
0.407411 0.192602 0.580361 -0.050702 0.997592 -0.047332
0.458105 0.088325 0.528898 0.996424 -0.038869 -0.075023
0.399339 0.061281 0.492161 -0.081196 -0.924533 -0.372353
0.407681 0.050437 0.723426 0.038571 -0.998362 -0.042254
0.581876 0.222290 0.826001 0.669725 0.468742 -0.575976
0.422358 0.057388 0.851050 -0.349217 -0.717420 0.602790
0.317354 0.216144 0.780968 0.042575 -0.998276 0.040410
0.390416 0.050704 0.733778 -0.178847 -0.983425 -0.029812
0.454603 0.090118 0.775161 0.937063 0.310359 0.159969
0.368294 0.107350 0.473669 -0.976733 -0.036699 -0.211296
0.752121 0.216144 0.498163 0.123203 -0.966189 0.226493
0.486714 0.219211 0.592167 -0.432945 -0.072098 -0.898533
0.377930 0.148505 0.633793 -0.723247 0.676461 0.138976
0.341013 0.225363 0.614856 0.105977 0.901970 -0.418591
0.376581 0.131264 0.751677 -0.887221 0.439968 0.138806
0.446206 0.229669 0.099518 -0.805034 0.581788 0.115945
0.499538 0.111943 0.536637 0.944052 -0.303656 -0.128678
0.450033 0.145480 0.690553 0.964780 0.248831 0.085340
0.376228 0.167825 0.694147 -0.897074 0.436574 0.068269
0.451990 0.080633 0.488001 0.865916 -0.419086 -0.273049
0.545923 0.117994 0.564420 0.543542 0.736371 -0.402889
0.433698 0.183930 0.514302 0.757620 0.646362 -0.090709
0.253216 0.223918 0.602868 -0.100267 0.879539 0.465142
0.260451 0.105768 0.549733 -0.304238 0.599990 -0.739899
0.486050 0.147355 0.209701 0.200247 0.973664 -0.108990
0.309999 0.130443 0.577558 -0.517399 0.855744 -0.000080
0.432040 0.045988 0.804132 0.472969 -0.873000 -0.119044
0.437200 0.158005 0.727270 0.580016 -0.411034 -0.703301
0.436934 0.056345 0.560032 0.393471 -0.918249 -0.044718
0.447707 0.062252 0.679798 0.609435 -0.792836 -0.000886
0.376515 0.051567 0.694642 -0.218463 -0.975807 -0.008602
0.431746 0.142761 0.736256 0.299215 0.952707 -0.053096
0.403899 0.106236 0.359506 -0.056450 -0.972609 -0.225489
0.410531 0.071164 0.915983 -0.189139 -0.981928 0.006610
0.394176 0.048720 0.792045 0.993240 0.058706 0.100137
0.461691 0.219806 0.679713 0.699616 0.278778 -0.657891
0.407273 0.045048 0.837406 0.061523 -0.540381 0.839168
0.437585 0.056664 0.760804 0.439748 -0.897807 -0.023753
0.394013 0.183911 0.649951 -0.357397 0.911155 0.205097
0.409148 0.108458 0.344427 0.045039 -0.969355 -0.241499
0.405790 0.220826 0.107152 -0.928951 -0.116007 -0.351556
0.394239 0.224504 0.356128 0.544115 0.837604 -0.048570
0.529374 0.123992 0.583882 0.318048 0.581113 0.749101
0.453878 0.109937 0.487006 0.978237 -0.054330 -0.200253
0.444132 0.092999 0.813012 0.913410 0.377356 0.152593
0.445036 0.080349 0.836158 0.923348 0.308980 0.227946
0.373635 0.154088 0.482266 -0.915211 0.353146 -0.194102
0.514992 0.216144 0.595101 0.085994 -0.979320 0.183130
0.468597 0.140141 0.581455 0.475569 0.790440 0.386056
0.411257 0.180029 0.665096 -0.064226 0.983897 0.166796
0.359923 0.057380 0.689441 -0.878787 -0.477050 0.012519
0.361710 0.120868 0.612697 -0.969303 -0.217555 0.114549
0.419148 0.052981 0.518901 0.089291 -0.979787 -0.179007
0.553617 0.118854 0.574204 0.479521 0.871632 -0.101574
0.434419 0.130311 0.387213 0.993530 -0.016715 -0.112329
0.367770 0.113737 0.727516 -0.927023 0.346708 0.142908
0.225390 0.218484 0.943575 0.442526 -0.843115 0.305495
0.254815 0.219476 0.901897 0.571980 -0.729591 0.374880
0.765179 0.225363 0.490563 -0.081404 0.956572 -0.279898
0.455614 0.135460 0.532405 0.958164 0.266793 -0.103649
0.452204 0.066701 0.654105 0.719393 -0.694603 -0.000608
0.413616 0.175983 0.181657 0.795344 0.579854 0.176628
0.453067 0.148954 0.528729 0.937628 0.345886 -0.034874
0.448010 0.225511 0.109884 0.961082 0.226975 -0.157494
0.396190 0.225363 0.446130 0.084915 0.996327 -0.011008
0.412123 0.050437 0.563772 0.010349 -0.998920 -0.045290
0.395573 0.214745 0.643199 -0.361508 -0.886438 0.289034
0.389550 0.184256 0.494635 -0.589366 0.764970 -0.259745
0.494512 0.223652 0.727512 0.380325 0.853556 -0.356084
0.433503 0.120399 0.373465 0.957021 -0.246824 -0.152275
0.410850 0.050437 0.649730 0.122328 -0.992361 -0.015967
0.454780 0.069249 0.581506 0.783757 -0.620934 -0.012845
0.362510 0.126420 0.640778 -0.969938 0.235303 -0.062077
0.257189 0.216144 0.880073 0.143515 -0.983033 0.114233
0.460148 0.145124 0.192091 0.647551 0.507121 -0.568776
0.379551 0.051378 0.666185 -0.210714 -0.976746 -0.039579
0.376428 0.162989 0.648380 0.302469 -0.498654 -0.812316
0.365022 0.140572 0.605005 -0.849110 0.348578 0.396870
0.424118 0.148431 0.284032 0.941454 0.332967 0.052890
0.384721 0.124756 0.391095 -0.985098 -0.119239 -0.123949
0.420294 0.050437 0.650363 0.232582 -0.972497 -0.012451
0.403476 0.180285 0.167441 -0.947803 0.318204 0.020392
0.419970 0.192602 0.556206 0.135422 0.990782 0.003497
0.375831 0.221049 0.370056 -0.992792 -0.083832 0.085654
0.361438 0.059248 0.878656 -0.878171 0.477777 0.023356
0.477710 0.218018 0.706704 0.540724 -0.686350 -0.486356
0.339675 0.115089 0.534356 -0.923381 -0.330641 -0.195048
0.363136 0.066800 0.796093 -0.044775 0.998916 -0.012764
0.394175 0.061344 0.810633 0.964910 0.254544 0.064462
0.458361 0.112640 0.658852 0.992959 0.112488 0.037123
0.445796 0.171656 0.634526 -0.144384 -0.867204 -0.476561
0.447587 0.163508 0.599905 0.915371 0.398373 0.058262
0.336528 0.134513 0.565309 -0.446795 0.798809 -0.402839
0.416938 0.156014 0.252664 0.670452 0.741584 -0.023421
0.365750 0.147542 0.588572 -0.884305 0.466132 0.026954
0.384780 0.067083 0.767968 -0.480624 0.353495 -0.802522
0.432461 0.054175 0.693461 0.388751 -0.921313 -0.007484
0.364987 0.054595 0.642375 -0.710819 -0.701549 -0.050649
0.412698 0.100749 0.864496 0.008063 0.380930 0.924569
0.485936 0.217040 0.720827 0.310985 -0.912077 -0.267216
0.428592 0.070761 0.475745 0.263671 -0.882285 -0.389937
0.455436 0.133884 0.523373 0.975986 0.179884 -0.122855
0.436858 0.056308 0.546531 0.372046 -0.926812 -0.051003
0.527349 0.125185 0.573381 0.476847 0.871935 -0.111109
0.269672 0.221773 0.879567 0.843215 0.165262 0.511545
0.406797 0.050437 0.690967 0.053052 -0.997906 -0.036990
0.446122 0.157687 0.140407 -0.997186 0.010930 0.074172
0.416207 0.156057 0.233449 0.672797 0.739810 0.004974
0.372748 0.120501 0.749762 -0.978562 0.186348 0.087696
0.457495 0.217350 0.685464 0.431722 -0.811645 -0.393508
0.228541 0.100409 0.562154 0.146995 -0.549958 -0.822155
0.395042 0.076831 0.784586 0.598314 0.799408 0.054465
0.424720 0.127594 0.268662 0.943847 -0.269917 -0.190520
0.442384 0.160453 0.620950 0.922908 0.051926 0.381504
0.432236 0.134918 0.363672 0.993804 -0.001380 -0.111143
0.378756 0.175686 0.533908 -0.855416 0.517765 -0.013565
0.337803 0.216458 0.739280 -0.407627 -0.881484 -0.238380
0.548549 0.223690 0.792287 0.421301 0.826682 -0.372965
0.315929 0.218361 0.620849 -0.160352 -0.528871 0.833416
0.434884 0.057356 0.521823 0.346229 -0.925776 -0.151868
0.453923 0.069499 0.770925 0.813718 -0.579866 0.040229
0.448243 0.072670 0.828597 0.981816 -0.019797 0.188798
0.361288 0.077980 0.617410 -0.996994 -0.077453 -0.001965
0.364383 0.133015 0.653208 -0.986405 0.160686 0.034420
0.446819 0.268822 0.158798 -0.462404 -0.590732 0.661225
0.361170 0.103803 0.640018 -0.999654 0.015908 0.020955
0.418783 0.166081 0.174409 0.988223 0.152025 0.017433
0.429952 0.147135 0.387666 0.918032 0.392175 -0.058452
0.455286 0.069752 0.652604 0.785085 -0.619387 0.000436
0.310420 0.225363 0.785379 -0.309065 0.933526 -0.181680
0.380352 0.057409 0.548894 -0.489543 -0.870703 -0.047153
0.382298 0.056463 0.606199 -0.427043 -0.902377 -0.057871
0.294616 0.112781 0.547487 -0.567291 0.481504 -0.668083
0.332292 0.217150 0.766030 0.340091 -0.915831 0.213524
0.337840 0.125799 0.550968 -0.705593 0.499999 -0.502135
0.458331 0.111483 0.597497 0.995661 0.068780 -0.062684
0.375086 0.059964 0.593894 -0.547437 -0.835081 -0.054339
0.222146 0.076357 0.568204 0.920431 -0.178296 -0.347875
0.425817 0.050950 0.704707 0.273834 -0.961212 -0.032963
0.394175 0.067172 0.817057 0.875499 0.476226 0.081920
0.206934 0.216144 0.954973 -0.205933 -0.974050 -0.093902
0.374240 0.113432 0.770799 -0.962740 0.145287 0.228084
0.375776 0.051612 0.755996 -0.189422 -0.979843 0.063462
0.448010 0.228435 0.115712 0.896918 0.328568 -0.295943
0.428920 0.146152 0.357248 0.939146 0.342152 -0.030607
0.361292 0.076738 0.713382 -0.999831 -0.000666 0.018343
0.445116 0.150144 0.626860 0.890904 0.421809 0.168427
0.391315 0.076831 0.783600 0.315558 0.946874 -0.062065
0.761295 0.225303 0.490848 -0.124532 0.914027 -0.386066
0.412920 0.168574 0.192266 0.723280 0.672826 0.155473
0.504161 0.113618 0.546610 0.724051 -0.687905 0.050377
0.332603 0.147332 0.211163 -0.307090 0.951334 -0.025695
0.425533 0.050812 0.684868 0.278919 -0.960002 -0.024489
0.448327 0.062863 0.581983 0.612340 -0.790167 -0.025992
0.546988 0.112429 0.556335 0.712427 0.586641 -0.385097
0.284452 0.220650 0.860847 0.840785 -0.197735 0.503966
0.415981 0.057552 0.851503 -0.692840 -0.720295 -0.033871
0.071175 0.219598 0.563000 -0.184514 -0.723059 0.665688
0.345185 0.116141 0.534390 -0.903876 -0.411433 -0.117184
0.223369 0.216679 0.937244 0.206575 -0.964975 0.161708
0.400894 0.073704 0.879045 -0.206933 0.350051 0.913588
0.378510 0.051443 0.686761 -0.221708 -0.974684 -0.028924
0.397272 0.216144 0.441054 0.225150 -0.973751 -0.033409
0.374586 0.168528 0.607932 -0.888733 0.457114 0.034638
0.403731 0.062524 0.858241 0.694993 -0.704494 -0.143784
0.423063 0.157743 0.386263 0.717486 0.694399 -0.054996
0.391371 0.106498 0.384791 -0.616534 -0.746700 -0.249652
0.449689 0.119909 0.465946 0.977444 0.050404 -0.205093
0.469358 0.144235 0.191033 0.616434 -0.574066 -0.538941
0.472175 0.218792 0.696692 0.703394 -0.295190 -0.646606
0.506147 0.129459 0.568572 0.469600 0.848348 -0.244502
0.372459 0.164951 0.536640 -0.914688 0.403752 -0.018175
0.395366 0.032694 0.844900 -0.972337 -0.062025 0.225196
0.376023 0.097981 0.799740 -0.872627 0.457721 0.170335
0.384235 0.142015 0.753008 -0.607287 0.790062 0.083694
0.430610 0.077011 0.869270 0.465428 0.845563 0.261532
0.419104 0.225700 0.127259 0.792356 0.466497 0.393132
0.753180 0.218967 0.485735 -0.205729 -0.797199 -0.567582
0.392895 0.217437 0.495191 -0.465734 -0.884160 0.036789
0.487136 0.219062 0.610961 0.341281 -0.503925 0.793465
0.381241 0.071691 0.480751 -0.470360 -0.803275 -0.365391
0.067966 0.220347 0.564366 -0.207094 -0.605517 0.768415
0.363136 0.071064 0.708651 -0.999998 0.000778 0.001932
0.055331 0.224863 0.550458 -0.135075 0.884295 0.446965
0.359520 0.059680 0.697918 -0.924300 -0.381149 0.019854
0.454770 0.090221 0.773628 0.939101 0.305840 0.156692
0.446094 0.225363 0.679133 0.131979 0.977578 -0.164080
0.349545 0.123174 0.557911 -0.559502 -0.785749 0.263735
0.376899 0.219295 0.337737 -0.662973 -0.747930 0.032694
0.361494 0.053885 0.693482 -0.724435 -0.689132 0.017043
0.393366 0.225363 0.394289 0.136876 0.990424 -0.018049
0.222505 0.095681 0.564802 0.624688 -0.393601 -0.674421
0.114656 0.216144 0.558931 0.073635 -0.911776 -0.404034
0.373192 0.220143 0.318463 -0.803413 -0.593625 0.046236
0.433929 0.089805 0.863768 0.851418 0.192704 0.487804
0.372600 0.221651 0.716067 0.671808 0.651945 0.351627
0.363839 0.115019 0.499716 -0.990618 0.037993 -0.131276
0.747085 0.218808 0.488670 -0.198722 -0.812056 -0.548703
0.425183 0.182479 0.688113 0.127392 0.990078 0.059298
0.374684 0.108034 0.772419 -0.976470 0.067467 0.204826
0.416845 0.077011 0.864926 0.057071 0.997031 -0.051701
0.608521 0.221539 0.886529 -0.702095 0.379750 0.602373
0.389135 0.143249 0.194989 -0.801281 -0.584609 -0.127203
0.433251 0.130257 0.369055 0.990638 -0.073563 -0.114998
0.313856 0.111733 0.541051 -0.885133 -0.392635 -0.249753
0.318641 0.220976 0.763195 -0.856291 -0.004284 -0.516476
0.436161 0.055970 0.571912 0.396523 -0.917187 -0.039224
0.419269 0.150164 0.207421 0.598679 0.800465 -0.028967
0.446461 0.189442 0.135562 -0.942749 0.100018 0.318152
0.430400 0.134801 0.777277 0.518813 0.729066 0.446425
0.212512 0.220273 0.600433 -0.207585 -0.106013 0.972456
0.380255 0.222103 0.391345 -0.888366 0.451526 0.083241
0.174240 0.217549 0.582929 -0.113810 -0.900002 0.420766
0.606710 0.225282 0.879308 -0.300460 0.911324 0.281448
0.098176 0.216144 0.554591 0.083404 -0.889594 -0.449072
0.492369 0.131016 0.563410 0.515284 0.777151 -0.361272
0.388572 0.171720 0.644971 -0.251888 -0.961187 -0.112568
0.156794 0.224247 0.577711 -0.119209 0.872280 0.474253
0.437522 0.179957 0.578283 0.795648 0.605745 -0.004089
0.377943 0.062588 0.845976 -0.803752 0.030023 0.594206
0.457256 0.073499 0.623021 0.945293 -0.326109 -0.008599
0.091337 0.221492 0.569267 -0.243862 -0.156791 0.957052
0.386773 0.181713 0.653011 -0.466975 0.882354 0.058188
0.380909 0.069092 0.862874 -0.915734 -0.052874 0.398291
0.406106 0.167334 0.455696 -0.045985 0.933978 -0.354359
0.529471 0.120623 0.562015 0.579964 0.716492 -0.387661
0.361253 0.086735 0.544496 -0.988513 -0.149793 -0.020106
0.364672 0.115776 0.492857 -0.986926 0.053449 -0.152056
0.410972 0.050437 0.671510 0.112615 -0.993292 -0.026232
0.429829 0.147893 0.392761 0.907916 0.414687 -0.061021
0.370282 0.118264 0.728461 -0.911449 0.381555 0.153871
0.448847 0.159775 0.527744 0.911176 0.411184 -0.026174
0.457802 0.117525 0.522562 0.987774 0.057811 -0.144776
0.416742 0.166885 0.155856 0.979061 -0.163224 -0.121645
0.438295 0.090013 0.445856 0.686388 -0.637876 -0.349266
0.725817 0.223342 0.514128 0.277200 0.706335 0.651346
0.379336 0.054169 0.791633 -0.755732 -0.634101 -0.163659
0.457601 0.216144 0.620616 0.037608 -0.959742 0.278355
0.534550 0.216710 0.793683 -0.440953 -0.807405 0.391991
0.414910 0.123429 0.246187 0.228521 -0.942346 -0.244463
0.373557 0.104041 0.449562 -0.940658 -0.204209 -0.271037
0.373443 0.056416 0.809090 -0.997588 0.018157 -0.067001
0.379411 0.217649 0.306622 -0.424418 -0.905389 0.011872
0.361262 0.084012 0.588698 -0.997003 -0.077340 -0.002101
0.305389 0.220334 0.601389 0.216527 -0.220468 -0.951057
0.435247 0.182820 0.576091 0.766793 0.641886 -0.003267
0.333053 0.116859 0.546561 -0.713216 -0.693970 0.098630
0.417613 0.184884 0.153967 0.996413 -0.076733 -0.035677
0.384815 0.218095 0.404095 -0.517770 -0.855043 0.028547
0.301383 0.111878 0.551815 -0.517546 -0.840735 0.159094
0.361185 0.101915 0.575323 -0.993071 -0.116921 -0.011815
0.414452 0.235990 0.092793 0.739022 0.513012 -0.436652
0.412736 0.192602 0.608140 0.030528 0.999513 -0.006510
0.411522 0.221187 0.138754 0.597368 0.710099 0.372707
0.363973 0.064451 0.801604 0.715564 -0.698309 -0.018220
0.388950 0.222597 0.498177 -0.657492 0.748795 0.083731
0.394175 0.071202 0.824696 0.684776 0.722559 0.094814
0.430207 0.143721 0.358755 0.958003 0.283883 -0.040496
0.512176 0.118393 0.551858 0.772809 0.533921 -0.343067
0.431948 0.225199 0.659916 0.449632 0.821141 -0.351508
0.378262 0.171720 0.631693 -0.635494 -0.743453 0.208385
0.716976 0.216144 0.514363 0.206595 -0.876370 0.435080
0.392780 0.217171 0.332642 0.763413 -0.640566 -0.082918
0.388372 0.216144 0.281520 0.649009 -0.757008 -0.075671
0.326658 0.223937 0.609198 0.177338 0.659162 -0.730792
0.424023 0.172925 0.467795 0.435294 0.829550 -0.349809
0.045737 0.218033 0.552078 -0.135067 -0.882370 0.450754
0.394601 0.162381 0.451307 -0.447968 0.849343 -0.279178
0.473777 0.222757 0.698794 0.458403 0.774580 -0.435766
0.384073 0.114173 0.808982 -0.624521 0.780912 0.012240
0.432053 0.053978 0.765911 0.347318 -0.936749 -0.043256
0.361238 0.089135 0.587625 -0.998051 -0.062383 0.001554
0.460996 0.146224 0.198619 0.344034 0.903603 -0.255231
0.371118 0.052138 0.706616 -0.279070 -0.959961 0.024383
0.396556 0.076787 0.791658 0.794109 0.601021 0.090355
0.172015 0.216144 0.577825 -0.053842 -0.983685 0.171655
0.391399 0.142138 0.315881 -0.936802 0.347801 -0.037905
0.446345 0.292644 0.178542 -0.956154 -0.187455 0.225012
0.365962 0.127445 0.701669 -0.967551 0.231959 0.100199
0.313875 0.220466 0.603401 0.217959 -0.202684 -0.954680
0.107650 0.220314 0.574232 -0.212420 -0.506147 0.835878
0.362273 0.125026 0.631797 -0.979612 0.151849 0.131534
0.380045 0.074397 0.475863 -0.492194 -0.788748 -0.368269
0.385207 0.225042 0.342622 -0.387074 0.921987 0.010648
0.407241 0.146515 0.751546 -0.013544 0.999908 -0.001026
0.463189 0.216144 0.697637 0.201233 -0.963745 -0.175216
0.412097 0.069044 0.881363 0.047358 -0.067510 0.996594
0.150483 0.225363 0.572663 -0.087658 0.956233 0.279169
0.412583 0.114002 0.306800 0.128395 -0.959791 -0.249631
0.660016 0.216714 0.530034 -0.100767 -0.954196 -0.281703
0.588244 0.109842 0.572219 0.509552 0.833055 -0.215352
0.383645 0.109259 0.838979 -0.817377 0.520102 0.247770
0.416697 0.078098 0.455212 0.089783 -0.904240 -0.417480
0.384791 0.093632 0.860036 -0.894218 0.224321 0.387369
0.455268 0.120316 0.696342 0.982762 0.171800 0.068295
0.399541 0.152866 0.723218 0.412736 -0.411255 0.812723
0.410118 0.120600 0.262017 0.113898 -0.963602 -0.241863
0.441400 0.137883 0.732712 0.690436 0.720717 0.062161
0.366571 0.067394 0.532207 -0.745509 -0.664687 -0.049072
0.435133 0.173790 0.717227 0.484786 0.693070 0.533514
0.597765 0.096333 0.558832 0.787289 -0.494735 -0.367986
0.362846 0.053639 0.739167 -0.549482 -0.833299 0.060684
0.383257 0.141287 0.752336 -0.656015 0.749009 0.092902
0.218924 0.221971 0.599903 -0.163745 0.568603 0.806150
0.129689 0.224651 0.569736 -0.117076 0.896007 0.428329
0.424886 0.045944 0.846806 -0.078662 -0.769265 0.634069
0.321535 0.112342 0.537370 -0.916426 -0.236719 -0.322686
0.426863 0.190439 0.582353 0.402264 0.915504 0.006019
0.360987 0.142247 0.583685 -0.668786 0.699627 0.251490
0.143762 0.224489 0.563784 0.123484 0.834410 -0.537133
0.381990 0.043411 0.777218 -0.856551 -0.101006 -0.506082
0.407766 0.222388 0.136187 -0.746504 0.619771 0.242107
0.386321 0.218255 0.432741 -0.563439 -0.825346 0.036602
0.303903 0.123346 0.560284 -0.360219 0.761407 -0.538982
0.457182 0.118359 0.666346 0.989616 0.137722 0.041149
0.065993 0.216144 0.546263 0.097442 -0.851255 -0.515626
0.392761 0.121176 0.789075 -0.062267 0.550605 0.832441
0.458264 0.092734 0.653165 0.999779 0.012083 0.017180
0.595581 0.083385 0.551628 -0.659887 -0.733925 0.160945
0.594808 0.108102 0.571721 0.518293 0.819204 -0.245513
0.475182 0.223818 0.601418 -0.187310 0.900288 -0.392934
0.392130 0.217871 0.314232 0.866466 -0.491210 -0.089154
0.430366 0.105383 0.401752 0.645229 -0.732584 -0.216796
0.444483 0.097889 0.794989 0.871988 0.455381 0.179626
0.381189 0.100040 0.431341 -0.812839 -0.520451 -0.261578
0.428208 0.052109 0.555041 0.217831 -0.974884 -0.046378
0.530129 0.111147 0.547666 0.888468 0.320268 -0.328715
0.432338 0.121900 0.356711 0.951376 -0.269189 -0.149739
0.330481 0.142252 0.209186 -0.347315 -0.937620 -0.015505
0.413688 0.118630 0.275389 0.166670 -0.953512 -0.251070
0.729083 0.219332 0.494322 -0.228603 -0.753721 -0.616154
0.426471 0.077011 0.869745 0.216191 0.954391 0.205912
0.403792 0.220404 0.653173 0.275522 0.210325 0.938004
0.454379 0.137058 0.651423 0.976179 0.216356 0.016281
0.411506 0.118840 0.842704 0.052094 0.957124 0.284955
0.415328 0.142544 0.159769 0.919392 -0.303371 -0.250368
0.419620 0.149625 0.204332 0.604887 0.795889 -0.025926
0.410439 0.071164 0.917793 -0.311162 -0.950269 0.012943
0.420457 0.139886 0.200159 0.943827 -0.297512 -0.143793
0.388458 0.222737 0.249097 0.775016 0.628111 -0.069475
0.378069 0.136235 0.743940 -0.795628 0.598515 0.093575
0.078127 0.223689 0.559582 -0.187382 0.705159 0.683841
0.387444 0.224753 0.259872 0.455735 0.888781 -0.048727
0.400631 0.135105 0.200241 -0.915830 -0.350278 -0.196367
0.402955 0.060600 0.494107 -0.041790 -0.931328 -0.361775
0.508321 0.220843 0.731712 0.692361 0.347602 -0.632305
0.536165 0.114355 0.574567 -0.086596 -0.898199 0.430975
0.405684 0.050437 0.729017 0.006806 -0.999184 -0.039819
0.513564 0.109814 0.539142 0.837513 -0.541463 -0.073419
0.417467 0.076545 0.881005 -0.478911 0.791768 0.379141
0.395067 0.106947 0.372072 -0.457577 -0.853135 -0.250568
0.394653 0.050441 0.725559 -0.136850 -0.990304 -0.023857
0.458331 0.096486 0.702607 0.991770 0.096357 0.084303
0.288739 0.222844 0.843492 0.626049 0.689906 0.363447
0.371546 0.120137 0.733916 -0.982526 0.164898 0.086325
0.399417 0.044968 0.788151 -0.001169 -0.988465 -0.151446
0.566621 0.106878 0.568715 -0.154664 -0.917268 0.367014
0.525864 0.115038 0.568562 0.060907 -0.942443 0.328772
0.406195 0.108939 0.341164 -0.004698 -0.972558 -0.232614
0.363583 0.132374 0.618499 -0.931075 0.245328 0.270024
0.411801 0.160880 0.204634 0.614454 0.777431 0.134339
0.146692 0.219535 0.581771 -0.188406 -0.643418 0.741968
0.500004 0.216144 0.743088 0.125852 -0.987097 -0.098996
0.377845 0.174029 0.594146 -0.847858 0.530161 0.008097
0.380643 0.054194 0.779880 -0.928963 0.031257 -0.368851
0.493184 0.225354 0.743473 -0.357558 0.880890 0.310138
0.369927 0.052355 0.697226 -0.322786 -0.946373 0.013670
0.361293 0.076830 0.638587 -0.997719 -0.067508 0.000591
0.370975 0.066772 0.821018 -0.941743 -0.326945 0.078908
0.578531 0.112949 0.575481 0.482010 0.872723 -0.077596
0.392134 0.180677 0.708275 -0.229293 0.961950 0.148585
0.438805 0.216578 0.628827 0.190722 -0.885268 0.424176
0.590172 0.099387 0.556793 -0.089626 -0.974360 0.206375
0.456031 0.130035 0.643721 0.980300 0.197205 -0.011038
0.408719 0.231469 0.641099 -0.040926 0.980260 0.193433
0.401150 0.172370 0.166828 -0.986349 0.163623 -0.018550
0.368051 0.133710 0.486340 -0.968805 0.184996 -0.164904
0.313178 0.223576 0.618909 -0.091304 0.871819 0.481244
0.382704 0.170290 0.725200 -0.495065 0.243316 -0.834091
0.425685 0.125676 0.281836 0.942845 -0.271331 -0.193451
0.180536 0.216144 0.576742 0.018408 -0.987998 -0.153367
0.598324 0.092617 0.577631 -0.619578 -0.602832 0.502709
0.381678 0.145162 0.191030 -0.864136 0.347558 -0.363967
0.406272 0.177752 0.180085 -0.857589 0.508424 0.077758
0.301904 0.225363 0.799350 -0.285727 0.943949 -0.165288
0.388579 0.071006 0.476368 -0.288052 -0.871781 -0.396262
0.388110 0.221239 0.541888 -0.795512 0.594650 0.116409
0.359571 0.219067 0.700307 -0.740632 -0.506243 -0.441794
0.411664 0.182386 0.660093 -0.101448 0.957332 0.270597
0.444664 0.060098 0.620786 0.544975 -0.838333 -0.014147
0.304217 0.121175 0.579737 -0.214018 -0.719395 0.660808
0.375026 0.126915 0.446073 -0.975414 0.086441 -0.202721
0.458251 0.092646 0.639721 0.999982 -0.005383 -0.002523
0.062866 0.221276 0.562748 -0.239597 -0.357271 0.902746
0.269344 0.217039 0.605324 -0.093038 -0.921622 0.376772
0.446040 0.166658 0.545032 0.888761 0.458341 -0.005153
0.455978 0.130346 0.623978 0.987469 0.025508 0.155740
0.414083 0.077011 0.853000 0.064597 0.982233 -0.176199
0.362004 0.077889 0.520139 -0.976239 -0.199660 -0.084217
0.457679 0.098812 0.733104 0.972244 0.209752 0.103664
0.560527 0.221450 0.796793 0.723692 0.272581 -0.634010
0.266055 0.216144 0.855214 -0.421752 -0.873915 -0.241656
0.725392 0.223635 0.500233 -0.258286 0.676423 -0.689739
0.447097 0.140331 0.711013 0.785095 0.240637 0.570718
0.389210 0.115929 0.803008 -0.409623 0.911331 -0.041038
0.363773 0.108149 0.716215 -0.955299 0.252248 0.154193
0.363402 0.066800 0.787281 0.140275 0.990032 -0.012626
0.738079 0.219102 0.510071 0.390857 -0.152715 0.907694
0.420929 0.061849 0.871234 0.253897 -0.752269 0.607971
0.420227 0.192432 0.638126 0.278590 0.951485 0.130628
0.176146 0.224777 0.572169 0.117399 0.854951 -0.505248
0.421498 0.050437 0.691004 0.225989 -0.973634 -0.031091
0.361150 0.110099 0.582658 -0.990187 -0.138701 -0.017083
0.429962 0.228001 0.118769 0.402736 0.909564 0.102458
0.419487 0.142763 0.184581 0.893852 0.282101 -0.348494
0.438486 0.171721 0.634870 0.510803 -0.856931 0.068911
0.379328 0.174925 0.685351 -0.782839 0.620155 0.050713
0.416740 0.050437 0.617115 0.155243 -0.987644 -0.021440
0.405395 0.183702 0.130090 -0.845804 -0.352734 -0.400243
0.355838 0.217112 0.614780 0.132240 -0.822839 -0.552674
0.388242 0.225363 0.353581 -0.173562 0.984808 -0.005368
0.612751 0.224562 0.548343 -0.153874 0.909809 -0.385448
0.226635 0.216144 0.921232 -0.313030 -0.935167 -0.165754
0.413991 0.163347 0.325914 0.527647 0.849423 0.008316
0.446791 0.225416 0.073447 -0.791562 -0.595976 -0.135061
0.449247 0.218043 0.616300 -0.404941 -0.702160 -0.585657
0.378759 0.151198 0.715048 -0.685483 -0.220755 0.693816
0.365526 0.146232 0.222629 -0.885096 -0.392137 0.250666
0.361221 0.093036 0.588375 -0.998740 -0.049966 0.004595
0.398926 0.154888 0.285985 -0.812518 0.582642 -0.018494
0.435540 0.138198 0.764161 0.681028 0.667094 0.301972
0.435044 0.055428 0.591916 0.402613 -0.914880 -0.029958
0.614577 0.224730 0.875792 0.363896 0.883065 -0.296270
