0.274572 0.063754 0.726934 0.060618 0.195298 0.978869
0.337974 0.084577 0.483165 -0.140318 -0.739653 -0.658198
0.396446 0.197632 0.720527 0.146453 0.841742 0.519636
0.347083 0.060696 0.542254 0.055164 -0.950701 0.305163
0.313654 0.199508 0.632028 -0.705347 0.636227 0.312571
0.380199 0.126604 0.803876 -0.015878 0.654628 0.755784
0.335575 0.118098 0.802841 -0.326627 0.626127 0.708011
0.301167 0.282827 0.609381 0.000052 0.948316 -0.317326
0.508357 0.281163 0.628242 0.006902 0.571561 0.820530
0.468912 0.076995 0.503550 0.503254 -0.562135 -0.656308
0.377136 0.066736 0.496377 -0.022751 -0.773459 -0.633438
0.373026 0.148694 0.202894 -0.272167 0.960942 -0.050165
0.388339 0.282094 0.971143 0.660638 -0.750214 0.027136
0.265575 0.122398 0.601761 -0.921591 0.056761 0.383990
0.362496 0.187368 0.734258 -0.226422 0.809055 0.542368
0.214925 0.276337 0.609520 -0.007365 -0.957615 0.287957
0.412593 0.054707 0.625833 0.130237 -0.991323 0.017801
0.312368 0.185100 0.672430 -0.792354 0.554804 0.253709
0.342037 0.142000 0.351600 -0.878523 0.450557 -0.158733
0.395230 0.214820 0.688012 0.131910 0.909654 0.393865
0.375806 0.159664 0.386042 -0.093288 0.994127 -0.054846
0.236328 0.038333 0.661579 0.823181 0.567690 0.010048
0.407115 0.158277 0.405349 0.262349 0.960085 -0.097006
0.456615 0.123349 0.729416 0.943561 0.255819 0.210358
0.386271 0.225147 0.624862 0.500349 -0.171478 0.848673
0.502218 0.089904 0.550264 0.933585 -0.119915 -0.337699
0.410169 0.134328 0.176358 0.978933 0.188940 -0.077402
0.425514 0.099212 0.821213 0.379056 0.276727 0.883028
0.607336 0.284744 0.605949 -0.005053 0.114519 -0.993408
0.376343 0.230252 0.632021 -0.077342 0.993075 0.088432
0.195175 0.278786 0.615298 -0.008037 -0.871041 0.491145
0.455590 0.160049 0.705915 0.842218 0.432257 0.322215
0.514260 0.064228 0.717215 -0.028079 0.374166 -0.926937
0.373920 0.275959 0.770974 0.177564 -0.984109 0.000980
0.397913 0.070236 0.788676 0.096277 -0.924204 0.369564
0.302532 0.095029 0.742341 -0.771442 0.592693 0.231498
0.341466 0.182261 0.508541 -0.259354 0.814146 -0.519521
0.289942 0.076004 0.734960 -0.500688 -0.846950 0.178848
0.277220 0.112586 0.522001 -0.891854 -0.122580 -0.435397
0.222743 0.038312 0.638199 -0.839536 0.542722 0.025143
0.482634 0.066155 0.530858 0.486043 -0.813715 -0.318795
0.340675 0.155484 0.764354 -0.414939 0.720301 0.555870
0.438424 0.205709 0.661805 0.591608 0.763833 0.257991
0.329614 0.110208 0.805921 -0.522897 0.481155 0.703611
0.400192 0.146182 0.195910 0.424389 0.903574 -0.058717
0.453357 0.104382 0.473330 0.602589 -0.457319 -0.654022
0.504150 0.073852 0.556451 0.836112 -0.457911 -0.302050
0.545576 0.025729 0.592071 0.152974 -0.988082 -0.017092
0.384567 0.278867 0.386723 -0.469421 -0.882870 -0.013601
0.238134 0.036783 0.515611 0.854754 0.518901 -0.011712
0.405935 0.118870 0.308716 0.377395 -0.924688 -0.050253
0.380887 0.283535 0.620856 0.094632 0.988553 0.117508
0.271338 0.079419 0.642794 -0.471346 -0.879192 0.069669
0.221238 0.282570 0.607889 -0.004670 0.943992 -0.329934
0.410949 0.079776 0.485566 0.060799 -0.755717 -0.652070
0.141682 0.279456 0.616816 -0.014492 -0.857779 0.513814
0.302516 0.127079 0.477784 -0.862586 -0.004889 -0.505886
0.280348 0.073726 0.546797 -0.710950 -0.603409 -0.361176
0.416918 0.121200 0.805937 0.204036 0.655839 0.726804
0.404309 0.121572 0.807947 0.082756 0.643688 0.760800
0.448607 0.190652 0.531065 0.349269 0.768270 -0.536444
0.539461 0.279600 0.628888 0.006648 0.260750 0.965383
0.567735 0.278613 0.619688 0.007856 -0.878412 -0.477840
0.537506 0.037566 0.692368 -0.815819 0.577518 0.030206
0.339176 0.059795 0.696304 -0.232821 -0.970191 0.067262
0.506321 0.110652 0.563462 0.999632 -0.012553 -0.024027
0.283087 0.101253 0.659896 -0.786864 0.591588 0.175691
0.412446 0.227271 0.620858 0.259194 0.961178 0.094635
0.448365 0.126475 0.451120 0.870147 -0.249525 -0.424949
0.343425 0.056331 0.613580 -0.136299 -0.990400 0.023046
0.377585 0.053016 0.709537 -0.047964 -0.997861 0.044422
0.375526 0.087108 0.477704 -0.018905 -0.761465 -0.647930
0.476076 0.083561 0.759492 0.545781 0.812881 0.203340
0.394057 0.120450 0.121709 0.297446 -0.953143 -0.055181
0.381318 0.161007 0.403507 -0.035029 0.998665 -0.037953
0.376570 0.283416 0.809784 -0.255120 0.966906 0.002544
0.338079 0.279557 0.615345 0.035439 -0.960569 0.275773
0.331515 0.117471 0.801196 -0.429566 0.608334 0.667385
0.388995 0.145216 0.125404 0.841623 0.538705 -0.038318
0.295832 0.072941 0.729082 -0.465727 -0.875011 0.132117
0.393615 0.283098 0.587087 0.822746 0.568408 0.001113
0.289623 0.072215 0.533073 -0.687379 -0.615891 -0.384953
0.132876 0.278830 0.605560 -0.007351 0.063352 -0.997964
0.392815 0.284959 0.744246 0.564583 0.824756 -0.031986
0.444810 0.202612 0.657002 0.651073 0.721960 0.234260
0.376294 0.117847 0.184821 -0.129946 -0.990670 -0.041080
0.428453 0.222235 0.616548 0.382783 0.915405 0.124542
0.478282 0.076826 0.744492 0.511095 -0.835956 0.199902
0.457168 0.108678 0.742844 0.929432 0.308018 0.203180
0.481983 0.101928 0.507874 0.810857 -0.154226 -0.564557
0.362303 0.170088 0.757183 -0.184369 0.766713 0.614946
0.336875 0.148422 0.401346 -0.676548 0.718628 -0.160798
0.385788 0.285146 0.682885 -0.043206 0.999020 -0.009572
0.396294 0.148282 0.207440 0.292282 0.954551 -0.058333
0.377814 0.106406 0.451920 -0.012870 -0.921937 -0.387126
0.568363 0.276169 0.625483 0.009680 -0.965620 -0.259778
0.295387 0.075037 0.518775 -0.686795 -0.570627 -0.450220
0.360100 0.146205 0.246717 -0.566760 0.820300 -0.076747
0.388253 0.192861 0.104738 0.978583 0.198972 0.052768
0.434135 0.148435 0.767040 0.458379 0.678585 0.573943
0.356263 0.219005 0.558799 -0.152137 0.897513 -0.413914
0.335913 0.166762 0.744940 -0.526998 0.702933 0.477660
0.394984 0.280670 0.636094 0.311726 -0.950168 -0.002732
0.030386 0.280899 0.620089 -0.028421 -0.824031 0.565831
0.230253 0.025738 0.737819 -0.176703 -0.983796 0.030375
0.296596 0.072679 0.728528 -0.461830 -0.877744 0.127587
0.378181 0.117991 0.173116 -0.113525 -0.992792 -0.038414
0.388414 0.277281 0.321141 -0.277240 -0.960522 -0.023129
0.282876 0.065359 0.536976 -0.152965 0.555815 -0.817112
0.451526 0.275983 0.625996 -0.012365 -0.981458 -0.191278
0.427906 0.134963 0.373778 0.981167 0.001211 -0.193159
0.428073 0.056334 0.568469 0.125291 -0.992046 -0.012084
0.317663 0.204555 0.631191 -0.652775 0.674582 0.344708
0.311216 0.095388 0.774109 -0.861617 0.433226 0.264444
0.309414 0.091036 0.488280 -0.561661 -0.536703 -0.629672
0.291166 0.065443 0.553045 -0.365417 -0.924930 -0.104763
0.237713 0.034396 0.627285 0.990223 0.139406 0.005005
0.377231 0.283633 0.259579 -0.931087 -0.362146 -0.043888
0.025282 0.284559 0.624005 -0.043760 -0.101339 0.993889
0.390427 0.276436 0.313190 -0.194559 -0.980590 -0.024286
0.375327 0.118271 0.178696 -0.155403 -0.987270 -0.033871
0.389348 0.052961 0.702618 0.028705 -0.998948 0.035761
0.438957 0.156043 0.749649 0.678014 0.609083 0.411478
0.449656 0.174600 0.511214 0.415755 0.740072 -0.528622
0.461470 0.059658 0.541181 0.189097 -0.981135 -0.040202
0.302891 0.115917 0.706140 -0.940218 0.255070 0.225676
0.393176 0.112817 0.382969 0.102053 -0.993505 -0.050327
0.511832 0.077458 0.613110 0.857669 -0.489384 0.157818
0.367898 0.194307 0.725456 -0.172330 0.834084 0.524029
0.170921 0.284974 0.625880 -0.014522 0.428281 0.903529
0.312897 0.190102 0.661974 -0.797972 0.559164 0.224894
0.296672 0.162240 0.644415 -0.918493 0.239660 0.314539
0.429848 0.166302 0.746797 0.532120 0.695411 0.482962
0.414571 0.186071 0.509247 0.168473 0.827996 -0.534827
0.267471 0.143124 0.548398 -0.943291 0.164311 -0.288449
0.386125 0.058465 0.755410 0.015342 -0.967238 0.253409
0.362890 0.114395 0.366522 -0.208209 -0.977171 -0.042258
0.229369 0.025416 0.506744 0.170972 -0.984354 -0.042602
0.289314 0.279408 0.605658 -0.005383 0.233065 -0.972446
0.456454 0.173247 0.685800 0.853586 0.433692 0.288620
0.417453 0.282867 0.605722 -0.102733 0.855503 -0.507504
0.225594 0.040454 0.643137 -0.500000 0.865893 0.015157
0.379671 0.280650 0.459138 -0.533004 -0.846093 -0.005781
0.254888 0.062055 0.718035 0.014425 -0.696561 -0.717352
0.372615 0.284857 0.355292 -0.992732 -0.119140 -0.016969
0.391048 0.124769 0.075979 0.401285 -0.852001 -0.336249
0.350494 0.167120 0.755977 -0.315281 0.752915 0.577682
0.323336 0.210952 0.622395 -0.585207 0.739918 0.331743
0.288418 0.122678 0.628476 -0.920996 0.262714 0.287658
0.297566 0.198148 0.614658 -0.593595 0.605697 0.529883
0.026355 0.278908 0.615364 -0.030556 -0.923176 0.383161
0.456637 0.059479 0.558576 0.180502 -0.983334 -0.021749
0.346764 0.124473 0.338162 -0.767403 -0.631028 -0.113559
0.485015 0.075754 0.676947 0.408012 -0.909427 0.080430
0.467214 0.154735 0.664703 0.938808 0.251015 0.235863
0.407497 0.225997 0.580131 0.162598 0.973908 -0.158321
0.294768 0.203053 0.583856 -0.591689 0.805992 -0.016769
0.442889 0.210379 0.556268 0.318107 0.859466 -0.400158
0.518965 0.285022 0.607642 -0.029930 0.838946 -0.543392
0.462042 0.072858 0.751221 0.408363 -0.892936 0.189486
0.332019 0.065177 0.746395 -0.263753 -0.955721 0.130507
0.306981 0.279694 0.605707 -0.005397 0.291834 -0.956454
0.361397 0.178417 0.746286 -0.215578 0.786540 0.578688
0.346275 0.154486 0.402598 -0.413515 0.901132 -0.130256
0.383752 0.279208 0.391563 -0.502426 -0.864527 -0.012676
0.365815 0.129331 0.113588 -0.928181 -0.236025 -0.287700
0.455961 0.107259 0.473989 0.693551 -0.362261 -0.622699
0.476268 0.063837 0.572814 0.262024 -0.963276 0.058667
0.348254 0.117347 0.393537 -0.387853 -0.917524 -0.087858
0.449075 0.149820 0.467293 0.659158 0.674363 -0.332786
0.296372 0.180908 0.538130 -0.551919 0.660972 -0.508431
0.030140 0.281213 0.620832 -0.028097 -0.805497 0.591933
0.429731 0.181126 0.095984 -0.909341 0.003868 -0.416033
0.476565 0.077107 0.750054 0.491261 -0.845538 0.209111
0.346378 0.224417 0.622430 -0.373264 0.909879 0.181094
0.480822 0.061224 0.724942 -0.024540 -0.864461 0.502101
0.391997 0.053180 0.622470 0.052958 -0.998572 0.006970
0.379515 0.150111 0.211278 -0.223697 0.973949 0.037184
0.383240 0.279264 0.476768 -0.499150 -0.866510 -0.003059
0.381930 0.284797 0.409694 -0.024751 0.999662 -0.007972
0.477721 0.186966 0.550972 0.592757 0.688222 -0.418317
0.230005 0.025647 0.559762 0.165507 -0.985900 -0.024689
0.306252 0.112558 0.720294 -0.939304 0.257699 0.226493
0.410351 0.155586 0.385962 0.359133 0.927870 -0.100403
0.431340 0.176649 0.502464 0.299423 0.789894 -0.535176
0.730177 0.284487 0.614792 0.046448 0.787250 -0.614883
0.297630 0.128155 0.674830 -0.935896 0.249106 0.249088
0.271921 0.094947 0.546426 -0.898219 -0.236299 -0.370628
0.385520 0.283776 0.619253 0.106640 0.990101 -0.091258
0.411011 0.133337 0.183703 0.993652 0.092622 -0.063853
0.541144 0.026510 0.570086 -0.382514 -0.923768 -0.018317
0.336002 0.058878 0.629110 -0.203153 -0.978395 0.038377
0.391449 0.282852 0.800741 0.581097 -0.813774 0.009913
0.407242 0.139880 0.174223 0.786747 0.611548 -0.083896
0.278999 0.068186 0.577584 -0.369961 -0.926791 -0.064707
0.347437 0.178387 0.738622 -0.379077 0.764437 0.521476
0.361744 0.158716 0.397331 -0.205602 0.974944 -0.084929
0.342497 0.065007 0.536660 -0.130089 0.493343 -0.860052
0.337622 0.136495 0.366296 -0.978322 0.100873 -0.180863
0.300779 0.069600 0.668715 -0.313671 -0.946662 0.073762
0.473101 0.095710 0.719095 0.704056 0.674883 0.220995
0.472214 0.153316 0.634265 0.905904 0.245913 0.344768
0.419836 0.148163 0.366883 0.651081 0.747168 -0.133540
0.227699 0.025443 0.693155 -0.416442 -0.909076 0.012533
0.429500 0.112665 0.444950 0.245656 -0.904638 -0.348257
0.281473 0.164404 0.537006 -0.718511 0.489098 -0.494494
0.389652 0.160124 0.394635 0.089039 0.994225 -0.059897
0.375798 0.241209 0.614773 -0.974502 -0.070301 -0.213083
0.378896 0.281297 0.318257 -0.629827 -0.776465 -0.020486
0.435205 0.131438 0.410054 0.950688 -0.194554 -0.241538
0.318052 0.064746 0.684918 -0.280504 -0.957634 0.065233
0.494432 0.126137 0.612853 0.865346 0.124211 0.485540
0.364658 0.054024 0.689991 -0.137513 -0.989472 0.045113
0.497982 0.127680 0.531421 0.891898 0.068706 -0.446988
0.359225 0.180800 0.741852 -0.250073 0.791481 0.557692
0.282196 0.076969 0.683412 -0.582472 -0.810270 0.064716
0.307004 0.201606 0.559449 -0.474482 0.792068 -0.384051
0.470040 0.070706 0.670997 0.347412 -0.934406 0.078687
0.275515 0.082724 0.717685 -0.918367 -0.258635 0.299515
0.436860 0.122527 0.431109 0.716225 -0.648068 -0.258901
0.464903 0.098090 0.734481 0.786544 0.576823 0.220509
0.287858 0.278941 0.616395 0.000576 -0.906913 0.421318
0.384953 0.280054 0.701744 0.407770 -0.913085 -0.000196
0.353735 0.119431 0.336505 -0.462311 -0.884098 -0.068112
0.365969 0.149820 0.255136 -0.360851 0.930174 -0.067553
0.388478 0.052982 0.577973 0.027789 -0.999393 -0.021009
0.221491 0.031211 0.733007 -0.992990 -0.117752 0.010283
0.226313 0.040716 0.610261 -0.468074 0.883689 -0.000940
0.334256 0.068963 0.766444 -0.232315 -0.947712 0.218795
0.323116 0.066183 0.739934 -0.295517 -0.949651 0.104083
0.419639 0.172635 0.747288 0.385360 0.754125 0.531784
0.044341 0.284372 0.614101 -0.023991 0.999682 0.007699
0.348667 0.192514 0.520246 -0.196359 0.826235 -0.527995
0.411780 0.054717 0.638687 0.129907 -0.991315 0.020474
0.407992 0.151597 0.335830 0.448947 0.889232 -0.087830
0.395580 0.203795 0.531037 0.057474 0.839485 -0.540335
0.388851 0.179816 0.495212 0.019773 0.865201 -0.501035
0.360863 0.220828 0.562398 -0.129621 0.915116 -0.381787
0.430984 0.197365 0.102604 0.961709 0.273114 -0.022887
0.350646 0.167013 0.470734 -0.240071 0.924383 -0.296449
0.392908 0.283263 0.667010 0.331488 -0.943340 -0.014995
0.391295 0.119455 0.135150 0.178910 -0.982892 -0.043763
0.395250 0.282961 0.660871 0.887283 -0.460336 -0.028630
0.392473 0.229295 0.594356 0.073536 0.993661 -0.085034
0.480956 0.285087 0.608126 -0.032836 0.935686 -0.351303
0.372009 0.113056 0.370520 -0.087736 -0.993380 -0.074146
0.442679 0.207889 0.641533 0.648087 0.739170 0.183333
0.498206 0.115605 0.533761 0.911044 -0.045522 -0.409788
0.310294 0.211769 0.602698 -0.506255 0.857080 0.095494
0.388214 0.284824 0.860019 0.601910 0.798288 0.020991
0.372304 0.281837 0.682112 -0.565220 0.824934 0.003064
0.344527 0.226279 0.609572 -0.267112 0.963321 0.025755
0.502997 0.094039 0.606058 0.922554 0.317401 0.219433
0.040438 0.280774 0.619805 -0.027130 -0.827020 0.561517
0.264011 0.083770 0.675307 -0.768689 -0.633001 0.091798
0.280621 0.123503 0.512702 -0.864242 0.062790 -0.499142
0.388227 0.229946 0.597088 0.043504 0.995759 -0.081058
0.382945 0.285099 0.656563 -0.067246 0.997212 -0.032340
0.276364 0.131379 0.615781 -0.630379 0.108026 0.768734
0.363648 0.180858 0.499491 -0.129258 0.842731 -0.522586
0.382706 0.118612 0.142175 -0.068244 -0.995655 -0.063349
0.291438 0.147664 0.625107 -0.913585 0.235373 0.331605
0.263099 0.090983 0.605849 -0.967410 0.160575 0.195787
0.232054 0.026393 0.629585 0.301519 -0.953459 -0.001189
0.397172 0.053590 0.630054 0.073704 -0.997217 0.011188
0.375097 0.282225 0.485611 -0.494521 -0.869148 -0.005429
0.299968 0.160049 0.509838 -0.626061 0.601009 -0.496826
0.337095 0.124675 0.391841 -0.774472 -0.614933 -0.148497
0.227901 0.025273 0.580700 -0.160329 -0.986837 -0.021131
0.333716 0.284961 0.617124 0.020376 0.993261 -0.114095
0.412789 0.200976 0.529255 0.141207 0.830507 -0.538812
0.352171 0.114722 0.411314 -0.219416 -0.970839 -0.096587
0.382029 0.284632 0.343183 -0.138185 0.990224 -0.018994
0.458124 0.068336 0.710366 0.345786 -0.934154 0.088252
0.352755 0.285190 0.616198 0.039933 0.997769 -0.053496
0.508991 0.074992 0.608884 0.728334 -0.672031 0.133806
0.404904 0.109060 0.445484 0.083177 -0.946993 -0.310299
0.389624 0.278009 0.576330 -0.247454 -0.967848 0.045135
0.418310 0.277611 0.626401 -0.057431 -0.975441 -0.212644
0.264631 0.115977 0.557603 -0.973800 -0.060347 -0.219251
0.372983 0.196662 0.722677 -0.115503 0.845827 0.520803
0.401318 0.177807 0.493113 0.095558 0.870881 -0.482115
0.502096 0.099061 0.601990 0.938733 0.249797 0.237450
0.386859 0.277863 0.452870 -0.426248 -0.904588 -0.005822
0.354451 0.227934 0.596483 -0.169112 0.983572 -0.063146
0.494561 0.079184 0.686411 0.451449 -0.888454 0.082725
0.374785 0.083488 0.822206 -0.063516 -0.604778 0.793857
0.364850 0.229121 0.628022 -0.196765 0.975365 0.099736
0.404409 0.070144 0.785009 0.109061 -0.937599 0.330171
0.312724 0.063221 0.519866 -0.290265 -0.922626 -0.253984
0.263362 0.154397 0.576784 -0.956184 0.281217 -0.081422
0.407790 0.229153 0.616984 0.201836 0.978753 0.036117
0.370995 0.278913 0.825886 -0.995399 0.095578 0.006755
0.375876 0.285111 0.474958 -0.374577 0.927195 0.001109
0.531703 0.051869 0.544889 -0.073318 -0.589265 0.804607
0.366498 0.053748 0.656259 -0.073112 -0.997057 0.023068
0.301148 0.063247 0.599212 -0.237900 -0.969775 0.054230
0.408439 0.200146 0.711868 0.277497 0.830236 0.483429
0.364539 0.137749 0.129750 -0.838794 0.521212 -0.157364
0.474593 0.195379 0.591866 0.704187 0.705682 0.078314
0.401885 0.119150 0.258856 0.388427 -0.920781 -0.035862
0.384979 0.280110 0.713088 0.427055 -0.904225 0.000669
0.372503 0.275878 0.840796 -0.327841 -0.944730 -0.002168
0.235894 0.038698 0.535399 0.665905 0.745645 -0.024145
0.542818 0.026215 0.659579 -0.318732 -0.947840 0.003172
0.314624 0.146235 0.464784 -0.757755 0.556998 -0.339943
0.670808 0.284812 0.606857 0.021480 -0.304435 -0.952291
0.490803 0.172759 0.595058 0.864133 0.402504 0.302101
0.382881 0.202344 0.107782 -0.449132 0.595099 0.666436
0.287365 0.061177 0.724900 0.136086 -0.771208 0.621867
0.375130 0.276512 0.954467 0.176042 -0.983973 0.028400
0.291580 0.065491 0.547398 -0.378241 -0.917839 -0.120437
0.418325 0.203842 0.697281 0.388879 0.821683 0.416666
0.476412 0.063439 0.529868 0.351568 -0.908155 -0.227277
0.487249 0.143649 0.518907 0.781863 0.312184 -0.539658
0.384961 0.185281 0.115821 -0.144825 0.749455 0.646021
0.460935 0.177825 0.522865 0.467601 0.709090 -0.527769
0.494361 0.136083 0.610663 0.898078 0.116268 0.424192
0.468624 0.199956 0.601250 0.676781 0.729265 0.100698
0.335751 0.056469 0.537601 -0.138531 -0.988650 -0.058137
0.482011 0.081401 0.759364 0.753334 -0.571307 0.325726
0.414262 0.117565 0.810012 0.162332 0.637141 0.753458
0.393666 0.116724 0.256285 0.216696 -0.975707 -0.032218
0.050600 0.284499 0.618601 -0.036055 0.926540 0.374463
0.269402 0.089588 0.642240 -0.705704 0.702838 0.089441
0.224012 0.028536 0.584527 -0.740459 -0.671929 -0.015200
0.397555 0.159747 0.398817 0.158228 0.983775 -0.084564
0.223954 0.039857 0.727842 -0.552799 0.831652 0.052615
0.229788 0.041981 0.649365 0.018034 0.999739 -0.013991
0.388429 0.284021 0.657025 0.057840 0.997190 -0.047611
0.472270 0.072852 0.718004 0.444490 -0.887857 0.118908
0.289648 0.072542 0.532611 -0.691172 -0.610235 -0.387162
0.467484 0.101274 0.488990 0.750500 -0.262277 -0.606598
0.357125 0.055851 0.720449 -0.205176 -0.976343 0.068244
0.452206 0.114807 0.465483 0.733390 -0.356382 -0.578905
0.382263 0.279826 0.409758 -0.565896 -0.824419 -0.009723
0.312317 0.060007 0.553713 -0.194441 -0.980631 -0.023564
0.434771 0.063587 0.506849 0.132464 -0.847163 -0.514556
0.356828 0.218276 0.556788 -0.148588 0.889621 -0.431852
0.373881 0.065850 0.778688 -0.057139 -0.950267 0.306149
0.392822 0.053279 0.629350 0.057488 -0.998305 0.009026
0.536494 0.032904 0.757631 -0.992995 0.102819 0.058218
0.339343 0.217472 0.647440 -0.468773 0.858442 0.208156
0.463946 0.063745 0.545689 0.070480 -0.072792 0.994854
0.390315 0.153042 0.270165 0.184250 0.981108 -0.058976
0.293434 0.115076 0.493958 -0.846801 -0.081588 -0.525616
0.411535 0.159160 0.428887 0.275152 0.955238 -0.108680
0.497921 0.123090 0.532028 0.900076 0.024456 -0.435045
0.361792 0.206997 0.537234 -0.110643 0.835104 -0.538850
0.265625 0.080985 0.627900 -0.478684 -0.874986 0.072533
0.552949 0.031977 0.662445 0.972432 -0.232708 0.014914
0.386813 0.158161 0.357373 0.091470 0.994606 -0.048909
0.467604 0.172099 0.637831 0.878609 0.319684 0.354751
0.502356 0.087999 0.651338 0.744142 0.660146 0.102273
0.369548 0.053553 0.652664 -0.056561 -0.998186 0.020628
0.548020 0.040958 0.719983 0.524283 0.851243 0.022650
0.463732 0.083908 0.788365 0.759219 0.405821 0.508818
0.372658 0.284800 0.323997 -0.954700 -0.296561 -0.024487
0.416104 0.194202 0.096513 0.042297 -0.980528 0.191773
0.062308 0.278712 0.614946 -0.025751 -0.919795 0.391554
0.416154 0.211560 0.545337 0.154276 0.842110 -0.516769
0.537603 0.029857 0.708045 -0.924346 -0.381119 0.018255
0.413635 0.134682 0.268593 0.992628 0.094828 -0.075486
0.466522 0.071454 0.732063 0.470507 -0.868508 0.155941
0.382314 0.284812 0.432683 0.018703 0.999812 -0.005107
0.415423 0.065668 0.765870 0.157607 -0.951247 0.265121
0.391493 0.282778 0.778671 0.545315 -0.838191 0.008197
0.470712 0.175510 0.529351 0.542897 0.647571 -0.534710
0.422630 0.121256 0.383476 0.569435 -0.813586 -0.117563
0.461173 0.125757 0.710900 0.936690 0.267651 0.225776
0.305387 0.156530 0.691645 -0.942542 0.243941 0.228270
0.393675 0.066499 0.541534 0.023071 0.985512 0.168032
0.417533 0.055176 0.603016 0.128548 -0.991659 0.009415
0.480518 0.170818 0.533669 0.631062 0.573223 -0.522662
0.441848 0.205535 0.654027 0.626920 0.745778 0.225361
0.540645 0.041306 0.594804 -0.511301 0.858695 -0.034845
0.237601 0.033762 0.721511 0.996612 -0.076973 0.028960
0.400695 0.079048 0.485689 0.036892 -0.760337 -0.648480
0.345502 0.055634 0.526121 -0.119839 -0.985897 -0.116814
0.380914 0.148525 0.783908 -0.010715 0.699675 0.714381
0.461103 0.077206 0.772331 0.362464 -0.891854 0.270584
0.589050 0.279215 0.628954 0.007086 0.161677 0.986818
0.524923 0.279727 0.628867 0.006520 0.292005 0.956395
0.448042 0.282786 0.607412 0.001173 -0.922747 -0.385406
0.382749 0.185562 0.114645 -0.427553 0.710582 0.558813
0.376152 0.053163 0.629450 -0.018111 -0.999794 0.009214
0.376786 0.154030 0.284587 -0.157825 0.986421 -0.045430
0.397369 0.161955 0.434424 0.125528 0.988217 -0.087583
0.187369 0.280358 0.619122 -0.008239 -0.805810 0.592117
0.459414 0.204417 0.561997 0.464126 0.840218 -0.280395
0.551011 0.038114 0.652208 0.819468 0.573045 0.009527
0.374699 0.231099 0.611060 -0.066211 0.997572 -0.021611
0.417117 0.127616 0.318362 0.917008 -0.380063 -0.121029
0.264700 0.139213 0.598437 -0.945754 0.113270 0.304499
0.388530 0.200103 0.096828 0.982660 0.144773 -0.115843
0.320011 0.113778 0.461196 -0.606707 -0.583344 -0.540015
0.352856 0.056000 0.679146 -0.187524 -0.980947 0.050760
0.348143 0.191866 0.718436 -0.380828 0.783116 0.491629
0.303561 0.061602 0.566986 -0.223442 -0.974670 -0.009643
0.273564 0.079184 0.657855 -0.541166 -0.838213 0.067376
0.432534 0.072133 0.494619 0.135230 -0.739822 -0.659072
0.327848 0.179121 0.511135 -0.349836 0.783004 -0.514314
0.435814 0.113113 0.447226 0.292779 -0.867048 -0.403123
0.419507 0.202635 0.698680 0.402226 0.813066 0.420878
0.320071 0.060696 0.542596 0.081908 -0.922163 0.378030
0.312976 0.134668 0.456590 -0.909859 0.056580 -0.411041
0.326330 0.066499 0.720632 -0.081507 0.962298 -0.259499
0.222065 0.034468 0.680414 -0.984944 0.172332 0.013695
0.380182 0.280777 0.278702 -0.564148 -0.825245 -0.026605
0.469025 0.070959 0.686518 0.360265 -0.929190 0.082554
0.372265 0.212312 0.543751 -0.060803 0.844944 -0.531387
0.487458 0.063529 0.716710 -0.056342 0.107679 -0.992588
0.429655 0.198029 0.133949 0.120634 0.992682 0.005528
0.282039 0.174757 0.614865 -0.634061 0.343436 0.692833
0.381781 0.148320 0.111766 -0.977105 0.150299 -0.150582
0.391458 0.282984 0.272415 0.274941 0.961395 -0.011281
0.398420 0.146156 0.785399 0.110175 0.711921 0.693564
0.324934 0.100531 0.471302 -0.231347 -0.697057 -0.678667
0.332816 0.188620 0.707385 -0.574781 0.703219 0.418461
0.402274 0.173576 0.753856 0.158377 0.771337 0.616406
0.042203 0.280617 0.619437 -0.027045 -0.835185 0.549304
0.411348 0.142693 0.284257 0.805429 0.587165 -0.080752
0.550445 0.028993 0.663980 0.746834 -0.664932 0.010219
0.348455 0.125413 0.319384 -0.816391 -0.567884 -0.104948
0.442042 0.210454 0.555976 0.312447 0.859751 -0.403987
0.352328 0.130984 0.255323 -0.982508 -0.169057 -0.078086
0.331575 0.081820 0.806736 -0.297268 -0.826275 0.478436
0.498729 0.089752 0.654643 0.614663 0.782361 0.100502
0.404773 0.053887 0.570985 0.083570 -0.996287 -0.020717
0.390759 0.282504 0.777743 0.542903 -0.839758 0.007848
0.314498 0.123730 0.458960 -0.810345 -0.324012 -0.488219
0.249986 0.281875 0.623941 -0.005150 -0.868838 0.495070
0.350477 0.198572 0.709051 -0.349166 0.811205 0.469073
0.382988 0.062651 0.769469 0.023056 -0.952364 0.304092
0.489068 0.178292 0.553035 0.715055 0.606036 -0.348449
0.379670 0.060696 0.724246 0.033428 -0.920259 0.389880
0.272884 0.284957 0.618212 0.004169 0.996465 -0.083901
0.397382 0.199059 0.524527 0.068340 0.839926 -0.538380
0.322124 0.189320 0.528410 -0.358238 0.774517 -0.521333
0.389138 0.130819 0.800175 0.023234 0.670172 0.741842
0.228786 0.025204 0.529855 0.064227 -0.997331 -0.034719
0.503664 0.070578 0.577922 0.432653 -0.899951 0.053846
0.332807 0.221969 0.597905 -0.318253 0.947263 -0.037528
0.301174 0.063627 0.603196 -0.240824 -0.968150 0.068476
0.354874 0.124881 0.258753 -0.786647 -0.614282 -0.062009
0.338628 0.058413 0.635617 -0.199374 -0.979126 0.039528
0.360154 0.144332 0.222643 -0.618910 0.781609 -0.077700
0.360209 0.174261 0.751202 -0.215753 0.776586 0.591916
0.360716 0.109294 0.443821 -0.094325 -0.961686 -0.257415
0.405592 0.054508 0.685049 0.116526 -0.992781 0.028431
0.333452 0.159170 0.753297 -0.540413 0.689137 0.482747
0.467295 0.155052 0.663906 0.937922 0.250958 0.239423
0.394747 0.209808 0.698983 0.126550 0.888867 0.440341
0.384547 0.052629 0.628737 0.021779 -0.999740 0.006782
0.341868 0.217524 0.563802 -0.240944 0.898481 -0.366985
0.396740 0.123136 0.102334 0.550020 -0.819750 -0.159649
0.482803 0.113317 0.622252 0.868997 0.400985 0.289923
0.336002 0.188732 0.519817 -0.276222 0.806335 -0.522996
0.675365 0.281054 0.628305 0.011182 0.541233 0.840798
0.378823 0.202154 0.528109 -0.030600 0.842606 -0.537660
0.425213 0.126839 0.370440 0.877779 -0.450998 -0.161570
0.393108 0.122518 0.080833 0.491727 -0.848557 -0.195336
0.300771 0.071235 0.723052 -0.444896 -0.890637 0.093985
0.400728 0.148471 0.242346 0.438432 0.896863 -0.058436
0.157075 0.278261 0.614003 -0.013419 -0.907949 0.418866
0.393839 0.282724 0.589527 0.878610 0.477537 0.001715
0.371044 0.062903 0.767612 -0.079594 -0.955405 0.284370
0.543642 0.041730 0.728787 0.065657 0.997777 0.011421
0.146931 0.283112 0.626149 -0.014003 -0.749318 0.662062
0.393965 0.211079 0.696698 0.118359 0.894390 0.431345
0.440049 0.176244 0.717506 0.675574 0.612570 0.410313
0.282403 0.165022 0.536318 -0.710635 0.500638 -0.494326
0.212469 0.284808 0.617216 -0.003295 0.998437 -0.055791
0.260096 0.121260 0.584602 -0.998008 0.026954 0.057037
0.376299 0.151700 0.243644 -0.190771 0.980623 -0.044547
0.485643 0.085256 0.521062 0.812087 -0.289789 -0.506496
0.393419 0.119509 0.146286 0.241922 -0.969713 -0.033618
0.406131 0.146965 0.272349 0.587381 0.807044 -0.060523
0.403935 0.122028 0.192403 0.463700 -0.885395 -0.032525
0.344774 0.175214 0.496850 -0.255913 0.827460 -0.499819
0.373266 0.053171 0.529895 -0.039119 -0.997085 -0.065508
0.379137 0.282243 0.625008 0.109846 0.979691 0.167751
0.248394 0.284727 0.616767 0.002740 0.992269 -0.124076
0.263624 0.063264 0.716949 -0.061974 -0.310300 -0.948616
0.705787 0.277459 0.629003 0.002718 -0.175022 0.984561
0.310044 0.109691 0.741483 -0.942823 0.254390 0.215339
0.549354 0.040723 0.696163 0.614736 0.788456 0.020893
0.372576 0.275876 0.881543 -0.315011 -0.949086 0.001938
0.395575 0.165196 0.454353 0.086581 0.973088 -0.213549
0.424858 0.057878 0.656962 0.198243 -0.978989 0.047744
0.425225 0.189253 0.716505 0.471661 0.745835 0.470389
0.428505 0.220855 0.621665 0.426612 0.870287 0.246177
0.332842 0.134732 0.783269 -0.484785 0.651981 0.583013
0.483160 0.103054 0.509186 0.817024 -0.141532 -0.558963
0.499630 0.158357 0.549345 0.867860 0.373223 -0.327908
0.388045 0.283696 0.365763 0.224566 0.974451 -0.004059
0.346550 0.172409 0.746840 -0.387959 0.753976 0.530103
0.414824 0.055307 0.633776 0.145570 -0.989020 0.025457
0.361914 0.151981 0.309019 -0.356781 0.930871 -0.078647
0.457622 0.128281 0.723151 0.940601 0.254898 0.224270
0.424161 0.058159 0.690333 0.217072 -0.973951 0.065571
0.328225 0.179798 0.511764 -0.345896 0.784431 -0.514805
0.385326 0.280959 0.594192 -0.146541 -0.985813 0.081845
0.496031 0.160988 0.545568 0.812591 0.417986 -0.406181
0.286690 0.066913 0.548434 -0.554042 -0.792754 -0.254121
0.385050 0.118470 0.145209 -0.001126 -0.997847 -0.065577
0.411732 0.228113 0.615284 0.230822 0.972420 0.033469
0.353390 0.058988 0.740895 -0.207650 -0.970788 0.120216
0.388523 0.277092 0.531862 -0.398849 -0.917011 0.003098
0.536899 0.031791 0.605505 -0.953471 -0.301482 -0.001306
0.318578 0.065361 0.725854 -0.315719 -0.946739 0.063304
0.680515 0.279617 0.617456 0.022031 -0.871400 -0.490077
0.433629 0.059949 0.514404 0.138665 -0.917331 -0.373197
0.536650 0.284776 0.617751 0.000751 0.995595 0.093754
0.226193 0.040672 0.522997 -0.611561 0.790613 -0.030402
0.495119 0.174293 0.570320 0.859270 0.503577 0.089806
0.394930 0.113586 0.362049 0.131049 -0.990211 -0.048050
0.383868 0.280168 0.899929 0.547841 -0.836356 0.019453
0.502241 0.155593 0.553322 0.911855 0.326779 -0.248468
0.352053 0.056846 0.707053 -0.206992 -0.975959 0.068255
0.484998 0.187543 0.573899 0.743695 0.667851 0.029882
0.420266 0.162761 0.461269 0.268809 0.928662 -0.255595
0.384923 0.280949 0.592128 -0.159590 -0.984150 0.077326
0.381848 0.227296 0.655283 -0.011499 0.973284 0.229318
0.378444 0.117266 0.200739 -0.102106 -0.993998 -0.039261
0.411755 0.055124 0.666979 0.139193 -0.989804 0.030233
0.500485 0.159056 0.578116 0.931349 0.283954 0.227945
0.467844 0.080089 0.500068 0.534495 -0.515975 -0.669392
0.388794 0.198713 0.085491 0.932806 0.146741 -0.329152
0.467095 0.063201 0.717005 -0.071459 -0.044476 -0.996451
0.302351 0.191876 0.546226 -0.481428 0.729846 -0.485336
0.496364 0.091287 0.655815 0.625934 0.772572 0.106482
0.307849 0.169310 0.684431 -0.882248 0.380400 0.277371
0.398007 0.053814 0.658076 0.082823 -0.996394 0.018406
0.493977 0.083884 0.714189 0.914997 0.268182 0.301428
0.399743 0.229071 0.600648 0.113572 0.992544 -0.044242
0.386066 0.278257 0.346841 -0.386308 -0.922167 -0.019322
0.115864 0.280803 0.606167 -0.010052 0.493063 -0.869936
0.373151 0.282487 0.746939 -0.340242 0.940331 0.003566
0.385560 0.280887 0.909063 0.601603 -0.798546 0.019957
0.300195 0.140021 0.487126 -0.802423 0.404354 -0.438880
0.367980 0.065356 0.725496 0.088248 0.658594 0.747306
0.275337 0.157620 0.539838 -0.822405 0.373405 -0.429208
0.345061 0.149443 0.370071 -0.588234 0.797541 -0.133826
0.484595 0.164045 0.615744 0.834467 0.252600 0.489753
0.359386 0.120601 0.272619 -0.505652 -0.861345 -0.049002
0.373166 0.282893 0.495927 -0.479623 -0.877458 -0.005345
0.418753 0.130494 0.323382 0.971542 -0.195192 -0.134184
0.284072 0.079184 0.745735 -0.638208 -0.718068 0.277615
0.380852 0.280834 0.616705 -0.352272 0.927952 -0.121693
0.298397 0.140387 0.490892 -0.785331 0.420031 -0.454784
0.353899 0.108673 0.448399 -0.108456 -0.934640 -0.338653
0.422917 0.163443 0.466980 0.285988 0.915584 -0.282697
0.368907 0.104493 0.456764 -0.040027 -0.884314 -0.465173
0.393980 0.209319 0.700129 0.118282 0.887594 0.445182
0.346621 0.126257 0.328459 -0.848903 -0.515160 -0.118212
0.434296 0.117426 0.802823 0.460589 0.611420 0.643447
0.406794 0.156724 0.382725 0.288885 0.953021 -0.091083
0.271573 0.086889 0.682240 -0.826597 0.535820 0.172146
0.411108 0.128959 0.219741 0.959584 -0.277906 -0.044350
0.609756 0.279564 0.617488 0.012535 -0.846639 -0.532020
0.314261 0.140928 0.736763 -0.950360 0.224618 0.215318
0.419676 0.055482 0.601550 0.130171 -0.991440 0.010090
0.262734 0.142309 0.568611 -0.987266 0.131801 -0.089073
0.392882 0.282125 0.453206 0.495101 0.868805 -0.007201
0.411832 0.113678 0.426120 0.162831 -0.974390 -0.155080
0.290925 0.067623 0.615016 -0.281823 -0.940765 0.188514
0.498241 0.283313 0.623417 -0.000542 0.962155 0.272501
0.238221 0.051490 0.535891 -0.138431 -0.224686 -0.964548
0.379329 0.284328 0.947890 -0.012463 0.999671 0.022427
0.409856 0.103304 0.822129 0.141033 0.388788 0.910469
0.421319 0.055168 0.525907 0.102391 -0.988925 -0.107436
0.290213 0.074711 0.709065 -0.537160 -0.839325 0.083625
0.614241 0.284510 0.619305 0.009528 0.997274 0.073171
0.350105 0.062925 0.504489 -0.088240 -0.838415 -0.537842
0.329043 0.145819 0.422919 -0.776200 0.588751 -0.225581
0.296234 0.071877 0.687430 -0.382763 -0.921358 0.067766
0.222180 0.035122 0.690344 -0.963677 0.266176 0.021836
0.468757 0.153836 0.655699 0.931011 0.249586 0.266318
0.480478 0.074262 0.676135 0.390863 -0.916950 0.080183
0.462643 0.060079 0.534398 0.210919 -0.972952 -0.094222
0.077501 0.281633 0.621893 -0.020929 -0.757876 0.652063
0.435076 0.195280 0.693620 0.586706 0.717379 0.375691
0.328082 0.165122 0.489000 -0.415537 0.810497 -0.412824
0.725692 0.283109 0.609239 0.024097 -0.676173 -0.736349
0.458207 0.166354 0.507602 0.508340 0.681594 -0.526328
0.378863 0.281310 0.321104 -0.632363 -0.774411 -0.020079
0.463732 0.063346 0.611034 0.209772 -0.974285 0.082240
0.372372 0.275937 0.973981 -0.451542 -0.892238 0.004636
0.498095 0.071475 0.605812 0.466528 -0.873896 0.136592
0.381023 0.186826 0.103582 -0.986301 0.123020 -0.109895
0.147177 0.283917 0.612926 -0.003606 0.980312 -0.197422
0.396065 0.213158 0.691825 0.140916 0.900945 0.410414
0.260425 0.133104 0.586281 -0.992510 0.086777 0.085988
0.475149 0.071632 0.651697 0.345508 -0.935495 0.073979
0.404773 0.143907 0.203006 0.596043 0.800973 -0.056344
0.319780 0.138435 0.759395 -0.739301 0.552959 0.384278
0.404627 0.142647 0.178553 0.628520 0.774728 -0.068989
0.434207 0.096577 0.473046 0.173019 -0.734663 -0.655999
0.322683 0.279858 0.619274 0.002099 -0.930571 0.366105
0.505738 0.089966 0.592938 0.963163 0.251536 0.095111
0.293894 0.065140 0.536779 -0.143435 0.483978 -0.863245
0.318916 0.275978 0.606872 0.010180 -0.939591 -0.342147
0.526735 0.059682 0.545591 0.026038 -0.302886 0.952671
0.373787 0.282914 0.956451 -0.296380 0.954999 0.011607
0.291480 0.066867 0.609847 -0.292756 -0.949557 0.112410
0.445031 0.118717 0.451774 0.745657 -0.467914 -0.474395
0.385713 0.119393 0.110332 0.011123 -0.997648 -0.067636
0.433831 0.057529 0.594081 0.141816 -0.989757 0.016433
0.375554 0.114925 0.294346 -0.089623 -0.994396 -0.056078
0.414191 0.223615 0.571762 0.174043 0.953047 -0.247810
0.405997 0.118193 0.321665 0.345284 -0.937050 -0.052126
0.730095 0.275862 0.626905 0.019946 -0.994042 0.107160
0.380178 0.284780 0.384094 -0.195682 0.980571 -0.013738
0.382503 0.284868 0.595716 0.001859 0.998477 0.055133
0.379621 0.284928 0.437177 -0.117896 0.993013 -0.004989
0.355490 0.151484 0.337061 -0.428463 0.898271 -0.097614
0.465655 0.126290 0.480704 0.840811 0.043141 -0.539607
0.282370 0.082319 0.735322 -0.895790 0.269936 0.353122
0.387029 0.178500 0.118625 0.516382 0.746690 0.419288
0.458938 0.104378 0.744212 0.899904 0.383739 0.207164
0.377448 0.284973 0.435157 -0.324828 0.945753 -0.006201
0.298062 0.178042 0.622437 -0.864956 0.370313 0.338703
0.382296 0.231102 0.630688 -0.013243 0.996958 0.076808
0.305365 0.067567 0.655161 -0.288525 -0.955064 0.067872
0.365285 0.142830 0.161705 -0.571343 0.815903 -0.088706
0.229091 0.041727 0.550738 -0.229896 0.972361 -0.040755
0.402477 0.117460 0.310429 0.316443 -0.947525 -0.045390
0.375986 0.282346 0.376571 -0.667138 -0.744811 -0.013582
0.269353 0.118410 0.539817 -0.938904 -0.079582 -0.334854
0.446464 0.065001 0.729593 0.359257 -0.925660 0.118695
0.456197 0.063476 0.716758 -0.060447 0.042274 -0.997276
0.429831 0.216512 0.645033 0.498913 0.844902 0.192940
0.400912 0.053320 0.530624 0.053622 -0.997077 -0.054418
0.383220 0.279905 0.918515 0.513157 -0.858006 0.022252
0.089072 0.279297 0.616369 -0.021721 -0.885389 0.464343
0.452298 0.171658 0.509023 0.445987 0.726449 -0.522845
0.506167 0.106555 0.556058 0.981344 -0.043340 -0.187312
0.375069 0.263291 0.618018 -0.996670 0.071106 0.039901
0.459024 0.181100 0.663430 0.853143 0.470732 0.224853
0.388425 0.282102 0.920298 0.687228 -0.726166 0.020028
0.279296 0.076602 0.645671 -0.412207 -0.907984 0.075169
0.386435 0.184514 0.088180 -0.515162 0.179009 -0.838191
0.367645 0.117720 0.247699 -0.253289 -0.966683 -0.036991
0.386711 0.283774 0.547082 0.238038 0.971245 0.004566
0.320439 0.215265 0.576075 -0.374158 0.898510 -0.229531
0.371628 0.280900 0.788623 -0.858992 0.511931 0.007765
0.380325 0.145633 0.130353 -0.922569 0.375957 0.086734
0.298475 0.114492 0.694055 -0.923044 0.311472 0.225775
0.382632 0.116846 0.210686 -0.050421 -0.997048 -0.057906
0.487990 0.100403 0.646535 0.762131 0.634457 0.128923
0.535879 0.034594 0.651389 -0.991855 0.123301 0.031944
0.388472 0.204558 0.095725 0.982911 0.164294 -0.083026
0.547238 0.025436 0.523524 0.484973 -0.873731 -0.037357
0.380889 0.284855 0.419910 -0.065504 0.997828 -0.006982
0.387336 0.285217 0.609799 0.025818 0.997952 0.058534
0.382039 0.279589 0.610961 0.106551 -0.992756 0.055519
0.362837 0.229723 0.608949 -0.141827 0.989857 -0.008276
0.391711 0.079395 0.812776 0.065028 -0.676778 0.733309
0.365126 0.116593 0.300920 -0.268768 -0.962452 -0.038082
0.456350 0.141203 0.718934 0.955133 0.203288 0.215393
0.445896 0.174506 0.709749 0.741681 0.550591 0.383091
0.418432 0.194202 0.096736 0.054186 -0.947766 0.314329
0.399402 0.191047 0.513392 0.080716 0.841067 -0.534874
0.383848 0.279562 0.681175 0.371505 -0.928429 -0.002125
0.348153 0.070204 0.780865 -0.178245 -0.944183 0.277033
0.383226 0.279133 0.509728 -0.443409 -0.896319 -0.000527
0.393093 0.283006 0.690891 0.400039 -0.916496 0.001982
0.374139 0.143630 0.121202 -0.343236 0.933996 -0.099203
0.428438 0.093595 0.474830 0.154236 -0.732402 -0.663174
0.379074 0.277876 0.675745 0.351646 -0.936110 -0.006617
0.528196 0.062367 0.725595 0.208825 0.391980 0.895960
0.221970 0.033926 0.591252 -0.999900 -0.010221 -0.009728
0.461631 0.062975 0.519258 0.266448 -0.896619 -0.353666
0.352829 0.283397 0.623203 0.066376 0.995769 0.063551
0.375257 0.259940 0.615710 -0.972137 0.049413 -0.229148
0.446208 0.083364 0.487211 0.248679 -0.693574 -0.676102
0.354266 0.115056 0.396513 -0.239679 -0.969229 -0.056123
0.385633 0.280769 0.814760 0.596769 -0.802365 0.008818
0.383476 0.060052 0.760689 0.008404 -0.961899 0.273277
0.490793 0.150575 0.528520 0.770125 0.348156 -0.534504
0.526430 0.054166 0.723347 -0.212823 -0.973787 0.080278
0.534100 0.058016 0.721861 0.430882 0.891058 0.142676
0.374602 0.284808 0.344912 -0.990705 0.133107 -0.028025
0.447542 0.125151 0.450327 0.851793 -0.301105 -0.428700
0.369460 0.146957 0.187917 -0.351214 0.934134 -0.063585
0.508891 0.080991 0.608271 0.985882 0.134566 0.099638
0.387995 0.226607 0.574197 0.032478 0.967019 -0.252624
0.368173 0.166699 0.459850 -0.087898 0.966478 -0.241236
0.286267 0.187351 0.614199 -0.682096 0.538540 0.494692
0.391023 0.284596 0.974391 0.945055 -0.324960 0.035667
0.394511 0.070423 0.493249 0.019267 -0.768912 -0.639065
0.230633 0.041660 0.545733 -0.192594 -0.126487 0.973092
0.341428 0.064398 0.754384 -0.217294 -0.957451 0.189925
0.382568 0.053458 0.525701 -0.004796 -0.995062 -0.099136
0.417528 0.140570 0.319478 0.899382 0.418878 -0.125111
0.381050 0.280397 0.303328 -0.547437 -0.836516 -0.023546
0.466205 0.062860 0.726413 0.080230 -0.400069 0.912967
0.402410 0.074142 0.797777 0.112252 -0.879529 0.462415
0.555936 0.279183 0.618322 0.005846 -0.845509 -0.533929
0.449951 0.116756 0.777861 0.894222 0.335728 0.296062
0.400989 0.105915 0.454771 0.064901 -0.903016 -0.424677
0.280672 0.098198 0.523104 -0.867675 -0.277393 -0.412544
0.418857 0.139052 0.326812 0.937861 0.318695 -0.137293
0.397482 0.197219 0.521920 0.069674 0.840338 -0.537567
0.375727 0.276702 0.842725 0.277870 -0.960512 0.014352
0.296100 0.166269 0.638181 -0.914719 0.237215 0.327136
0.387013 0.116812 0.218408 0.072418 -0.996120 -0.050005
0.307686 0.066499 0.722599 -0.076177 0.994344 0.074014
0.340262 0.217535 0.564977 -0.251337 0.900112 -0.355849
0.384618 0.115467 0.265446 0.029377 -0.998179 -0.052685
0.456817 0.058814 0.530596 0.159504 -0.984052 -0.078747
0.508745 0.080564 0.580626 0.993566 0.105214 -0.041904
0.377268 0.195027 0.726200 -0.065753 0.841022 0.536990
0.412363 0.130096 0.249179 0.979430 -0.194215 -0.054756
0.294588 0.182007 0.541193 -0.559322 0.654646 -0.508524
0.354652 0.066499 0.542100 -0.012898 0.971697 0.235878
0.414549 0.152431 0.372678 0.478966 0.870979 -0.109490
0.372033 0.283201 0.522492 -0.436240 -0.899822 -0.003708
0.096305 0.283361 0.610397 -0.007055 0.968362 -0.249450
0.400917 0.161349 0.432921 0.162963 0.982077 -0.094697
0.365915 0.159021 0.390450 -0.171928 0.981601 -0.083071
0.373473 0.280047 0.622132 0.044407 -0.977049 0.208333
0.232085 0.026405 0.507405 0.523535 -0.850962 -0.042125
0.393262 0.113764 0.347752 0.118297 -0.991976 -0.044605
0.390682 0.284662 0.667896 0.167879 0.984951 -0.041080
0.393986 0.280745 0.562602 0.901227 0.433326 -0.004213
0.385953 0.285099 0.719483 0.006925 0.999964 -0.004999
0.295532 0.172866 0.621370 -0.887293 0.292525 0.356568
0.364175 0.116026 0.319800 -0.257321 -0.965558 -0.038513
0.389198 0.057359 0.750556 0.029898 -0.971028 0.237087
0.480196 0.075037 0.699337 0.414123 -0.906160 0.085888
0.370981 0.277611 0.712115 -0.985851 -0.167607 0.002304
0.354905 0.283034 0.606295 0.001665 0.532101 -0.846679
0.440772 0.205793 0.656292 0.613795 0.754266 0.233107
0.382314 0.279533 0.937082 0.467375 -0.883702 0.025126
0.417479 0.086835 0.479336 0.085470 -0.752763 -0.652719
0.405298 0.110729 0.439763 0.094202 -0.964909 -0.245104
0.244049 0.051155 0.721690 0.350074 -0.917110 0.190676
0.529463 0.050821 0.720404 -0.303224 -0.844156 -0.442104
0.480087 0.178107 0.541339 0.594975 0.607093 -0.526728
0.237049 0.037728 0.561188 0.803715 0.594973 -0.007101
0.339992 0.162861 0.468160 -0.335069 0.895120 -0.294089
0.408519 0.068814 0.778917 0.126173 -0.942671 0.308952
0.481533 0.066841 0.598902 0.273590 -0.955130 0.113466
0.541408 0.282558 0.609074 0.007772 -0.841507 -0.540190
0.262321 0.113700 0.570331 -0.991705 -0.005199 -0.128428
0.392245 0.275860 0.509746 0.028981 -0.999543 0.008615
0.332430 0.195734 0.694122 -0.572019 0.727907 0.378081
0.139872 0.282821 0.625281 -0.014214 -0.740835 0.671537
0.679014 0.280722 0.614835 0.020760 -0.810351 -0.585577
0.467529 0.088028 0.762800 0.593240 0.780138 0.198625
0.465815 0.145333 0.491801 0.713703 0.478226 -0.511789
0.367024 0.172268 0.755786 -0.139724 0.772911 0.618939
0.332468 0.203630 0.677042 -0.563137 0.764901 0.312734
0.462525 0.151637 0.688955 0.946227 0.239347 0.217640
0.412358 0.128360 0.262508 0.942317 -0.328131 -0.066095
0.301755 0.207514 0.589030 -0.540418 0.841396 0.000916
0.395449 0.053401 0.612472 0.063264 -0.997987 0.004320
0.485144 0.170937 0.538526 0.661050 0.542782 -0.518073
0.484303 0.073936 0.631840 0.355528 -0.927513 0.115408
0.545228 0.041451 0.629215 0.111656 0.993729 -0.006008
0.487742 0.093645 0.682718 0.638450 0.751411 0.166623
0.276449 0.083398 0.716082 -0.947682 0.076871 0.309823
0.524787 0.055979 0.540484 -0.202754 -0.963362 -0.175570
0.381197 0.155254 0.300970 -0.139162 0.989969 0.024394
0.377445 0.087093 0.477627 -0.013594 -0.761772 -0.647703
0.408078 0.094523 0.827716 0.212690 0.003783 0.977112
0.312492 0.065684 0.661776 -0.274820 -0.959253 0.065637
0.437904 0.075863 0.786356 0.193954 -0.936435 0.292354
0.739174 0.277207 0.628977 0.001828 -0.221800 0.975090
0.446187 0.077393 0.786598 0.216068 -0.935240 0.280430
0.225483 0.027302 0.723621 -0.722769 -0.690839 0.018612
0.454992 0.159148 0.708704 0.837619 0.435422 0.329853
0.359557 0.054433 0.664963 -0.145286 -0.988770 0.035015
0.577952 0.284917 0.613020 0.008142 0.966146 -0.257866
0.392533 0.275868 0.266939 0.211831 -0.977194 -0.014822
0.486213 0.066499 0.719348 0.075485 0.933522 -0.350483
0.304101 0.163262 0.509690 -0.581356 0.641695 -0.500253
0.222030 0.034271 0.651696 -0.994173 0.107738 0.003410
0.334170 0.134990 0.384590 -0.981076 0.001580 -0.193616
0.287362 0.072363 0.536756 -0.681546 -0.631168 -0.370300
0.369817 0.162140 0.435263 -0.102685 0.991028 -0.085555
0.381399 0.285029 0.539695 0.104924 0.994447 0.008150
0.374524 0.280014 0.619718 0.058058 -0.982542 0.176752
0.493062 0.173264 0.584117 0.877822 0.434172 0.202294
0.308103 0.121068 0.470757 -0.806071 -0.228542 -0.545910
0.386837 0.150236 0.092083 0.120496 0.504926 -0.854711
0.442926 0.062014 0.718071 -0.115094 -0.562830 -0.818521
0.381643 0.155906 0.312039 -0.129958 0.991064 0.030055
0.379292 0.111276 0.430591 -0.015891 -0.998568 -0.051077
0.372181 0.055721 0.518445 -0.030105 -0.966828 -0.253649
0.277451 0.072860 0.616430 -0.336091 -0.917433 0.212977
0.460291 0.115464 0.475294 0.786546 -0.209831 -0.580789
0.221671 0.032234 0.596733 -0.981535 -0.190818 -0.013296
0.457594 0.134347 0.718973 0.947532 0.230413 0.221568
0.292224 0.151627 0.627012 -0.914275 0.235658 0.329494
0.327077 0.124469 0.432647 -0.740416 -0.603722 -0.295473
0.401053 0.120874 0.182983 0.389815 -0.920358 -0.031405
0.283155 0.069331 0.547476 -0.649657 -0.680369 -0.339181
0.265416 0.097839 0.612282 -0.917740 0.156908 0.364875
0.431035 0.225518 0.098462 0.340587 -0.023233 0.939926
0.315416 0.172764 0.510729 -0.456562 0.730481 -0.507886
0.364158 0.151707 0.293865 -0.343264 0.936509 -0.071559
0.451027 0.060006 0.600566 0.182900 -0.982319 0.039949
0.404447 0.155763 0.363302 0.291165 0.953048 -0.083199
0.387732 0.277371 0.534828 -0.394848 -0.918742 0.003024
0.386917 0.231373 0.612657 0.015044 0.999763 -0.015742
0.224233 0.028351 0.689934 -0.811991 -0.583611 0.008355
0.475144 0.061925 0.725573 0.021138 -0.699451 0.714367
0.319559 0.178147 0.701665 -0.744869 0.563020 0.358020
0.418919 0.056915 0.683084 0.185166 -0.981353 0.051579
0.468893 0.282630 0.626023 0.000985 0.942861 0.333186
0.388032 0.222086 0.560614 0.014745 0.919696 -0.392353
0.338516 0.110393 0.452339 -0.201378 -0.889930 -0.409232
0.260662 0.114827 0.580269 -0.999261 0.024574 -0.029563
0.350628 0.054993 0.590952 -0.115021 -0.993267 -0.013778
0.290192 0.073309 0.665415 -0.373349 -0.924726 0.074107
0.269695 0.071330 0.591919 -0.407308 -0.912913 0.026251
0.496556 0.081046 0.723463 0.696150 -0.686885 0.208718
0.347866 0.118106 0.387147 -0.418669 -0.904106 -0.085490
0.452096 0.098475 0.784756 0.897132 0.335315 0.287608
0.233489 0.040715 0.686966 0.558952 0.829188 0.004423
0.365323 0.085201 0.479940 -0.048113 -0.760741 -0.647269
0.449960 0.204952 0.620374 0.650231 0.695419 0.305929
0.391538 0.275949 0.410658 -0.172546 -0.984956 -0.009462
0.283237 0.278056 0.613939 0.001140 -0.904734 0.425975
0.398925 0.118851 0.228655 0.351508 -0.935697 -0.030224
0.446439 0.057695 0.536339 0.139289 -0.987853 -0.068886
0.392495 0.284982 0.782401 0.704661 0.709176 -0.022873
0.431432 0.134632 0.786147 0.424186 0.672532 0.606438
0.219446 0.285022 0.622578 -0.002763 0.963454 0.267859
0.496914 0.111651 0.531242 0.902619 -0.075621 -0.423747
0.320805 0.200320 0.544177 -0.346270 0.785092 -0.513545
0.370585 0.279827 0.627799 -0.637127 -0.769921 -0.035931
0.381917 0.052775 0.644253 0.004548 -0.999892 0.013961
0.231490 0.026188 0.732228 0.013674 -0.999411 0.031491
0.394644 0.071460 0.792960 0.088716 -0.893780 0.439643
0.338309 0.056329 0.526945 -0.133460 -0.986765 -0.092101
0.424941 0.084966 0.481845 0.114713 -0.745802 -0.656217
0.405000 0.150393 0.306121 0.466580 0.881686 -0.070238
0.283048 0.075454 0.652071 -0.397784 -0.914406 0.075026
0.400545 0.170242 0.474008 0.105959 0.940004 -0.324292
0.476113 0.066499 0.541384 0.115766 0.972228 0.203396
0.281828 0.147377 0.616688 -0.501205 0.131587 0.855265
0.384048 0.279122 0.321905 -0.447312 -0.894105 -0.022091
0.323315 0.069921 0.760890 -0.270286 -0.944702 0.185699
0.489401 0.091299 0.687799 0.617926 0.767686 0.169783
0.376984 0.113438 0.349964 -0.060227 -0.996700 -0.054428
