0.149490 0.460181 0.212997 -0.383756 0.756907 0.528983
0.489498 0.423405 0.203902 -0.015295 0.997521 -0.068683
0.397965 0.458236 0.122909 0.194516 0.889835 -0.412744
0.074793 0.064097 0.334826 0.026744 -0.023519 -0.999366
0.308662 0.444385 0.272424 -0.157580 0.468503 0.869295
0.116472 0.416332 0.217426 -0.660299 0.183950 0.728127
0.805335 0.409339 0.263877 0.056025 0.905700 0.420201
0.185718 0.328271 0.171018 -0.746479 -0.092005 0.659018
0.340703 0.475516 0.191077 0.133156 0.990922 0.018544
0.529353 0.397934 0.172441 0.229913 -0.119220 0.965881
0.226245 0.415240 0.287195 0.967330 0.134683 -0.214784
0.136179 0.360745 0.228059 -0.525139 -0.445836 0.724886
0.189638 0.198472 0.334775 0.008169 -0.007184 -0.999941
0.758152 0.410186 0.245065 0.010247 0.799908 -0.600036
0.510922 0.378043 0.238755 0.387169 -0.392082 0.834489
0.388590 0.443390 0.097297 0.000000 -0.881920 -0.471398
0.150217 0.461206 0.155767 0.162917 -0.286746 0.944052
0.317484 0.387093 0.283416 -0.987402 -0.146560 0.059638
0.241909 0.380869 0.082839 -0.078224 -0.077259 -0.993938
0.234754 0.315293 0.121958 -0.053645 -0.927790 -0.369226
0.422089 0.364906 0.179946 -0.837661 -0.085305 -0.539488
0.080402 0.376295 0.144218 0.944928 -0.070279 -0.319643
0.596259 0.632899 0.337367 0.453480 -0.398795 0.797069
0.278287 0.437180 0.110129 -0.930450 -0.364706 -0.035397
0.373566 0.383211 0.180002 0.914491 -0.030030 -0.403491
0.117113 0.425075 0.112992 -0.395021 0.182158 -0.900432
0.187589 0.368471 0.243319 0.912036 0.071474 -0.403833
0.571239 0.384821 0.249904 -0.479063 -0.678742 -0.556605
0.249286 0.465153 0.254240 0.186837 0.679834 0.709167
0.229465 0.434431 0.275142 -0.282824 0.455371 0.844185
0.575202 0.418622 0.267036 -0.033376 0.780268 0.624554
0.727618 0.412958 0.249622 0.049148 0.974162 -0.220440
0.913921 0.398321 0.334129 -0.295869 0.938243 0.179337
0.521336 0.406601 0.271856 0.175657 0.880827 0.439646
0.393833 0.382818 0.162792 0.000000 0.910172 -0.414230
0.279928 0.352566 0.157264 -0.739810 -0.153360 -0.655105
0.632145 0.415633 0.249733 0.042266 0.974727 -0.219363
0.425025 0.399422 0.191751 -0.454926 -0.016430 0.890378
0.352518 0.323624 0.224810 0.132196 -0.956261 0.260937
0.434169 0.333839 0.174700 0.212070 -0.976491 -0.038630
0.525537 0.410528 0.158289 0.295041 0.703771 -0.646264
0.334041 0.424568 0.086647 0.085741 0.182129 -0.979529
0.289642 0.457556 0.262195 0.011901 0.790211 0.612720
0.224142 0.396054 0.116617 0.673856 -0.016008 -0.738689
0.530613 0.374191 0.212813 0.163971 -0.977268 0.134387
0.278752 0.445498 0.088950 0.031933 0.411192 -0.910989
0.158396 0.371170 0.125833 -0.534673 -0.087648 -0.840501
0.600544 0.149333 0.336107 -0.623034 -0.547902 0.558240
0.178721 0.380695 0.109544 -0.232844 -0.060313 -0.970642
0.197579 0.368421 0.262724 -0.473578 -0.202131 0.857244
0.543885 0.358047 0.185377 0.302950 -0.952557 0.029268
0.277845 0.483150 0.192623 0.072188 0.996036 0.051980
0.224187 0.486588 0.201243 -0.074063 0.987086 0.142040
0.151733 0.471186 0.139204 -0.227667 0.957256 -0.178404
0.353360 0.322517 0.029342 -0.033334 -0.026200 0.999101
0.140886 0.422042 0.237393 -0.529653 0.264678 0.805862
0.464117 0.400384 0.262566 0.377498 0.113002 0.919090
0.402230 0.446956 0.339272 -0.090030 0.079173 0.992787
0.648492 0.732116 0.335714 -0.328542 0.288923 -0.899213
0.648989 0.096426 0.337819 -0.344497 -0.302954 -0.888561
0.143710 0.448282 0.222930 -0.451168 0.597442 0.662955
0.213394 0.482762 0.151676 -0.115044 0.986347 -0.117834
0.339818 0.318216 0.197960 0.126371 -0.988557 0.082371
0.282020 0.378722 0.143241 -0.752093 -0.034775 -0.658139
0.331081 0.316727 0.195343 0.120112 -0.990395 0.068486
0.443712 0.426185 0.198163 0.853540 0.092940 0.512671
0.373520 0.359860 0.248521 0.878201 -0.115687 0.464090
0.215722 0.473288 0.228873 -0.206604 0.875281 0.437262
0.118831 0.459699 0.179971 -0.489179 0.829988 0.268000
0.520587 0.397328 0.236328 -0.060414 0.067448 -0.995892
0.225150 0.460156 0.197057 -0.518514 0.658533 -0.545415
0.439687 0.417825 0.298709 0.103000 0.856138 0.506379
0.169134 0.385345 0.121124 0.198419 -0.155182 -0.967754
0.341707 0.367008 0.283918 -0.187188 -0.980370 -0.061933
0.253509 0.442313 0.094804 0.519958 0.799968 0.299490
0.715282 0.412081 0.264241 0.034396 0.901552 0.431302
0.528395 0.408299 0.268309 0.153394 0.964015 0.217130
0.896176 0.392629 0.273689 0.007004 -0.999411 -0.033597
0.388237 0.434836 0.273064 0.222454 0.640039 0.735435
0.144506 0.449357 0.222361 -0.445104 0.612195 0.653529
0.225565 0.469294 0.138760 0.710475 0.443215 -0.546613
0.106923 0.378577 0.152135 -0.186969 -0.116617 -0.975420
0.330104 0.360764 0.275743 0.119175 -0.328692 0.936888
0.614177 0.097786 0.336962 0.620400 0.545586 0.563418
0.309521 0.337176 0.334810 -0.014596 0.012836 -0.999811
0.853681 0.383223 0.254984 0.064351 -0.997304 0.035269
0.181783 0.628053 0.336416 -0.358563 -0.315324 0.878637
0.226773 0.450257 0.143505 0.438928 0.815013 0.378280
0.272737 0.344794 0.089802 0.882491 -0.461173 0.092350
0.502497 0.410946 0.236390 -0.070109 0.248861 -0.965998
0.585532 0.404475 0.256746 -0.070699 0.714487 -0.696067
0.368296 0.301144 0.034601 -0.037746 -0.029098 -0.998864
0.529302 0.381938 0.244854 0.278656 -0.951532 0.130142
0.318437 0.478998 0.215902 0.082760 0.984654 0.153649
0.140162 0.440617 0.210692 -0.938774 0.087487 0.333242
0.174004 0.378207 0.262604 0.233327 -0.224769 0.946064
0.223968 0.310155 0.154058 0.405833 -0.830611 -0.381293
0.454065 0.417628 0.275345 -0.150598 0.244536 0.957874
0.211383 0.395754 0.084982 -0.175924 0.001967 -0.984402
0.117107 0.404362 0.111836 -0.384366 0.063484 -0.920995
0.338039 0.358574 0.339299 0.081173 -0.071384 0.994140
0.265093 0.370735 0.132430 -0.074902 0.897108 -0.435416
0.389623 0.351667 0.265987 0.203760 -0.726292 0.656492
0.218596 0.460625 0.189508 -0.629978 0.574766 -0.522276
0.138898 0.391389 0.136687 -0.698126 -0.007730 -0.715933
0.426849 0.365659 0.177186 -0.328864 -0.071334 -0.941679
0.165331 0.434225 0.239701 -0.564046 0.256072 0.785035
0.243810 0.475437 0.172804 0.742784 0.473194 -0.473666
0.667602 0.404039 0.240085 -0.040422 0.171198 -0.984407
0.218267 0.332856 0.199876 -0.550075 -0.795897 0.252915
0.478958 0.390163 0.277823 -0.085540 -0.289191 0.953442
0.572370 0.377623 0.269939 -0.007934 -0.733248 0.679915
0.252205 0.548376 0.337727 -0.697876 -0.613719 -0.369214
0.184734 0.470256 0.216068 -0.265652 0.872501 0.410087
0.530529 0.412682 0.266653 -0.137768 0.930230 -0.340136
0.640690 0.378477 0.264141 0.038416 -0.902221 0.429559
0.577296 0.387150 0.256774 -0.508088 -0.600732 -0.617225
0.176453 0.346854 0.100646 -0.230689 -0.389185 -0.891806
0.323730 0.383112 0.308110 -0.907005 -0.287704 0.307518
0.186177 0.422637 0.111022 -0.174155 0.138995 -0.974859
0.420054 0.403107 0.278865 0.314492 0.137062 0.939313
0.234560 0.550462 0.334870 -0.049933 -0.043912 0.997787
0.470470 0.411440 0.257396 0.368694 0.342305 0.864229
0.223806 0.453589 0.262272 -0.107641 0.560344 0.821236
0.274034 0.417271 0.182844 -0.746416 0.064379 -0.662359
0.335375 0.371384 0.086523 0.094982 -0.183332 -0.978452
0.215893 0.472177 0.240016 -0.263556 0.810961 0.522380
0.476021 0.494084 0.031791 0.110498 -0.078809 0.990747
0.678408 0.759136 0.339342 -0.040862 0.035935 0.998518
0.923120 0.392675 0.185239 0.276304 -0.959392 -0.056767
0.554617 0.360911 0.181163 0.310779 -0.949478 -0.043680
0.193554 0.341071 0.245671 -0.346051 -0.652214 0.674438
0.581219 0.614538 0.337214 0.538548 -0.473604 0.696897
0.555878 0.164384 0.337448 0.620052 0.545280 -0.564098
0.271016 0.380886 0.224415 -0.226638 -0.085145 0.970250
0.578683 0.139608 0.338105 0.490881 0.431686 -0.756758
0.523445 0.375349 0.254843 -0.466358 0.872033 -0.148555
0.185180 0.418902 0.093096 -0.217505 0.126827 -0.967784
0.325013 0.464930 0.245295 0.089178 0.902635 0.421067
0.411682 0.386706 0.192070 -0.111074 0.960790 -0.254059
0.187557 0.170159 0.337611 0.745549 -0.655643 -0.119532
0.138045 0.352012 0.199903 -0.979854 -0.081295 0.182421
0.161862 0.396001 0.142103 0.524696 -0.023179 0.850974
0.358126 0.320283 0.182886 0.146464 -0.989208 -0.004095
0.353017 0.343078 0.164798 0.569544 -0.379459 -0.729130
0.176819 0.429181 0.138902 0.697501 -0.102562 0.709206
0.589402 0.411610 0.180110 0.211609 -0.977339 -0.005480
0.119845 0.470576 0.029604 -0.076593 0.001408 -0.997061
0.910349 0.392385 0.185997 -0.066408 -0.962743 -0.262137
0.142442 0.441773 0.144406 -0.785862 0.169465 -0.594728
0.139815 0.349322 0.207335 -0.941205 -0.157581 0.298833
0.443712 0.451802 0.195274 0.956636 0.181288 0.227997
0.418494 0.331297 0.162735 0.200053 -0.976031 -0.085689
0.658293 0.744901 0.337546 -0.622074 0.547058 0.560135
0.718246 0.385455 0.241833 -0.089064 -0.396958 -0.913505
0.559277 0.398900 0.172670 0.204502 -0.173636 0.963343
0.278546 0.357364 0.282573 -0.070788 -0.545657 0.835013
0.146082 0.146222 0.339379 0.041465 -0.036464 0.998474
0.135631 0.428876 0.188557 0.631735 -0.194084 -0.750495
0.320042 0.421416 0.260930 -0.299307 0.951880 0.065880
0.857536 0.384327 0.247694 0.004771 -0.958781 -0.284106
0.421934 0.436143 0.336646 0.658042 -0.578689 -0.481767
0.321925 0.317182 0.148236 0.119441 -0.986037 -0.116039
0.203138 0.468589 0.231226 -0.248586 0.833664 0.493163
0.463300 0.409215 0.234125 -0.274332 0.188486 -0.942982
0.462118 0.415581 0.276326 0.713865 0.590165 0.376963
0.146819 0.338389 0.215167 -0.653348 -0.489111 0.577847
0.307262 0.421180 0.084811 0.050656 0.160100 -0.985800
0.906960 0.400381 0.288437 0.001583 0.999920 0.012569
0.346334 0.380853 0.293404 0.084278 -0.268234 0.959660
0.378102 0.324240 0.165089 0.164716 -0.983712 -0.071973
0.216382 0.200353 0.336895 0.521548 -0.458655 -0.719460
0.218702 0.365823 0.274185 -0.406238 -0.218566 0.887243
0.216208 0.374120 0.111842 0.195572 -0.121799 -0.973096
0.160289 0.342276 0.227234 -0.527957 -0.498825 0.687339
0.399790 0.379897 0.157031 0.000000 0.891908 -0.452218
0.494561 0.401993 0.274707 -0.305814 0.632385 0.711735
0.376293 0.370101 0.265726 -0.051396 -0.947310 -0.316169
0.364986 0.377785 0.255317 -0.114583 -0.551465 -0.826291
0.312839 0.415890 0.233195 -0.701404 0.509637 0.498300
0.279045 0.370817 0.257331 -0.524764 -0.157130 0.836620
0.780623 0.396941 0.272666 0.019242 0.005822 0.999798
0.485257 0.382606 0.276145 -0.073596 -0.464069 0.882736
0.311909 0.414230 0.084394 0.055019 0.113310 -0.992035
0.098085 0.427915 0.123684 -0.525208 0.293782 -0.798654
0.281166 0.465352 0.244548 -0.415170 0.639741 0.646812
0.365295 0.445274 0.170225 0.758024 0.206114 -0.618803
0.222084 0.361859 0.276796 0.991782 -0.106148 -0.071415
0.637710 0.720737 0.336214 -0.428886 0.377167 -0.820854
0.555954 0.172341 0.339316 0.055236 0.048575 -0.997291
0.344521 0.385812 0.150172 0.512065 -0.045464 -0.857743
0.677539 0.733635 0.338379 0.240457 -0.211460 0.947346
0.153460 0.333970 0.194275 0.556585 0.444184 -0.702078
0.155472 0.435041 0.130886 -0.573934 0.208843 -0.791823
0.332051 0.318669 0.145059 0.128799 -0.983362 -0.128103
0.936434 0.400314 0.325170 0.001134 0.999992 0.003804
0.150076 0.425607 0.101903 -0.272372 0.179147 -0.945367
0.459309 0.404952 0.174684 0.182611 -0.757412 0.626881
0.198512 0.395352 0.272633 -0.428001 -0.029215 0.903306
0.423299 0.421181 0.177186 -0.612274 0.008890 -0.790595
0.693844 0.034384 0.335029 -0.179455 -0.157814 0.971026
0.596350 0.133148 0.339401 -0.012961 -0.011398 -0.999851
0.450950 0.455914 0.176662 0.218949 0.975410 -0.025240
0.537452 0.376094 0.209241 0.165747 -0.976241 0.139580
0.343760 0.418166 0.311320 -0.501966 0.657078 0.562386
0.105344 0.423019 0.204475 -0.704657 0.254049 0.662509
0.114020 0.448160 0.166472 -0.321579 0.759298 -0.565733
0.852692 0.399425 0.261631 0.146737 0.974594 0.169219
0.474100 0.419535 0.273792 -0.135919 0.369251 0.919337
0.195779 0.413121 0.253211 0.897385 0.064648 -0.436487
0.253368 0.260559 0.339276 0.110909 -0.097534 0.989033
0.073406 0.402685 0.161937 -0.851044 0.066963 0.520807
0.481234 0.350964 0.138608 0.323994 -0.826849 -0.459727
0.067834 0.046824 0.339170 0.172724 -0.151895 0.973188
0.154132 0.456251 0.196085 0.446507 -0.447704 -0.774721
0.443712 0.370603 0.180410 0.927775 0.010264 -0.373000
0.149740 0.451045 0.194642 0.531367 -0.354253 -0.769515
0.528917 0.355082 0.177585 0.290268 -0.955682 -0.049162
0.156512 0.393717 0.212640 0.779143 0.021088 -0.626492
0.470453 0.408740 0.233237 -0.310729 0.159612 -0.937001
0.422089 0.459867 0.183118 -0.982262 0.095152 -0.161578
0.588176 0.413604 0.197148 0.340288 -0.739785 -0.580450
0.166524 0.390793 0.096304 -0.243293 -0.015081 -0.969836
0.323343 0.339858 0.265054 0.036780 -0.634916 0.771705
0.154272 0.395523 0.121421 -0.069543 -0.016421 -0.997444
0.402993 0.449805 0.111930 0.215274 0.736749 -0.640982
0.458576 0.290145 0.339397 -0.018750 -0.016488 -0.999688
0.736460 0.381960 0.264583 0.055505 -0.867224 0.494815
0.257350 0.520858 0.334820 -0.029294 -0.025762 0.999239
0.121626 0.444620 0.216014 -0.554707 0.627269 0.546657
0.325584 0.446318 0.273663 0.053357 0.723009 0.688775
0.324568 0.448094 0.339321 -0.064967 -0.057133 -0.996251
0.602678 0.392238 0.251659 0.191711 -0.917307 0.348991
0.503745 0.259430 0.336110 -0.475287 -0.417972 0.774211
0.448095 0.353492 0.243302 0.274793 -0.763018 0.585057
0.681946 0.409698 0.242304 -0.008837 0.551170 -0.834346
0.101826 0.098325 0.334779 0.007370 -0.006481 -0.999952
0.342390 0.317712 0.191113 0.131989 -0.990716 0.032557
0.137062 0.439637 0.233195 -0.456068 0.558133 0.693173
0.436184 0.427719 0.261357 0.305552 0.582642 0.753105
0.238216 0.305832 0.028235 -0.005088 -0.008692 0.999949
0.286045 0.343318 0.267557 -0.568252 -0.431491 0.700646
0.240019 0.481734 0.174594 0.623041 0.678037 -0.389982
0.226633 0.483145 0.141785 -0.071423 0.984037 -0.163002
0.367674 0.416172 0.326680 -0.150161 0.787735 0.597432
0.294964 0.340799 0.266011 -0.421955 -0.530312 0.735338
0.266805 0.524915 0.338562 -0.257759 -0.226676 -0.939244
0.414138 0.462590 0.162845 0.191464 0.978344 -0.078642
0.195699 0.371327 0.266887 -0.414120 -0.312399 0.854934
0.354838 0.462708 0.241701 0.148163 0.908676 0.390328
0.425222 0.453084 0.191751 -0.202474 0.042371 0.978371
0.565517 0.422452 0.260837 -0.115335 0.935181 0.334864
0.334251 0.410327 0.085364 0.084318 0.088435 -0.992507
0.160608 0.364455 0.237527 -0.602014 -0.229952 0.764657
0.277689 0.390499 0.294974 -0.107625 -0.105151 0.988615
0.266091 0.355214 0.228705 0.244151 -0.258944 0.934526
0.281616 0.393876 0.270709 -0.673180 -0.027756 0.738958
0.171744 0.365501 0.250810 -0.453020 -0.384505 0.804318
0.252901 0.370593 0.166721 0.847019 -0.062163 -0.527915
0.191166 0.336141 0.223186 -0.136480 -0.977499 0.160839
0.086807 0.417809 0.156778 -0.038604 0.240386 -0.969909
0.700248 0.405447 0.240814 -0.041169 0.279804 -0.959174
0.433809 0.492084 0.033093 0.075805 -0.054881 0.995611
0.277145 0.435711 0.282859 -0.064879 0.530170 0.845405
0.224887 0.439488 0.270969 -0.295965 0.506901 0.809603
0.378275 0.465770 0.223081 0.172661 0.952301 0.251618
0.150850 0.136974 0.338653 0.303164 -0.266605 0.914884
0.371922 0.392342 0.261160 0.871185 0.005396 0.490926
0.378643 0.435079 0.220411 0.959414 0.086133 0.268525
0.278947 0.455037 0.166619 -0.696102 0.303515 -0.650631
0.422089 0.404278 0.190334 -0.780258 0.002982 0.625450
0.322398 0.400496 0.305978 -0.940754 -0.068189 0.332164
0.466949 0.371995 0.253924 0.326317 -0.934383 0.142987
0.884630 0.370284 0.255335 -0.393252 -0.919350 0.012212
0.443197 0.411598 0.234655 -0.098867 0.262097 -0.959964
0.128431 0.667087 0.334815 -0.023516 -0.020680 0.999510
0.248259 0.312707 0.220350 -0.040776 -0.954658 0.294900
0.450853 0.386365 0.236476 -0.024844 -0.073479 -0.996987
0.403828 0.351551 0.104132 0.233622 -0.553560 -0.799370
0.194615 0.409260 0.090035 -0.202685 0.075017 -0.976366
0.159456 0.345488 0.206437 0.741541 0.243179 -0.625284
0.930677 0.395394 0.193303 0.934940 -0.354660 0.010209
0.209321 0.428343 0.270823 -0.373022 0.369089 0.851251
0.278892 0.372850 0.158953 -0.760726 -0.052233 -0.646968
0.305068 0.420103 0.292225 -0.031586 0.365882 0.930125
0.111131 0.451245 0.180038 -0.432270 0.901744 0.000616
0.296256 0.495946 0.338012 -0.471495 -0.414637 -0.778311
0.355752 0.406859 0.087579 0.133386 0.076864 -0.988079
0.133873 0.395667 0.143442 -0.644072 -0.003021 -0.764959
0.273265 0.427226 0.288114 -0.090120 0.421370 0.902400
0.350104 0.307136 0.034924 -0.032556 -0.025323 -0.999149
0.235823 0.483331 0.171395 0.540876 0.769577 -0.339419
0.354100 0.413255 0.272658 0.500949 0.130356 0.855604
0.140915 0.409721 0.195460 0.699104 -0.050417 -0.713240
0.703798 0.387274 0.240924 -0.080842 -0.263914 -0.961152
0.266565 0.456254 0.203076 -0.378289 0.391498 -0.838825
0.081978 0.387995 0.131448 -0.622277 -0.026962 -0.782333
0.322424 0.405116 0.304995 -0.929453 -0.017952 0.368503
0.365066 0.392626 0.334811 0.014075 0.012378 0.999824
0.489958 0.370863 0.245932 -0.142371 -0.858383 -0.492858
0.197786 0.473821 0.216477 -0.228239 0.898091 0.375951
0.574049 0.406799 0.221308 -0.237209 -0.876588 -0.418719
0.139111 0.459361 0.183144 0.266363 -0.606796 -0.748899
0.399722 0.344989 0.108471 0.224201 -0.684084 -0.694091
0.469298 0.360381 0.263722 -0.174244 -0.957338 0.230527
0.227503 0.300034 0.028166 -0.005243 -0.008880 0.999947
0.244493 0.439025 0.157576 0.841657 0.113007 -0.528056
0.208784 0.457090 0.153844 -0.367437 0.870905 0.326365
0.314543 0.363062 0.279191 -0.084950 -0.306251 0.948153
0.194362 0.415024 0.110529 -0.082406 0.086290 -0.992856
0.135633 0.352431 0.222983 -0.504637 -0.540761 0.672992
0.321722 0.422459 0.291592 0.007878 0.419052 0.907928
0.501931 0.403794 0.236121 -0.069534 0.169503 -0.983074
0.389212 0.458264 0.237813 0.198463 0.900772 0.386292
0.178768 0.429502 0.111601 -0.252784 0.187100 -0.949260
0.268685 0.332743 0.209476 -0.749188 -0.354283 -0.559644
0.607294 0.405743 0.239313 -0.018864 0.180065 -0.983474
0.203336 0.436884 0.129924 0.892459 0.450504 0.023721
0.244133 0.263868 0.334838 -0.027619 0.024288 -0.999323
0.132961 0.460517 0.127825 -0.318483 0.837212 -0.444573
0.207849 0.412035 0.270881 -0.430749 0.097765 0.897161
0.749559 0.410589 0.264931 0.043945 0.878926 0.474929
0.200880 0.456861 0.225107 0.340815 0.883169 -0.322271
0.223493 0.487620 0.174614 0.002886 0.997774 -0.066629
0.504158 0.423037 0.180396 0.073109 0.991591 -0.106779
0.102209 0.490422 0.032603 -0.227944 0.008059 0.973641
0.138637 0.375829 0.206716 -0.978508 -0.042270 0.201828
0.527828 0.365405 0.255679 -0.094449 -0.990574 -0.099211
0.509160 0.418570 0.235950 0.373662 0.544962 0.750595
0.517782 0.400173 0.144646 0.236713 0.083317 -0.968001
0.375677 0.407773 0.192129 0.937754 0.003633 -0.347282
0.395040 0.385590 0.285819 0.255930 -0.207043 0.944263
0.167058 0.461761 0.221121 -0.347990 0.764100 0.543189
0.240073 0.306271 0.191954 0.299700 -0.949147 -0.096438
0.283732 0.319519 0.028451 -0.009098 -0.010678 0.999902
0.338241 0.381538 0.146407 0.444731 -0.070905 -0.892853
0.088065 0.436898 0.167687 -0.767492 0.544949 0.337620
0.270135 0.405795 0.081592 0.005938 0.061974 -0.998060
0.262729 0.321718 0.038953 0.619679 0.655872 -0.431079
0.287652 0.426585 0.135504 -0.688575 0.122893 -0.714676
0.353706 0.422117 0.335145 -0.152004 -0.133674 0.979299
0.219996 0.327195 0.250389 -0.331685 -0.696472 0.636326
0.302143 0.314265 0.028460 -0.013994 -0.013312 0.999813
0.228962 0.422960 0.285269 0.953891 0.162835 -0.252144
0.471442 0.389411 0.303658 0.993189 0.048572 -0.105911
0.478238 0.372029 0.269317 -0.285335 -0.955528 0.074493
0.550114 0.588969 0.335785 0.360080 -0.316658 -0.877537
0.219341 0.411100 0.285130 0.980521 0.147318 -0.129911
0.168637 0.395238 0.247386 -0.582579 -0.022535 0.812462
0.118127 0.382253 0.229116 -0.673741 -0.108175 0.731007
0.568210 0.379736 0.215075 0.428136 -0.391877 0.814329
0.443386 0.411845 0.236021 0.005432 0.305049 -0.952321
0.222453 0.340674 0.147476 0.306345 -0.508192 0.804918
0.351590 0.416019 0.334852 -0.045380 -0.039908 0.998172
0.203589 0.435895 0.263500 -0.369011 0.455417 0.810202
0.141322 0.442033 0.139815 -0.431322 0.554858 -0.711402
0.419839 0.404940 0.169871 -0.510940 -0.011475 -0.859540
0.374846 0.323132 0.176988 0.160953 -0.986542 -0.028785
0.500922 0.410260 0.270696 0.245427 0.841231 0.481764
0.342839 0.446530 0.265137 0.275642 0.538299 0.796402
0.486760 0.379998 0.235984 -0.069305 -0.068600 -0.995234
0.440129 0.423920 0.265821 0.003688 0.997801 -0.066181
0.331178 0.459320 0.255724 0.087888 0.858528 0.505178
0.129650 0.397690 0.147648 -0.491154 0.003194 -0.871067
0.605206 0.377722 0.244165 -0.028896 -0.747385 -0.663763
0.804001 0.393088 0.271556 0.031810 -0.313848 0.948940
0.269393 0.363895 0.132551 0.123514 -0.891643 0.435565
0.201240 0.494066 0.035766 -0.002552 -0.006163 0.999978
0.488716 0.446386 0.158491 0.270131 0.946761 -0.175139
0.095323 0.397632 0.206282 -0.790576 -0.006676 0.612327
0.655178 0.412487 0.244167 0.016901 0.753555 -0.657167
0.178420 0.330979 0.111121 -0.216482 -0.711326 -0.668693
0.304842 0.344286 0.268922 -0.264261 -0.535296 0.802262
0.573095 0.378909 0.164393 0.482790 -0.418491 -0.769272
0.269338 0.369116 0.205314 -0.791751 -0.050901 -0.608720
0.505573 0.423205 0.185928 0.084936 0.991226 -0.101279
0.095230 0.373329 0.155200 -0.129709 -0.194399 -0.972309
0.664125 0.743540 0.339321 -0.057199 0.050301 0.997095
0.191892 0.323142 0.115797 -0.177281 -0.829104 -0.530243
0.443817 0.454928 0.145465 0.226992 0.952791 -0.201653
0.306964 0.363172 0.286312 -0.024097 -0.494705 0.868727
0.160780 0.352401 0.127127 -0.480306 -0.230042 -0.846396
0.422967 0.394856 0.315826 0.253288 -0.084127 0.963726
0.586704 0.383615 0.273577 -0.002898 -0.527586 0.849497
0.282190 0.313296 0.213734 0.054114 -0.975509 0.213201
0.414584 0.335581 0.198696 -0.899148 -0.100430 0.425966
0.611117 0.396017 0.238852 -0.017315 0.011160 -0.999788
0.468134 0.395430 0.278467 -0.098002 -0.190182 0.976845
0.310696 0.396380 0.211790 0.968216 0.106473 0.226320
0.225290 0.350490 0.134769 0.655615 -0.337963 0.675240
0.427663 0.462421 0.177186 -0.182991 0.095923 -0.978424
0.260650 0.360842 0.112802 -0.114846 0.896689 -0.427503
0.347288 0.319745 0.226955 0.120483 -0.957400 0.262429
0.242945 0.309098 0.198078 -0.038972 -0.989918 0.136176
0.367457 0.420098 0.260654 -0.069515 0.825022 -0.560808
0.161074 0.459142 0.153846 0.263123 -0.116278 0.957729
0.475287 0.407297 0.174110 -0.693733 0.337047 -0.636501
0.340537 0.473113 0.229330 0.153324 0.943091 0.295079
0.278100 0.460034 0.240551 -0.442092 0.545747 0.711839
0.160566 0.327205 0.214747 -0.408328 -0.737791 0.537524
0.192649 0.366335 0.262553 -0.412634 -0.370362 0.832205
0.453869 0.363931 0.112181 0.361127 -0.375049 -0.853771
0.268213 0.377187 0.158669 -0.053114 -0.884086 0.464297
0.168841 0.476853 0.028452 -0.010798 -0.004605 -0.999931
0.354496 0.318258 0.212496 0.144180 -0.984964 0.095171
0.581131 0.374235 0.264603 -0.003222 -0.911595 0.411077
0.514256 0.422565 0.191074 0.125312 0.986083 -0.109259
0.274519 0.468508 0.192212 -0.544474 0.606711 -0.579179
0.682081 0.736219 0.338065 0.297376 -0.261516 0.918247
0.312123 0.475318 0.335865 -0.278025 -0.244498 0.928936
0.487092 0.408688 0.250950 0.384915 0.307921 0.870072
0.511760 0.373099 0.252470 -0.598307 0.641739 -0.479791
0.410502 0.459673 0.136293 0.199984 0.942232 -0.268711
0.478506 0.402493 0.201678 -0.213380 -0.607577 -0.765062
0.531399 0.591213 0.339357 -0.029580 0.026013 0.999224
0.151188 0.353827 0.239748 -0.094023 -0.723062 0.684354
0.119709 0.426415 0.153685 -0.303987 0.233985 -0.923495
0.156337 0.361617 0.100764 -0.257553 -0.161853 -0.952612
0.730052 0.380285 0.248849 0.016849 -0.973430 -0.228363
0.266192 0.422573 0.229562 -0.133192 0.116326 0.984240
0.513377 0.351314 0.180205 0.275718 -0.960793 -0.029276
0.566357 0.384420 0.252375 -0.421213 -0.748399 -0.512326
0.107562 0.316069 0.033231 0.107703 0.003088 -0.994178
0.784060 0.390176 0.270880 0.040875 -0.483088 0.874617
0.415402 0.441970 0.169871 -0.646387 0.079595 -0.758847
0.216225 0.403518 0.277124 0.948277 0.070351 -0.309550
0.248914 0.482387 0.210462 -0.014608 0.978145 0.207412
0.208998 0.479316 0.211531 -0.181109 0.938012 0.295523
0.344061 0.470833 0.223951 0.131322 0.960850 0.243972
0.394752 0.426084 0.277687 0.249080 0.520511 0.816717
0.688427 0.389624 0.273318 0.024578 -0.411819 0.910934
0.525470 0.414149 0.255975 0.135602 0.990048 0.037656
0.305097 0.477934 0.148832 0.105132 0.985449 -0.133553
0.466342 0.381931 0.276495 -0.087190 -0.460511 0.883362
0.452147 0.432672 0.250575 0.305935 0.674781 0.671621
0.169526 0.481153 0.162717 -0.213208 0.973503 -0.082672
0.556642 0.417032 0.156977 0.464862 0.231436 -0.854600
0.329541 0.381420 0.084983 0.078609 -0.113063 -0.990473
0.280378 0.348738 0.256897 -0.496019 -0.359965 0.790184
0.331136 0.393439 0.280643 0.163440 -0.010678 0.986495
0.297029 0.329560 0.150144 -0.324286 -0.531611 -0.782450
0.257726 0.445493 0.087704 -0.006212 0.381992 -0.924145
0.558607 0.617304 0.339406 0.011862 -0.010431 0.999875
0.168764 0.400358 0.225871 0.819572 0.015624 -0.572764
0.465059 0.414653 0.271001 0.456458 0.766678 0.451498
0.396666 0.354703 0.339351 0.028947 0.025457 -0.999257
0.456004 0.372993 0.236145 -0.107328 -0.138692 -0.984503
0.196743 0.405928 0.109967 -0.048534 0.035852 -0.998178
0.471962 0.376122 0.116743 0.384623 -0.197759 -0.901641
0.379896 0.324538 0.164731 0.166215 -0.983344 -0.073530
0.720623 0.403946 0.272249 0.018404 0.415894 0.909227
0.211737 0.401467 0.273478 -0.423450 0.034109 0.905277
0.296812 0.397536 0.133398 -0.455189 0.020007 -0.890170
0.441620 0.370410 0.237723 -0.100796 -0.291540 -0.951233
0.469445 0.394007 0.278291 -0.095670 -0.227079 0.969166
0.510989 0.369701 0.186071 0.151741 -0.987614 0.039917
0.389711 0.375710 0.093798 0.202328 -0.160667 -0.966048
0.465739 0.428306 0.240087 -0.042695 0.809438 -0.585651
0.170177 0.453573 0.149021 0.515004 -0.077296 0.853696
0.425720 0.442333 0.177186 -0.393428 0.067456 -0.916877
0.214886 0.468827 0.107703 -0.140219 0.772229 -0.619678
0.910376 0.397851 0.333918 -0.416111 0.878067 0.236327
0.161187 0.470773 0.207696 -0.341247 0.820808 0.458066
0.635438 0.378406 0.264333 0.037335 -0.898194 0.438011
0.414584 0.350935 0.189448 -0.991170 -0.119068 0.058356
0.293622 0.429954 0.136020 -0.548063 0.167791 -0.819435
0.178492 0.381812 0.236152 0.892759 0.056256 -0.447010
0.339142 0.318174 0.173194 0.131408 -0.990870 -0.030155
0.251366 0.483968 0.158151 0.022112 0.995582 -0.091255
0.360649 0.472446 0.190353 0.319110 0.883671 -0.342482
0.453119 0.409572 0.236703 0.068703 0.285765 -0.955834
0.304131 0.423722 0.134930 -0.234382 0.157094 -0.959368
0.087774 0.435769 0.165305 -0.472630 0.782829 -0.404723
0.205075 0.384974 0.120011 0.968944 -0.181349 0.168110
0.866685 0.397075 0.285540 -0.995822 0.082158 -0.039843
0.503541 0.389136 0.277385 0.274293 -0.599503 0.751904
0.270768 0.426473 0.137646 -0.131944 -0.891253 -0.433888
0.493016 0.533206 0.339278 0.078501 -0.069034 0.994521
0.204476 0.440564 0.247266 0.863373 0.155691 -0.479945
0.156019 0.405531 0.237041 -0.643329 0.020627 0.765312
0.395348 0.466927 0.182630 0.175721 0.984435 -0.003181
0.415059 0.401651 0.316437 0.267124 0.228409 0.936202
0.237504 0.450450 0.091077 -0.082724 0.454304 -0.886998
0.468233 0.384824 0.295131 0.982234 -0.187486 0.008142
0.276337 0.412539 0.082477 0.014043 0.103030 -0.994579
0.124594 0.667790 0.339426 -0.015714 -0.013819 -0.999781
0.415744 0.453682 0.234936 0.225204 0.889167 0.398329
0.151286 0.371850 0.123503 -0.131549 -0.269848 -0.953875
0.198597 0.318662 0.123434 -0.159327 -0.909872 -0.383077
0.540557 0.391722 0.147572 0.453875 -0.109665 -0.884291
0.423975 0.333061 0.149403 0.206196 -0.968660 -0.138493
0.902932 0.403460 0.216110 0.071746 0.991388 -0.109551
0.414584 0.409288 0.196982 -0.728701 0.013389 0.684701
0.178250 0.334317 0.155117 -0.020516 -0.975866 0.217406
0.944484 0.393124 0.357206 -0.063791 -0.996675 0.050691
0.165558 0.361997 0.252174 0.092733 -0.592754 0.800027
0.689925 0.737284 0.337108 0.472638 -0.415642 0.777081
0.940070 0.393029 0.310400 0.074608 -0.995872 -0.051703
0.399060 0.340808 0.079936 0.000000 -0.891907 0.452219
0.191652 0.350974 0.094978 -0.205514 -0.305811 -0.929647
0.293267 0.477897 0.166592 -0.359338 0.822425 -0.441013
0.345354 0.378806 0.276031 0.328000 -0.112627 0.937940
0.220022 0.363677 0.274535 -0.401107 -0.236688 0.884925
0.365723 0.462622 0.237544 0.163196 0.917671 0.362280
0.455541 0.356866 0.116488 0.349674 -0.556308 -0.753823
0.350238 0.433496 0.338142 -0.350677 -0.308389 -0.884264
0.441501 0.368759 0.272531 0.022187 -0.999635 0.015386
0.456940 0.452424 0.146995 0.245936 0.945909 -0.211594
0.269251 0.310625 0.205596 0.049287 -0.986487 0.156251
0.265686 0.484408 0.174539 0.064660 0.997594 -0.025018
0.190443 0.483502 0.157275 -0.145824 0.971533 -0.186704
0.324155 0.411153 0.254042 0.820934 0.262857 -0.506926
0.893392 0.373949 0.236191 0.442466 0.896079 -0.035592
0.424457 0.381700 0.169871 -0.284585 -0.065262 -0.956427
0.079735 0.416962 0.151123 0.931385 0.187988 -0.311740
0.085090 0.702336 0.335548 0.342279 0.301004 0.890080
0.479788 0.377629 0.120286 0.392804 -0.190135 -0.899752
0.395806 0.448393 0.087430 0.000000 -0.891907 -0.452219
0.548664 0.371999 0.266511 -0.037433 -0.873199 0.485924
0.137990 0.322941 0.167513 -0.290437 -0.956793 -0.013940
0.244373 0.386646 0.082243 -0.069834 -0.046664 -0.996467
0.408566 0.396881 0.284614 0.294126 0.013775 0.955667
0.206947 0.378455 0.087346 -0.181560 -0.087279 -0.979499
0.326520 0.363337 0.286580 0.016217 -0.501110 0.865232
0.198165 0.429908 0.249452 0.884884 0.094722 -0.456079
0.275486 0.364373 0.286981 -0.089513 -0.459655 0.883575
0.288177 0.384422 0.082643 0.028356 -0.068592 -0.997242
0.270507 0.361521 0.114271 0.283342 0.836999 -0.468135
0.410430 0.386032 0.315096 0.276911 -0.483152 0.830593
0.250708 0.355942 0.268188 0.373366 -0.257590 0.891205
0.299897 0.465715 0.249076 0.047469 0.879204 0.474074
0.207543 0.308975 0.035733 -0.000305 -0.006847 -0.999977
0.125075 0.396585 0.150434 -0.368789 -0.001490 -0.929512
0.141136 0.477682 0.035006 -0.028557 -0.002197 0.999590
0.963695 0.400204 0.363734 0.012998 0.999905 -0.004667
0.247684 0.308523 0.165621 0.002755 -0.998669 -0.051510
0.383620 0.374446 0.339409 -0.015429 -0.013568 -0.999789
0.177467 0.161976 0.338012 0.650726 -0.572255 0.499079
0.374810 0.367519 0.242626 0.912684 -0.061549 0.404005
0.918156 0.400382 0.290784 -0.002191 0.999985 0.004992
0.522301 0.372927 0.229236 0.150677 -0.971254 0.184288
0.272308 0.401210 0.230531 -0.523312 -0.003223 0.852135
0.154252 0.331197 0.189330 -0.141571 -0.979566 0.142859
0.641823 0.400348 0.275504 0.004830 0.148541 0.988894
0.436065 0.404527 0.277563 -0.172341 0.030422 0.984567
0.333087 0.473910 0.212312 0.121098 0.979211 0.162728
0.563800 0.386115 0.260969 -0.148298 -0.730812 -0.666275
0.504702 0.429770 0.251136 -0.048017 0.998836 0.004566
0.191528 0.470920 0.028368 -0.004005 -0.005772 -0.999975
0.391457 0.355635 0.270443 0.212728 -0.676905 0.704660
0.212069 0.336138 0.096473 -0.161071 -0.533188 -0.830522
0.278367 0.386128 0.160811 -0.767976 -0.011612 -0.640373
0.164230 0.429331 0.125984 0.131408 0.454351 -0.881077
0.945725 0.398012 0.374305 -0.204492 0.940285 0.272114
0.160379 0.422361 0.123840 0.037730 0.294301 -0.954968
0.161474 0.324605 0.174181 -0.728514 0.681039 0.073846
0.184022 0.477208 0.144966 -0.168852 0.974129 -0.150205
0.282007 0.482339 0.175506 0.080562 0.996387 -0.026889
0.277010 0.515349 0.338314 -0.341177 -0.300034 -0.890830
0.585221 0.381079 0.170438 0.684096 -0.597302 -0.418619
0.274061 0.441528 0.185275 -0.720347 0.179054 -0.670104
0.372629 0.417776 0.175002 0.889347 0.029964 -0.456249
0.496808 0.439654 0.144428 0.340728 0.790724 -0.508586
0.308257 0.390808 0.133144 -0.080648 -0.014946 -0.996631
0.321727 0.353968 0.088949 0.083989 -0.352096 -0.932188
0.429676 0.387041 0.278305 -0.115862 -0.336512 0.934524
0.322260 0.405021 0.304335 -0.931055 -0.024696 0.364043
0.281748 0.343755 0.151394 -0.714764 -0.226001 -0.661843
0.644582 0.105652 0.337306 -0.434029 -0.381689 -0.816047
0.885485 0.396788 0.252875 0.460917 0.576922 0.674327
0.315956 0.441171 0.274465 -0.018202 0.452838 0.891407
0.298442 0.392101 0.203659 -0.592954 0.441024 -0.673724
0.115017 0.317659 0.034040 0.073199 0.001101 -0.997317
0.129104 0.326850 0.163096 -0.354315 -0.934599 -0.031383
0.422089 0.424004 0.191481 -0.613007 0.015556 0.789924
0.172894 0.442623 0.242058 -0.505189 0.371642 0.778888
0.232639 0.338823 0.092752 -0.098970 -0.493640 -0.864017
0.197004 0.461272 0.185631 -0.465736 0.788413 -0.401865
0.519999 0.392112 0.147393 0.258827 -0.289677 -0.921464
0.525244 0.218855 0.334856 -0.068131 -0.059915 0.995876
0.436345 0.402372 0.177186 0.683130 0.029434 -0.729704
0.267822 0.481547 0.213175 0.045638 0.976478 0.210732
0.492541 0.424549 0.269914 -0.129023 0.583155 0.802049
0.283084 0.412077 0.276706 -0.683237 0.048592 0.728578
0.543242 0.412492 0.262958 -0.044839 0.845521 -0.532056
0.227540 0.471233 0.143378 0.714129 0.458380 -0.529062
0.420569 0.357390 0.240621 -0.277951 -0.468246 -0.838742
0.387962 0.484830 0.029908 0.063431 -0.046216 -0.996916
0.443712 0.356523 0.196551 0.591333 -0.140086 0.794167
0.510522 0.423854 0.207505 0.126905 0.988729 -0.079437
0.287902 0.346762 0.140510 -0.635232 -0.233124 -0.736297
0.255315 0.334069 0.059113 0.056289 0.888613 -0.455191
0.331424 0.371425 0.307410 -0.686266 -0.661752 0.301865
0.149037 0.125844 0.336643 0.392277 -0.344973 -0.852709
0.327660 0.461727 0.252744 0.085155 0.874713 0.477102
0.341428 0.328988 0.249429 0.149633 -0.798550 0.583034
0.425941 0.346539 0.244190 0.239508 -0.822586 0.515740
0.332819 0.473822 0.028814 0.022438 -0.018686 -0.999574
0.357265 0.470483 0.214469 0.150370 0.971885 0.181187
0.111900 0.450973 0.175307 -0.385329 0.904915 -0.180692
0.253115 0.327090 0.251517 -0.076145 -0.831342 0.550520
0.197209 0.418970 0.253837 0.898665 0.060834 -0.434397
0.161929 0.329575 0.159108 -0.246425 0.364159 0.898144
0.860122 0.383587 0.257987 0.075040 -0.981805 0.174438
0.286865 0.411751 0.082961 0.025961 0.100555 -0.994593
0.883730 0.395127 0.253320 0.505234 -0.327137 0.798574
0.491939 0.354327 0.222862 0.289548 -0.836774 0.464727
0.698449 0.410924 0.267324 0.036421 0.799578 0.599456
0.318736 0.389803 0.236625 0.913124 0.109683 -0.392651
0.181411 0.417075 0.260367 -0.451370 0.223651 0.863855
0.476511 0.349090 0.219695 0.269881 -0.877159 0.397187
0.318221 0.380841 0.283368 -0.008024 -0.115716 0.993250
0.872777 0.399434 0.287882 -0.232151 0.971308 -0.051649
0.252550 0.405738 0.165319 0.847667 0.009852 -0.530438
0.668534 0.384654 0.241344 -0.051769 -0.380871 -0.923178
0.538751 0.402945 0.271300 -0.156045 0.865963 -0.475140
0.283996 0.420373 0.143020 -0.802463 -0.574225 -0.162232
0.096611 0.417589 0.122431 -0.518241 0.144062 -0.843014
0.490034 0.393342 0.123645 0.399099 -0.062643 -0.914766
0.358751 0.450337 0.100211 0.154321 0.638132 -0.754302
0.262048 0.331183 0.067362 0.374180 -0.849568 0.371785
0.123434 0.336706 0.184054 -0.395669 -0.918351 0.008805
0.303805 0.321590 0.158337 -0.086105 -0.745010 -0.661473
0.374494 0.406195 0.185239 0.922089 0.002654 -0.386969
0.422089 0.375484 0.184808 -0.986132 -0.029944 -0.163237
0.289265 0.478420 0.028429 0.010950 -0.011597 -0.999873
0.442532 0.369792 0.271831 -0.197715 -0.806866 0.556665
0.283700 0.357924 0.138310 -0.731529 -0.131199 -0.669068
0.249199 0.342401 0.085478 -0.926389 -0.224985 0.301968
0.260280 0.403654 0.174418 0.797878 0.007799 -0.602769
0.284864 0.387054 0.082267 0.023862 -0.052801 -0.998320
0.388944 0.398016 0.337472 0.648182 -0.570017 0.504917
0.441793 0.385913 0.190860 -0.030208 0.985680 -0.165900
0.528043 0.397247 0.141278 0.438374 -0.053099 -0.897223
0.539738 0.357569 0.178446 0.299197 -0.952882 -0.049979
0.105431 0.436190 0.208095 -0.673092 0.470430 0.570651
0.298372 0.455501 0.095550 0.068099 0.607104 -0.791699
0.376066 0.354006 0.196223 0.934517 -0.091530 -0.343949
0.320086 0.303768 0.028431 -0.023809 -0.019154 0.999533
0.227819 0.485504 0.180756 -0.078329 0.996869 0.010795
0.452234 0.445430 0.232180 0.263064 0.848661 0.458882
0.074105 0.409401 0.161358 -0.849522 0.188068 0.492892
0.414584 0.338332 0.185513 -0.974297 -0.202700 -0.098272
0.167657 0.428028 0.118073 -0.405212 0.168432 -0.898573
0.699389 0.413085 0.263267 0.030910 0.928392 0.370314
0.380726 0.320055 0.034009 -0.127469 -0.092889 -0.987483
0.246734 0.308332 0.168815 -0.001147 -0.999262 -0.038406
0.204993 0.308277 0.197579 -0.158491 -0.974631 0.158036
0.273775 0.311182 0.205627 0.053589 -0.986343 0.155742
0.284471 0.315396 0.028423 -0.009596 -0.010834 0.999895
0.212661 0.360193 0.113746 0.156655 -0.220106 -0.962815
0.183052 0.334334 0.213417 0.695406 0.031215 -0.717939
0.229284 0.309121 0.197004 -0.094451 -0.985414 0.141559
0.306152 0.476985 0.229086 -0.019144 0.948712 0.315561
0.517044 0.404207 0.239226 0.412141 0.254090 0.874973
0.281711 0.496399 0.339327 -0.065849 -0.057908 -0.996148
0.421147 0.462485 0.188887 0.193833 0.980768 0.022871
0.623800 0.111908 0.334926 -0.135149 -0.118851 0.983671
0.577589 0.395149 0.164676 0.490907 -0.105124 -0.864847
0.240833 0.261239 0.339348 -0.026313 0.023140 0.999386
0.220202 0.392665 0.283334 -0.378905 -0.055206 0.923787
0.904235 0.402663 0.249228 0.131386 0.982236 0.133976
0.535375 0.395438 0.242901 0.592804 -0.593199 0.544700
0.253385 0.384681 0.081874 -0.035442 -0.058210 -0.997675
0.393896 0.407038 0.337885 0.423796 -0.372690 0.825530
0.392796 0.351498 0.101973 0.217561 -0.528675 -0.820469
0.214701 0.463119 0.101343 -0.151531 0.659100 -0.736632
0.602586 0.640289 0.337391 0.437547 -0.384783 0.812708
0.295647 0.323094 0.246919 -0.253241 -0.801557 0.541641
0.408991 0.454104 0.238406 0.220294 0.884396 0.411477
0.433205 0.340307 0.177186 0.456008 -0.050524 -0.888541
0.350762 0.402988 0.196919 -0.397664 -0.803343 -0.443287
0.195663 0.344594 0.244203 0.561960 -0.813658 0.148868
0.406914 0.341405 0.246023 0.215212 -0.853879 0.473893
0.264554 0.484677 0.193069 0.057303 0.996334 0.063524
0.564396 0.416712 0.241312 -0.006165 0.654234 -0.756267
0.465682 0.369815 0.242474 0.226873 -0.972547 0.051782
0.157705 0.409570 0.238297 -0.633516 0.043993 0.772478
0.207510 0.367087 0.273472 0.966426 -0.179271 0.184074
0.216173 0.405396 0.280519 -0.387561 0.097729 0.916649
0.198274 0.452759 0.237438 0.587010 0.775536 -0.232300
0.223707 0.489946 0.028178 0.003652 -0.008013 -0.999961
0.166227 0.184146 0.335955 -0.450589 0.396253 -0.799971
0.196390 0.384704 0.255611 0.947247 0.046210 -0.317157
0.557555 0.411264 0.238686 -0.037824 0.349853 -0.936041
0.438088 0.328533 0.183215 0.818663 -0.555180 0.146856
0.490049 0.350077 0.148506 0.304255 -0.899007 -0.314985
0.187881 0.467453 0.230069 -0.329237 0.749725 0.574034
0.236415 0.437220 0.142569 0.830971 0.114013 -0.544507
0.550641 0.376579 0.239661 -0.059460 -0.371228 -0.926636
0.300475 0.441474 0.278949 -0.006050 0.632382 0.774633
0.205068 0.410546 0.269551 -0.441714 0.083679 0.893245
0.175090 0.359308 0.249198 -0.433566 -0.454499 0.778107
0.469261 0.386744 0.275801 -0.229888 -0.316150 0.920435
0.161633 0.380103 0.142958 0.500765 -0.009046 0.865536
0.184250 0.603142 0.334809 -0.022373 -0.019675 0.999556
0.306891 0.456189 0.262374 0.039757 0.800391 0.598159
0.408162 0.463459 0.156310 0.187514 0.976650 -0.104848
0.261011 0.456701 0.264459 -0.054535 0.745748 0.663992
0.163295 0.467150 0.180104 -0.578330 -0.662625 -0.475881
0.116751 0.350795 0.160538 -0.329690 -0.534205 -0.778415
0.681563 0.764690 0.339268 -0.111693 0.098224 0.988877
0.511699 0.442096 0.177031 0.273527 0.959269 -0.070607
0.366611 0.395162 0.337513 -0.378440 -0.066789 0.923213
0.381470 0.332172 0.234597 0.168084 -0.922433 0.347656
0.145761 0.370134 0.102725 -0.274632 -0.115910 -0.954538
0.810498 0.387602 0.268560 0.054592 -0.646029 0.761358
0.137132 0.416367 0.199507 -0.998511 -0.053542 -0.010455
0.378162 0.407480 0.333459 0.313414 0.497118 0.809101
0.260758 0.355205 0.180006 0.754377 -0.137555 -0.641868
0.203879 0.217807 0.339377 -0.011169 0.009823 0.999889
0.436653 0.420680 0.177644 0.719269 0.045318 -0.693252
0.077996 0.389314 0.158981 -0.969230 -0.016620 0.245597
0.212832 0.490970 0.028151 0.002323 -0.007454 -0.999970
0.396954 0.335454 0.235873 0.193117 -0.907056 0.374107
0.567196 0.182065 0.335475 -0.249810 -0.219685 0.943045
0.451161 0.473885 0.338095 0.319150 -0.280664 0.905191
0.345276 0.373903 0.261119 0.083212 -0.673744 -0.734264
0.106805 0.335872 0.162694 -0.504984 -0.863122 0.003424
0.592039 0.658831 0.334820 -0.012594 0.011075 -0.999859
0.379641 0.380535 0.288100 0.207872 -0.296193 0.932233
0.123139 0.464055 0.167371 -0.408527 0.911277 0.051766
0.151852 0.145338 0.339279 0.121637 -0.106969 0.986794
0.219666 0.478878 0.035695 0.002911 -0.007760 0.999966
0.161442 0.410316 0.142353 0.602316 -0.044901 0.796994
0.170958 0.434508 0.252353 0.211019 0.729640 0.650459
0.205822 0.443117 0.260763 -0.399281 0.415211 0.817419
0.269789 0.389021 0.294467 -0.122845 -0.121796 0.984924
0.526795 0.356253 0.204112 0.302120 -0.888367 0.345729
0.218039 0.459798 0.169062 -0.718132 0.581447 -0.382369
0.263482 0.412889 0.187583 0.269240 0.050816 -0.961731
0.234918 0.416419 0.083676 -0.105235 0.119036 -0.987297
0.465762 0.267727 0.336249 0.460326 0.404815 0.790079
0.197887 0.411778 0.129898 0.863934 -0.071058 0.498567
0.255821 0.397732 0.168400 0.841647 -0.003178 -0.540019
0.219165 0.414350 0.120774 0.989164 -0.013000 0.146238
0.180692 0.456869 0.209479 0.539497 -0.018217 -0.841790
0.351629 0.475010 0.213462 0.154455 0.983098 0.098292
0.617393 0.121406 0.335040 -0.166507 -0.146428 0.975107
0.480105 0.439488 0.227815 0.285589 0.835452 0.469530
0.393790 0.390750 0.199485 -0.337712 0.667067 -0.664057
0.270347 0.417440 0.291853 -0.109392 0.283620 0.952677
0.204009 0.366387 0.124265 0.880968 -0.433101 0.190576
0.249392 0.310173 0.137940 0.010852 -0.985509 -0.169278
0.140563 0.413427 0.103529 -0.288024 0.114183 -0.950791
0.165871 0.361886 0.126281 0.128746 -0.579383 -0.804822
0.164197 0.446247 0.126159 -0.437541 0.333178 -0.835195
0.229198 0.401139 0.285695 -0.328547 0.046312 0.943352
0.249731 0.337585 0.067500 -0.325399 0.869017 -0.372726
0.416485 0.398307 0.316924 0.273413 0.074597 0.959000
0.169931 0.619757 0.339378 -0.039467 -0.034707 -0.998618
0.405337 0.377257 0.337360 -0.680477 -0.598418 -0.422904
0.693438 0.386844 0.240921 -0.072769 -0.277217 -0.958048
0.417774 0.370015 0.257723 -0.031703 -0.968443 -0.247209
0.417250 0.340804 0.120967 0.247149 -0.824584 -0.508899
0.222177 0.571180 0.335084 -0.123899 -0.108958 0.986295
0.536887 0.417253 0.216984 0.153677 0.976475 -0.151260
0.244711 0.327422 0.048245 -0.491790 0.813031 -0.311645
0.277486 0.293336 0.334843 0.039698 -0.034910 -0.998602
0.273115 0.308495 0.028344 -0.010721 -0.011670 0.999874
0.309331 0.378325 0.282041 -0.202636 -0.145191 0.968431
0.456466 0.350797 0.123324 0.327886 -0.722901 -0.608198
0.434527 0.373591 0.177186 0.569751 0.004865 -0.821803
0.155921 0.371272 0.252441 -0.151437 -0.372710 0.915507
0.528817 0.387396 0.174437 0.272975 0.606690 0.746601
0.270857 0.347908 0.090436 0.604560 0.667418 -0.434810
0.883962 0.374168 0.312993 -0.415390 0.906748 0.072517
0.697919 0.401424 0.240272 -0.056583 0.138526 -0.988741
0.876771 0.388187 0.243501 -0.141630 -0.596591 -0.789949
0.544743 0.375882 0.151802 0.457252 -0.370707 -0.808391
0.345076 0.399427 0.150536 0.516218 0.000445 -0.856457
0.276022 0.358832 0.118301 0.603198 -0.746109 0.281911
0.232318 0.484503 0.169535 0.449687 0.842819 -0.295699
0.428050 0.394809 0.199000 -0.097399 -0.068575 0.992880
0.239587 0.480073 0.129449 -0.027126 0.958473 -0.283889
0.259895 0.317758 0.202923 0.598161 -0.770150 -0.221520
0.188207 0.368578 0.257485 -0.500910 -0.202426 0.841495
0.389212 0.315445 0.030055 -0.057406 -0.042177 0.997460
0.496859 0.348290 0.199244 0.266314 -0.949205 0.167590
0.296632 0.453175 0.143921 -0.440625 0.406604 -0.800327
0.512962 0.252290 0.337675 -0.401524 -0.353104 -0.845042
0.455235 0.486263 0.032505 0.135578 -0.096962 0.986011
0.507785 0.409406 0.141636 0.069725 0.435191 -0.897634
0.455689 0.372528 0.109649 0.365882 -0.217551 -0.904877
0.325555 0.379698 0.259021 0.706217 -0.167335 -0.687936
0.578234 0.630519 0.334909 0.116212 -0.102198 -0.987953
0.463334 0.392662 0.172236 0.362554 0.133119 0.922407
0.585033 0.416720 0.203134 0.488137 0.837743 0.244765
0.216631 0.217263 0.339255 0.132019 -0.116099 0.984425
0.162810 0.448166 0.231572 -0.527407 0.425025 0.735660
0.471188 0.389031 0.277845 -0.089694 -0.306884 0.947511
0.232287 0.252194 0.334887 -0.053125 0.046719 -0.997494
0.392873 0.400283 0.336988 0.743809 -0.654113 -0.137420
0.308206 0.478851 0.174127 0.106690 0.993440 -0.041160
0.268947 0.352580 0.207518 -0.785428 -0.121297 -0.606951
0.205785 0.348421 0.260022 -0.425412 -0.416700 0.803359
0.528512 0.427422 0.258291 -0.206562 0.942927 0.261191
0.089511 0.080712 0.339363 0.061664 -0.054228 0.996623
0.249831 0.416442 0.272286 0.328515 0.133057 0.935080
0.082740 0.426497 0.135124 -0.709166 0.419422 -0.566718
0.345080 0.472533 0.180403 0.263875 0.864594 -0.427606
0.472994 0.367694 0.247876 0.338283 -0.552885 0.761501
0.643750 0.405006 0.273854 0.009102 0.387822 0.921689
0.214300 0.331615 0.172167 -0.455016 -0.695282 0.556366
0.686122 0.383022 0.242636 -0.040867 -0.581539 -0.812491
0.250030 0.400398 0.081465 -0.049567 0.028260 -0.998371
0.523212 0.372061 0.142799 0.434648 -0.397453 -0.808154
0.224095 0.368875 0.118186 0.665383 -0.120232 -0.736756
0.425258 0.328533 0.178518 -0.684059 -0.601504 -0.412621
0.914359 0.391894 0.195801 0.119121 -0.991974 -0.042394
0.744355 0.408270 0.268359 0.036408 0.722771 0.690128
0.414119 0.364563 0.337690 -0.498326 -0.438233 -0.748080
0.080684 0.079783 0.339334 -0.029599 0.026030 0.999223
0.202671 0.428957 0.264850 -0.436141 0.246105 0.865571
0.453412 0.369738 0.280612 0.038648 -0.979487 0.197765
0.277400 0.316711 0.210651 -0.097932 -0.970064 0.222229
0.163112 0.326497 0.215505 -0.395672 -0.748769 0.531779
0.102742 0.487093 0.032673 -0.201471 0.007020 0.979469
0.523396 0.570563 0.339316 0.051776 -0.045532 0.997620
0.149514 0.316614 0.169304 -0.292995 -0.952278 -0.085562
0.627471 0.376859 0.254782 0.030398 -0.998352 -0.048678
0.341590 0.454796 0.259511 0.235557 0.660774 0.712665
0.276330 0.342520 0.237675 -0.259277 -0.460460 0.848971
0.445181 0.482181 0.334868 0.067587 -0.059437 -0.995941
0.479202 0.422275 0.244858 0.210393 0.968392 0.133981
0.489071 0.402462 0.172856 0.246289 -0.372874 0.894599
0.383318 0.362595 0.277396 0.199537 -0.582024 0.788310
0.255292 0.479343 0.223573 0.486712 0.856263 0.172985
0.902828 0.393805 0.247336 0.170116 -0.978664 -0.115230
0.479491 0.449084 0.168391 0.248909 0.964441 -0.088866
0.149094 0.392727 0.146490 0.439619 0.002825 0.898180
0.401895 0.433324 0.099264 0.220031 0.359223 -0.906943
0.176747 0.346103 0.116410 -0.230483 -0.334967 -0.913605
0.422089 0.418210 0.178361 -0.740238 0.001151 -0.672344
0.929637 0.392710 0.305751 0.011753 -0.999879 -0.010152
0.419511 0.391572 0.240506 -0.184955 -0.091769 -0.978453
0.140075 0.437413 0.211117 -0.944015 0.072026 0.321945
0.208120 0.342283 0.094708 -0.173040 -0.438979 -0.881677
0.303990 0.409594 0.208007 -0.331455 -0.919555 0.211083
0.589770 0.411017 0.240176 -0.017113 0.427221 -0.903985
0.162509 0.332095 0.159357 -0.081181 -0.995505 0.048778
0.337525 0.430504 0.339360 -0.037877 -0.033309 -0.998727
0.391352 0.440261 0.103467 0.000000 -0.055350 0.998467
0.249783 0.338576 0.069780 -0.359073 0.860334 -0.361789
0.727763 0.407417 0.269760 0.031136 0.654363 0.755539
0.166225 0.143933 0.337371 0.652258 -0.573602 -0.495520
0.287405 0.424293 0.278337 -0.623948 0.135406 0.769645
0.193381 0.430629 0.258993 -0.464108 0.255741 0.848057
