0.133747 0.246687 0.032140 0.000000 -1.000000 0.000000
0.146831 0.108031 0.587336 0.989334 0.127827 0.069844
0.144863 0.154099 0.466915 0.984998 0.114917 -0.128737
0.117718 0.093090 0.830159 -0.636927 -0.694356 0.334954
0.188551 0.095806 0.720906 0.350769 0.935516 0.042073
0.142598 0.246687 0.311103 0.000000 -1.000000 0.000000
0.145106 0.143844 0.396792 0.903408 0.428278 -0.020776
0.099588 0.089328 0.419802 -0.914220 -0.396528 -0.083465
0.120171 0.154034 0.897990 -0.320864 -0.216446 0.922062
0.101572 0.104284 0.609158 -0.996842 0.057871 0.054384
0.100068 0.085699 0.396998 -0.982704 -0.181240 -0.038000
0.142182 0.074712 0.596476 0.829176 -0.553417 0.078718
0.129814 0.131759 0.862400 0.819448 -0.146003 0.554246
0.123324 0.150715 0.922856 0.114111 -0.456171 0.882545
0.127494 0.120810 0.764871 0.348847 0.937056 0.015251
0.145913 0.246687 0.340026 0.000000 1.000000 0.000000
0.091193 0.069575 0.349929 -0.881313 0.081070 0.465527
0.112929 0.115830 0.765796 -0.957779 0.286851 0.019380
0.078271 0.063750 0.462154 0.181618 -0.790837 0.584459
0.144108 0.152890 0.361935 0.922065 0.384886 -0.040741
0.102036 0.070947 0.333131 -0.921012 -0.380428 -0.083736
0.137869 0.246687 0.213449 0.000000 -1.000000 0.000000
0.127138 0.171327 0.911758 0.564382 -0.055836 0.823623
0.146476 0.131790 0.270352 0.969367 0.232369 -0.079581
0.098730 0.102736 0.566848 -0.998295 0.030409 0.049824
0.196171 0.103397 0.434094 0.386715 0.879600 0.277048
0.098944 0.095003 0.536697 -0.993970 -0.101255 0.042088
0.137465 0.169020 0.485879 0.697598 0.693402 0.180420
0.152792 0.094782 0.705513 0.969417 0.243801 0.028157
0.099197 0.114707 0.352889 -0.999188 0.039814 -0.006242
0.100756 0.116257 0.568804 -0.896257 0.440600 0.050940
0.115981 0.174728 0.382380 -0.546420 0.791896 -0.272626
0.149115 0.097919 0.247289 0.989301 -0.142394 -0.031754
0.103080 0.149357 0.462412 -0.991668 0.124052 -0.034729
0.132395 0.062974 0.465812 0.302868 -0.952702 -0.025085
0.143482 0.158425 0.460549 0.989280 0.143698 -0.025979
0.141285 0.127610 0.538351 0.866649 0.476862 0.146705
0.188747 0.032641 0.284300 0.998288 0.057937 -0.007967
0.113805 0.246687 0.576642 0.000000 1.000000 0.000000
0.145778 0.097328 0.604165 0.990034 -0.132262 0.048362
0.114603 0.096994 0.807879 -0.936479 -0.298445 0.184222
0.127603 0.246687 0.110616 0.000000 -1.000000 0.000000
0.123303 0.167890 0.934118 0.139816 -0.319914 0.937073
0.140352 0.100055 0.699414 0.970726 0.220526 0.095179
0.149758 0.246687 0.221281 0.000000 1.000000 0.000000
0.145534 0.070804 0.511689 0.839242 -0.542959 0.029474
0.165380 0.065546 0.453966 0.348089 -0.586566 -0.731283
0.142993 0.066355 0.279525 0.754961 -0.650259 -0.084834
0.101592 0.246687 0.563319 0.000000 -1.000000 0.000000
0.120904 0.129009 0.576734 -0.020258 0.984073 0.176607
0.188747 0.028013 0.355020 0.895686 -0.443286 -0.035279
0.098433 0.098118 0.323214 -0.995955 -0.084810 -0.029683
0.160030 0.096466 0.709184 0.644519 0.763894 0.032590
0.146967 0.081656 0.489543 0.895281 -0.443926 0.037439
0.135707 0.083415 0.726211 0.823261 -0.556360 0.112716
0.146076 0.100777 0.207707 0.991399 -0.047783 -0.121836
0.107913 0.119887 0.675814 -0.883185 0.467841 0.033308
0.124265 0.100337 0.889105 0.119908 -0.764260 0.633663
0.136780 0.090409 0.170535 0.679257 -0.553372 -0.482069
0.115925 0.169031 0.291676 -0.382444 0.906997 -0.176331
0.177513 0.049356 0.343335 -0.887454 0.436602 0.147661
0.123703 0.246687 0.538206 0.000000 1.000000 0.000000
0.124271 0.198714 0.446790 0.224625 0.886916 0.403638
0.088516 0.070992 0.349473 -0.797147 0.505124 0.330768
0.141828 0.100720 0.677537 0.984916 0.146951 0.091357
0.140961 0.065707 0.438103 0.577497 -0.810707 -0.096180
0.119920 0.167081 0.885592 -0.837776 0.220558 0.499485
0.109385 0.064821 0.333344 -0.243070 -0.963868 0.108977
0.100863 0.079839 0.351836 -0.988903 0.134953 0.062110
0.087153 0.195369 0.945356 -1.000000 0.000000 0.000000
0.108695 0.181949 0.436407 -0.869240 0.493680 0.026477
0.139675 0.173069 0.388591 0.866437 0.494388 -0.069764
0.067978 0.029713 0.252314 0.766218 -0.600855 -0.227780
0.157355 0.071216 0.346031 0.827553 0.551347 0.105703
0.139551 0.168781 0.483405 0.759790 0.631239 0.155744
0.134292 0.180515 0.476173 0.720502 0.658837 0.216357
0.130855 0.062483 0.283797 0.251826 -0.965825 -0.061363
0.032457 0.102225 0.427769 -0.039029 -0.999047 -0.019525
0.179196 0.029209 0.269622 -0.973254 -0.229655 0.005888
0.156592 0.094462 0.741144 0.948373 0.271829 0.163391
0.097843 0.102648 0.472738 -0.990048 0.115604 0.080253
0.121956 0.061647 0.532905 -0.085318 -0.994499 0.060767
0.122044 0.188361 0.398612 -0.181277 0.879990 -0.439040
0.149845 0.093690 0.715623 0.866656 -0.496521 0.048722
0.070484 0.067303 0.464256 -0.548781 0.386685 0.741157
0.122205 0.231435 0.426585 -0.807844 0.525331 0.267237
0.100073 0.122530 0.404291 -0.965218 0.258246 -0.040785
0.148817 0.110808 0.387419 0.915765 0.401443 0.014775
0.101344 0.095705 0.215484 -0.970379 -0.166880 -0.174688
0.140500 0.176423 0.429282 0.903646 0.428280 0.000048
0.122886 0.112712 0.893756 -0.002654 -0.702496 0.711682
0.118994 0.105352 0.150393 -0.332116 0.302251 -0.893501
0.183701 0.106685 0.402429 0.736256 0.652559 -0.179148
0.188675 0.105082 0.423647 0.408084 0.886818 0.216846
0.088483 0.246687 0.544019 0.000000 -1.000000 0.000000
0.125559 0.162419 0.236350 0.122122 0.943036 -0.309466
0.106491 0.246687 0.504437 0.000000 1.000000 0.000000
0.098077 0.100784 0.500305 -0.997445 0.054996 0.045593
0.099608 0.090014 0.525000 -0.982576 -0.183239 0.031118
0.148920 0.096482 0.259809 0.998626 0.025651 -0.045687
0.124589 0.060262 0.203289 0.014954 -0.921216 -0.388764
0.145484 0.140648 0.276942 0.955873 0.279264 -0.091204
0.222546 0.100657 0.433731 0.969554 -0.079863 0.231490
0.141317 0.174104 0.407479 0.934524 0.353223 -0.043561
0.106219 0.173203 0.379482 -0.921206 0.383339 -0.066569
0.102961 0.246687 0.669419 0.000000 -1.000000 0.000000
0.123975 0.246687 0.394874 0.000000 1.000000 0.000000
0.114822 0.246687 0.589530 0.000000 1.000000 0.000000
0.147107 0.150684 0.480228 0.996348 0.081095 -0.026716
0.184221 0.102857 0.431841 0.959362 0.226888 0.167769
0.183980 0.025133 0.429647 -0.175027 -0.984410 0.017393
0.108250 0.126641 0.193429 -0.555469 0.681274 -0.476781
0.152334 0.246687 0.137497 0.000000 1.000000 0.000000
0.142159 0.090056 0.641620 0.954486 -0.294894 0.044657
0.144906 0.098341 0.621207 0.994562 -0.093078 0.046726
0.101795 0.072613 0.426008 -0.963746 -0.256999 -0.071727
0.104211 0.066472 0.447813 -0.342688 -0.938840 -0.033832
0.167291 0.064019 0.463264 -0.240949 -0.651551 0.719322
0.124326 0.107070 0.893071 0.139348 -0.730143 0.668934
0.087153 0.188316 0.864022 -1.000000 0.000000 0.000000
0.065191 0.025181 0.486656 0.239052 -0.970063 0.042811
0.102785 0.146946 0.295058 -0.942236 0.330055 -0.057060
0.197461 0.105893 0.418831 0.330828 0.936548 0.115891
0.153167 0.246687 0.178948 0.000000 1.000000 0.000000
0.112064 0.125446 0.597822 -0.421341 0.902736 0.086833
0.150205 0.246687 0.160876 0.000000 -1.000000 0.000000
0.129260 0.140314 0.835578 0.617328 0.784422 -0.059903
0.107303 0.177401 0.422878 -0.909741 0.415066 -0.009596
0.103604 0.066665 0.518521 -0.802184 -0.595928 0.037022
0.099366 0.091012 0.460667 -0.992340 0.090264 0.084342
0.116248 0.167102 0.267952 -0.353352 0.910135 -0.216325
0.100492 0.126266 0.489853 -0.994892 0.095250 0.033440
0.144448 0.149871 0.320916 0.938559 0.337373 -0.072705
0.167930 0.107164 0.410542 0.637466 0.761961 0.114244
0.045410 0.107208 0.410847 -0.481622 0.872625 0.081025
0.123169 0.060313 0.228021 -0.027476 -0.988623 -0.147884
0.075095 0.093579 0.706442 -0.593420 -0.803378 -0.049352
0.147538 0.085977 0.261343 0.944329 -0.324419 -0.054730
0.127470 0.172457 0.907753 0.602778 0.037838 0.797011
0.187473 0.025128 0.404231 0.396891 -0.917769 -0.013353
0.186111 0.029320 0.253643 0.648790 -0.689920 -0.321062
0.155958 0.246687 0.359351 0.000000 -1.000000 0.000000
0.112798 0.119993 0.731949 -0.814497 0.580135 0.006120
0.122783 0.076735 0.708072 0.008293 -0.993394 0.114456
0.067861 0.034682 0.429509 0.920311 0.381693 0.085665
0.184667 0.034708 0.487561 0.615514 0.688656 0.383270
0.089106 0.246687 0.581492 0.000000 -1.000000 0.000000
0.107253 0.246687 0.575915 0.000000 1.000000 0.000000
0.137166 0.246687 0.115687 0.000000 -1.000000 0.000000
0.148775 0.111128 0.475851 0.999853 -0.010483 0.013563
0.149044 0.097413 0.327816 0.996581 -0.081313 0.014664
0.100892 0.079448 0.485370 -0.996836 -0.063105 0.048338
0.103408 0.152268 0.378613 -0.971249 0.235157 -0.037099
0.100796 0.107023 0.216458 -0.987650 0.121167 -0.099332
0.098252 0.106349 0.310045 -0.999537 0.027859 -0.012221
0.179314 0.025149 0.448791 -0.631384 -0.774351 0.041642
0.129360 0.062006 0.507168 0.203013 -0.977918 0.049610
0.222564 0.102436 0.418924 0.995551 0.094015 -0.006269
0.100932 0.125359 0.234306 -0.960867 0.265330 -0.079587
0.146127 0.134772 0.339105 0.980344 0.193211 -0.039939
0.118538 0.246687 0.555466 0.000000 1.000000 0.000000
0.123999 0.083935 0.792945 0.181332 -0.974008 0.135744
0.146245 0.246687 0.184217 0.000000 1.000000 0.000000
0.145842 0.137292 0.396450 0.889047 0.457661 -0.011918
0.106345 0.101990 0.691057 -0.993748 0.007084 0.111419
0.115562 0.246687 0.563778 0.000000 1.000000 0.000000
0.188747 0.034268 0.283816 0.980495 0.196398 0.007573
0.179222 0.026601 0.377290 -0.797551 -0.603161 0.010437
0.118707 0.141690 0.837307 -0.685501 0.720995 -0.101262
0.107120 0.108838 0.688180 -0.988336 0.144983 0.046607
0.111764 0.246687 0.437923 0.000000 1.000000 0.000000
0.099474 0.117237 0.292424 -0.992142 0.124089 -0.015991
0.099435 0.246687 0.497633 0.000000 -1.000000 0.000000
0.103822 0.078003 0.580860 -0.884906 -0.461665 0.061701
0.147780 0.087795 0.416711 0.994216 -0.051263 -0.094371
0.107163 0.246687 0.480462 0.000000 1.000000 0.000000
0.152868 0.065970 0.346323 0.431077 -0.886640 -0.167456
0.188747 0.026269 0.349340 0.780368 -0.623879 -0.042434
0.159036 0.246687 0.259974 0.000000 -1.000000 0.000000
0.100476 0.126167 0.438901 -0.986017 0.165936 -0.015388
0.068400 0.033184 0.283897 0.999557 -0.028789 -0.007500
0.103931 0.157015 0.374811 -0.959886 0.277721 -0.038597
0.124531 0.211612 0.427442 0.526255 0.734252 0.428870
0.154018 0.246687 0.279668 0.000000 -1.000000 0.000000
0.103774 0.113140 0.624472 -0.950882 0.306713 0.041847
0.148921 0.096443 0.463860 0.996013 -0.075187 0.048019
0.121302 0.061020 0.481200 -0.036445 -0.997802 0.055335
0.144217 0.083874 0.211624 0.935150 -0.294325 -0.197149
0.126710 0.175481 0.918208 0.519763 -0.059166 0.852259
0.112537 0.063816 0.444129 -0.201643 -0.975253 0.090672
0.105710 0.171231 0.445176 -0.897780 0.437586 0.050086
0.143954 0.154145 0.393938 0.946712 0.320253 -0.034282
0.110477 0.123923 0.622563 -0.505166 0.862118 0.039491
0.100344 0.083601 0.446381 -0.995608 -0.084767 -0.039731
0.126475 0.122578 0.730360 0.258640 0.964940 0.044676
0.102937 0.075193 0.226210 -0.890459 -0.433829 -0.137387
0.155441 0.246687 0.227572 0.000000 1.000000 0.000000
0.088281 0.246687 0.716758 0.000000 1.000000 0.000000
0.147611 0.246687 0.053271 0.000000 1.000000 0.000000
0.100890 0.123408 0.554730 -0.769758 0.636320 0.050697
0.151189 0.246687 0.036009 0.000000 1.000000 0.000000
0.115091 0.144888 0.561865 -0.492764 0.005541 0.870145
0.123356 0.071765 0.653279 0.038438 -0.994686 0.095514
0.146863 0.080865 0.492297 0.892899 -0.448788 0.036344
0.148360 0.114826 0.425961 0.996141 0.086079 0.017114
0.147231 0.124893 0.402903 0.877121 0.480247 0.004575
0.103076 0.109826 0.620749 -0.977348 0.207425 0.042013
0.148477 0.093092 0.366417 0.970005 -0.243078 -0.001766
0.131658 0.246687 0.221918 0.000000 -1.000000 0.000000
0.065029 0.025134 0.403850 0.293482 -0.955869 -0.013553
0.087208 0.246687 0.596681 0.000000 -1.000000 0.000000
0.146874 0.246687 0.113226 0.000000 1.000000 0.000000
0.149049 0.097419 0.372428 0.982276 -0.187061 -0.011882
0.100864 0.129751 0.285120 -0.977027 0.210928 -0.030462
0.099659 0.137080 0.505251 -0.994576 0.068661 0.078128
0.106937 0.077730 0.630306 -0.825799 -0.558694 0.076920
0.098839 0.095064 0.263875 -0.991642 -0.115485 -0.057534
0.087153 0.187761 0.876715 -1.000000 0.000000 0.000000
0.116774 0.137365 0.205451 -0.234708 0.853052 -0.466062
0.101553 0.074615 0.315505 -0.980985 -0.175817 -0.082204
0.110163 0.098730 0.743054 -0.971143 0.225178 0.078594
0.100629 0.127536 0.458867 -0.992462 0.122446 -0.005155
0.123802 0.141514 0.920533 0.147438 -0.536695 0.830795
0.107250 0.246687 0.518878 0.000000 1.000000 0.000000
0.135152 0.118156 0.174617 0.551600 0.689337 -0.469630
0.122126 0.175543 0.510692 -0.146606 0.936858 0.317497
0.124538 0.201381 0.408789 -0.013780 0.857389 -0.514484
0.187623 0.038720 0.257028 0.646734 0.754989 -0.108295
0.143514 0.158259 0.333052 0.901429 0.427080 -0.070911
0.143476 0.093645 0.713854 0.918848 -0.391831 0.046769
0.087153 0.183979 0.895249 -1.000000 0.000000 0.000000
0.181432 0.025038 0.310923 -0.547537 -0.836136 -0.032866
0.101981 0.071221 0.390977 -0.920549 -0.389776 -0.025783
0.131643 0.065733 0.558727 0.358038 -0.930493 0.077402
0.147282 0.144815 0.474941 0.997292 0.038386 -0.062733
0.149996 0.246687 0.295722 0.000000 1.000000 0.000000
0.132711 0.126186 0.191576 0.523094 0.711962 -0.468490
0.134688 0.246687 0.069131 0.000000 -1.000000 0.000000
0.098229 0.099629 0.463152 -0.988464 0.121448 0.090490
0.101120 0.132042 0.289691 -0.974779 0.220957 -0.031354
0.058824 0.026280 0.464954 -0.893716 -0.445362 0.054075
0.098046 0.101020 0.366646 -0.996796 -0.079926 -0.003204
0.148198 0.139848 0.499256 0.997073 0.060833 0.046309
0.120563 0.122669 0.724692 -0.181587 0.983231 -0.016831
0.130781 0.063393 0.534995 0.305133 -0.949809 0.068966
0.131764 0.111372 0.832059 0.933173 -0.129693 0.335213
0.126143 0.060980 0.305694 0.092499 -0.995365 -0.026329
0.105548 0.101507 0.676782 -0.994428 0.041367 0.096961
0.135379 0.080396 0.191311 0.805853 -0.333843 -0.489030
0.180568 0.025123 0.416653 -0.556006 -0.830831 0.024034
0.146888 0.127371 0.238687 0.967522 0.234211 -0.095109
0.094122 0.103727 0.431315 -0.964197 0.243964 0.103948
0.123195 0.128889 0.596015 0.051048 0.985232 0.163437
0.109405 0.064815 0.340743 -0.240814 -0.964169 0.111300
0.114378 0.114460 0.792344 -0.967279 0.250618 0.039531
0.124872 0.199393 0.943076 0.385675 0.177734 0.905354
0.143439 0.158984 0.266225 0.904697 0.406493 -0.127620
0.114880 0.124158 0.648590 -0.349469 0.936112 0.039569
0.146890 0.246687 0.232716 0.000000 -1.000000 0.000000
0.101392 0.075663 0.419980 -0.969335 -0.237036 -0.064841
0.159694 0.246687 0.245943 0.000000 -1.000000 0.000000
0.099995 0.086244 0.427497 -0.925945 -0.366563 -0.090872
0.163319 0.093991 0.731089 0.855381 -0.507123 0.105590
0.103238 0.100592 0.191900 -0.957194 -0.020268 -0.288736
0.104614 0.085637 0.615883 -0.910066 -0.410445 0.057568
0.108976 0.089415 0.697352 -0.856742 -0.511634 0.064990
0.062575 0.042463 0.242470 -0.647359 0.706305 -0.286461
0.148792 0.095464 0.403133 0.958229 -0.260875 -0.117224
0.051796 0.102944 0.432313 -0.439563 -0.882777 0.165798
0.118309 0.197376 0.457702 -0.504916 0.848961 0.155967
0.147169 0.083183 0.495845 0.913806 -0.404696 0.034338
0.135726 0.246687 0.370646 0.000000 1.000000 0.000000
0.179204 0.032126 0.365287 -0.995358 0.088883 0.036901
0.032499 0.098121 0.430524 0.361399 -0.930688 -0.056668
0.130356 0.171817 0.322453 0.335012 0.926439 -0.171689
0.120684 0.246687 0.762003 0.000000 -1.000000 0.000000
0.106209 0.246687 0.517791 0.000000 1.000000 0.000000
0.102791 0.108867 0.618326 -0.982823 0.179657 0.042205
0.101984 0.071185 0.422315 -0.947306 -0.313525 -0.065672
0.179210 0.032334 0.393809 -0.994715 0.095317 0.038157
0.173364 0.093582 0.706455 0.610443 -0.791577 0.027661
0.128730 0.061805 0.349409 0.193780 -0.980696 -0.026184
0.125800 0.188619 0.919081 0.572817 0.521546 0.632353
0.136530 0.246687 0.041064 0.000000 -1.000000 0.000000
0.133774 0.246687 0.185635 0.000000 1.000000 0.000000
0.102570 0.145023 0.289941 -0.944144 0.324463 -0.057581
0.121724 0.170354 0.922203 -0.047598 -0.195197 0.979608
0.068374 0.029074 0.286482 0.890700 -0.451178 -0.055604
0.099816 0.120205 0.364382 -0.997799 0.066125 -0.004908
0.093903 0.246687 0.734552 0.000000 1.000000 0.000000
0.042317 0.103014 0.408712 -0.173623 -0.933199 -0.314634
0.145673 0.246687 0.331010 0.000000 -1.000000 0.000000
0.122590 0.060609 0.426346 -0.002254 -0.999506 0.031348
0.097325 0.246687 0.489808 0.000000 -1.000000 0.000000
0.100177 0.113246 0.566299 -0.934371 0.352547 0.051590
0.122030 0.246687 0.567891 0.000000 1.000000 0.000000
0.101316 0.076232 0.454648 -0.994670 -0.088249 -0.053319
0.136169 0.063612 0.226247 0.526869 -0.843985 -0.100489
0.096069 0.246687 0.752215 0.000000 1.000000 0.000000
0.119727 0.061523 0.392210 -0.051795 -0.998012 0.035918
0.098089 0.100694 0.455105 -0.984762 0.141197 0.101527
0.148993 0.096993 0.390262 0.986053 -0.153251 -0.064912
0.066884 0.035315 0.456073 0.503986 0.832835 -0.228877
0.121801 0.246687 0.701139 0.000000 -1.000000 0.000000
0.117375 0.124206 0.665341 -0.259168 0.965145 0.036418
0.146915 0.246687 0.214623 0.000000 -1.000000 0.000000
0.125857 0.186895 0.933138 0.431385 -0.040670 0.901251
0.112170 0.063933 0.443002 -0.208617 -0.973637 0.092253
0.135772 0.246687 0.388238 0.000000 1.000000 0.000000
0.147270 0.111250 0.572888 0.977542 0.200157 0.065944
0.147465 0.122798 0.461897 0.998591 0.053065 -0.000361
0.130954 0.134407 0.854377 0.886020 -0.018645 0.463272
0.108574 0.076004 0.650758 -0.778309 -0.620484 0.096096
0.099317 0.112509 0.549960 -0.940220 0.336975 0.049336
0.094012 0.246687 0.729197 0.000000 1.000000 0.000000
0.061900 0.040210 0.345036 -0.444194 0.892743 0.075507
0.102010 0.139807 0.423503 -0.976190 0.214048 -0.035158
0.098480 0.106798 0.237473 -0.997696 0.058098 -0.035037
0.126621 0.123872 0.884561 0.458327 -0.512878 0.725874
0.080808 0.094303 0.744113 -0.860918 -0.482325 0.161810
0.100436 0.083004 0.360075 -0.998025 -0.024471 0.057850
0.127119 0.079041 0.726289 0.268520 -0.955474 0.122337
0.148043 0.246687 0.343712 0.000000 -1.000000 0.000000
0.102560 0.144661 0.458334 -0.991216 0.127185 -0.036261
0.127955 0.246687 0.187030 0.000000 -1.000000 0.000000
0.126596 0.135855 0.892764 0.477985 -0.412866 0.775288
0.144819 0.146528 0.333326 0.949649 0.307785 -0.058607
0.142561 0.104760 0.663720 0.993837 0.056495 0.095375
0.115388 0.246687 0.742464 0.000000 -1.000000 0.000000
0.165440 0.102717 0.417108 0.866112 -0.492499 -0.085406
0.132887 0.091624 0.795528 0.888348 -0.438900 0.134928
0.145655 0.139086 0.296094 0.964118 0.254401 -0.075879
0.152667 0.246687 0.044076 0.000000 1.000000 0.000000
0.100533 0.084431 0.537609 -0.958591 -0.279750 0.053316
0.147075 0.126275 0.405359 0.902838 0.429972 0.002548
0.132561 0.132229 0.199230 0.516097 0.729323 -0.449146
0.117949 0.246687 0.590750 0.000000 1.000000 0.000000
0.133398 0.152120 0.224693 0.542290 0.766842 -0.343330
0.141572 0.246687 0.393301 0.000000 -1.000000 0.000000
0.130394 0.183040 0.486597 0.563407 0.777125 0.280446
0.145704 0.138658 0.290164 0.963246 0.256743 -0.078993
0.128908 0.175545 0.374403 0.275079 0.954756 -0.113014
0.067345 0.034654 0.362260 0.811734 0.577080 0.089811
0.139099 0.246687 0.048091 0.000000 -1.000000 0.000000
0.120063 0.172372 0.909288 -0.285427 -0.026022 0.958047
0.107034 0.065571 0.367019 -0.733593 -0.679536 0.008564
0.089392 0.246687 0.477412 0.000000 -1.000000 0.000000
0.183329 0.025147 0.266701 -0.107397 -0.989078 -0.100951
0.069739 0.105869 0.418626 -0.791424 0.604679 0.089510
0.127844 0.070999 0.631969 0.239905 -0.966118 0.095191
0.110675 0.075601 0.653419 -0.719447 -0.687438 0.099122
0.068361 0.026937 0.279231 0.763452 -0.640652 -0.081888
0.115350 0.078587 0.703736 -0.604761 -0.788270 0.113552
0.092893 0.246687 0.581980 0.000000 -1.000000 0.000000
0.114057 0.089718 0.169174 -0.689154 -0.546422 -0.475908
0.187424 0.042052 0.246516 0.270964 0.945593 -0.180092
0.151150 0.246687 0.344158 0.000000 -1.000000 0.000000
0.144719 0.163195 0.472633 0.964531 0.263765 0.010415
0.150479 0.246687 0.104379 0.000000 1.000000 0.000000
0.136318 0.095262 0.750776 0.940978 -0.323693 0.098907
0.111316 0.098085 0.759871 -0.969978 0.210159 0.122375
0.146576 0.246687 0.249723 0.000000 -1.000000 0.000000
0.141591 0.246687 0.246414 0.000000 -1.000000 0.000000
0.158744 0.246687 0.345743 0.000000 -1.000000 0.000000
0.087153 0.186489 0.867935 -1.000000 0.000000 0.000000
0.129080 0.061917 0.258757 0.198273 -0.978629 -0.054521
0.145647 0.071662 0.521533 0.860690 -0.508501 0.025281
0.066085 0.025162 0.451753 0.429721 -0.902890 0.011409
0.097899 0.102136 0.369932 -0.993625 -0.112296 -0.009924
0.123672 0.182023 0.391821 -0.114073 0.906619 -0.406237
0.146224 0.076030 0.422842 0.808839 -0.582667 -0.079232
0.142228 0.169798 0.353051 0.836850 0.543605 -0.064619
0.066095 0.040209 0.241762 0.445472 0.709061 -0.546614
0.146395 0.111579 0.586253 0.975563 0.207966 0.070906
0.136490 0.123528 0.635326 0.708086 0.699806 0.094264
0.148640 0.112330 0.330546 0.999925 -0.003315 -0.011813
0.147861 0.119274 0.470705 0.999317 0.036817 0.003049
0.093583 0.246687 0.677833 0.000000 -1.000000 0.000000
0.087725 0.246687 0.777516 0.000000 1.000000 0.000000
0.130559 0.118930 0.787123 0.654759 0.755068 0.034103
0.068390 0.032248 0.339901 0.993184 -0.115929 0.012088
0.188747 0.029949 0.395058 0.955034 -0.296322 -0.010194
0.059691 0.039426 0.254800 -0.930074 0.363996 -0.049688
0.148626 0.094274 0.344002 0.996273 -0.080273 0.031558
0.123687 0.122632 0.747994 -0.076916 0.996788 -0.022314
0.134356 0.077275 0.681182 0.582197 -0.804858 0.115109
0.116506 0.099406 0.829376 -0.859682 -0.351537 0.370633
0.129660 0.119043 0.790995 0.568796 0.822333 0.015466
0.110928 0.070992 0.601607 -0.663748 -0.742788 0.087775
0.032116 0.097047 0.407191 0.319904 -0.894767 -0.311534
0.134860 0.246687 0.085665 0.000000 -1.000000 0.000000
0.112213 0.119551 0.738112 -0.884865 0.465514 0.017629
0.118697 0.147821 0.881185 -0.566817 -0.126573 0.814063
0.118705 0.246687 0.459995 0.000000 1.000000 0.000000
0.145315 0.069151 0.270684 0.840530 -0.536061 -0.078412
0.110448 0.126815 0.554366 -0.452866 0.881216 0.135538
0.105141 0.246687 0.601632 0.000000 -1.000000 0.000000
0.148876 0.096102 0.413890 0.906257 -0.412760 -0.091252
0.117886 0.062110 0.428633 -0.094089 -0.993916 0.057250
0.123668 0.071394 0.141595 -0.483331 -0.868623 -0.109019
0.098623 0.097094 0.539004 -0.996941 -0.065872 0.042067
0.113682 0.104066 0.805497 -0.988487 0.025276 0.149182
0.111253 0.122251 0.667778 -0.510136 0.859972 -0.014450
0.114214 0.116580 0.784788 -0.955132 0.295722 0.016489
0.058824 0.028740 0.314809 -0.913748 -0.406275 0.002282
0.136268 0.155233 0.229195 0.677236 0.676441 -0.289447
0.110752 0.246687 0.640325 0.000000 1.000000 0.000000
0.126680 0.178400 0.900813 0.637962 0.634201 0.436799
0.124400 0.071633 0.123011 0.862539 -0.494811 -0.105774
0.105919 0.089397 0.647939 -0.907959 -0.415476 0.054671
0.098866 0.094864 0.272598 -0.992356 -0.110201 -0.055542
0.058824 0.026200 0.291711 -0.688553 -0.724282 -0.036202
0.133616 0.112107 0.791008 0.902167 0.423927 0.079879
0.135439 0.099606 0.777457 0.991832 0.016938 0.126423
0.121301 0.144816 0.901546 -0.162268 -0.400055 0.902012
0.147014 0.246687 0.086572 0.000000 1.000000 0.000000
0.182444 0.102844 0.418833 0.734085 -0.672720 -0.092559
0.061235 0.038720 0.257026 -0.823808 0.562472 -0.070475
0.188747 0.030794 0.421502 0.968671 -0.248289 0.005470
0.110631 0.246687 0.724707 0.000000 -1.000000 0.000000
0.117741 0.120332 0.759657 -0.489318 0.870859 -0.046613
0.144338 0.066784 0.454284 0.662391 -0.740736 -0.112020
0.123588 0.154871 0.927890 0.148614 -0.434579 0.888288
0.123936 0.162158 0.933145 0.196087 -0.378560 0.904568
0.104446 0.083253 0.606231 -0.901253 -0.429283 0.058810
0.119675 0.168575 0.524525 -0.155885 0.939778 0.304165
0.103508 0.153147 0.434228 -0.980733 0.191595 -0.038128
0.119457 0.157165 0.893940 -0.425123 -0.113020 0.898051
0.100945 0.079043 0.435389 -0.986362 -0.141108 -0.084725
0.100282 0.124358 0.356423 -0.994534 0.104216 -0.006481
0.145748 0.246687 0.390192 0.000000 -1.000000 0.000000
0.129031 0.122143 0.722060 0.554429 0.826769 0.095194
0.162495 0.064663 0.454735 0.257506 -0.771743 -0.581467
0.188733 0.034604 0.266826 0.981110 0.192137 -0.022501
0.127648 0.127650 0.601618 0.333191 0.926136 0.176792
0.032451 0.102830 0.427892 -0.100111 -0.994974 -0.002239
0.146334 0.246687 0.115222 0.000000 -1.000000 0.000000
0.184267 0.048019 0.343417 0.839512 0.467088 -0.277575
0.145224 0.068462 0.307337 0.774857 -0.624648 -0.097013
0.117804 0.063985 0.191311 -0.272941 -0.847188 -0.455825
0.101982 0.071216 0.513356 -0.912974 -0.406750 0.032141
0.101994 0.139871 0.295413 -0.961851 0.270512 -0.040825
0.111670 0.118931 0.738487 -0.917519 0.396988 0.023635
0.101528 0.135603 0.330034 -0.978773 0.203670 -0.022865
0.115344 0.087489 0.794211 -0.698420 -0.704131 0.128097
0.135149 0.118548 0.751455 0.794094 0.606417 0.040890
0.148481 0.246687 0.156626 0.000000 1.000000 0.000000
0.113845 0.246687 0.543604 0.000000 1.000000 0.000000
0.106813 0.071579 0.594082 -0.786169 -0.612488 0.082445
0.099909 0.086899 0.454366 -0.992497 0.085162 0.087731
0.104028 0.094693 0.632776 -0.954630 -0.292968 0.053392
0.107108 0.164861 0.259605 -0.754611 0.640604 -0.142086
0.187267 0.025064 0.290459 0.638907 -0.765417 -0.077037
0.113697 0.173207 0.485327 -0.607914 0.760898 0.226881
0.121920 0.181708 0.502064 -0.169710 0.935312 0.310468
0.137739 0.150523 0.551729 0.882167 0.284044 0.375634
0.102027 0.140116 0.319796 -0.969696 0.242426 -0.030329
0.137099 0.246687 0.349542 0.000000 -1.000000 0.000000
0.105493 0.165211 0.267066 -0.821733 0.555739 -0.126127
0.103020 0.246687 0.705899 0.000000 1.000000 0.000000
0.079055 0.102740 0.417652 -0.725790 -0.685814 0.053737
0.162725 0.105771 0.418975 0.832266 0.545492 0.098850
0.110923 0.147323 0.556850 -0.819897 0.073569 0.567765
0.099498 0.090111 0.522414 -0.983717 -0.178075 0.024290
0.154791 0.246687 0.248470 0.000000 -1.000000 0.000000
0.133362 0.063283 0.326837 0.351885 -0.934070 -0.060746
0.126404 0.246687 0.213027 0.000000 -1.000000 0.000000
0.173040 0.095926 0.718360 0.514871 0.855231 0.059060
0.109333 0.246687 0.603809 0.000000 1.000000 0.000000
0.066401 0.025182 0.487963 0.452472 -0.891160 0.033203
0.104120 0.066501 0.400430 -0.649227 -0.760400 -0.017210
0.120237 0.125563 0.814290 -0.547163 0.833899 -0.072282
0.101761 0.137764 0.303565 -0.969337 0.243530 -0.032844
0.121437 0.184675 0.900083 -0.816174 0.562522 -0.132017
0.124996 0.072940 0.149828 0.917920 0.311684 -0.245510
0.146120 0.134862 0.324833 0.977389 0.205589 -0.049435
0.126259 0.183934 0.920996 0.482918 0.166516 0.859688
0.102404 0.246687 0.823443 0.000000 1.000000 0.000000
0.090130 0.246687 0.699718 0.000000 1.000000 0.000000
0.140216 0.082658 0.651328 0.872316 -0.482756 0.077538
0.138326 0.246687 0.338601 0.000000 1.000000 0.000000
0.098959 0.112647 0.296721 -0.996077 0.087246 -0.014801
0.108959 0.139488 0.548510 -0.903419 -0.160330 0.397654
0.212833 0.103071 0.410010 0.316738 -0.939286 -0.131979
0.115011 0.117119 0.796403 -0.952555 0.303984 0.015260
0.179222 0.031623 0.458965 -0.997881 -0.040700 0.050768
0.124210 0.060364 0.510497 0.019595 -0.998637 0.048366
0.109881 0.117086 0.713858 -0.932244 0.360783 0.027517
0.108101 0.246687 0.817501 0.000000 -1.000000 0.000000
0.065196 0.059241 0.457369 -0.770108 0.570871 -0.284675
0.136028 0.246687 0.398415 0.000000 1.000000 0.000000
0.100761 0.119849 0.230136 -0.971813 0.221210 -0.081527
0.127418 0.125719 0.814544 0.339144 0.938959 -0.057762
0.107525 0.167111 0.285705 -0.774571 0.620181 -0.124159
0.127686 0.061029 0.229600 0.136950 -0.987919 -0.072533
0.178029 0.046464 0.342169 -0.791142 0.605310 -0.087716
0.159349 0.067493 0.453928 0.749016 -0.381026 -0.542028
0.132936 0.174296 0.386754 0.566025 0.808212 -0.162508
0.141293 0.246687 0.406933 0.000000 1.000000 0.000000
0.140909 0.169000 0.310086 0.810814 0.574212 -0.113408
0.103873 0.140252 0.222859 -0.883211 0.432895 -0.180388
0.143963 0.108320 0.632957 0.986986 0.135601 0.086440
0.112457 0.109762 0.772213 -0.985052 0.154275 0.076633
0.144855 0.146213 0.322991 0.951466 0.300362 -0.067044
0.155544 0.246687 0.279280 0.000000 -1.000000 0.000000
0.119948 0.161357 0.900954 -0.336051 -0.121268 0.934004
0.119980 0.168803 0.895779 -0.457490 0.154914 0.875616
0.140786 0.114896 0.182018 0.813262 0.421261 -0.401426
0.095504 0.246687 0.749933 0.000000 1.000000 0.000000
0.115939 0.062731 0.279948 -0.136256 -0.990517 0.017616
0.149786 0.093650 0.713365 0.872412 -0.486658 0.045410
0.104906 0.124696 0.564241 -0.658207 0.749437 0.071470
0.114931 0.084281 0.767383 -0.681185 -0.721111 0.126437
0.130954 0.082017 0.186386 0.441546 -0.683564 -0.581187
0.061287 0.040173 0.459033 -0.619478 0.769008 0.157712
0.135340 0.192521 0.418630 0.810593 0.579710 -0.082914
0.096978 0.067788 0.453876 -0.448880 -0.858120 -0.249273
0.143230 0.086313 0.613393 0.938540 -0.341250 0.051886
0.096092 0.095331 0.727025 -0.835000 0.541749 0.096351
0.188718 0.029647 0.261444 0.941081 -0.319330 -0.111331
0.101525 0.074662 0.419501 -0.965659 -0.251816 -0.063968
0.101604 0.136390 0.264961 -0.950935 0.303152 -0.061817
0.119160 0.246687 0.661096 0.000000 -1.000000 0.000000
0.146427 0.077568 0.243902 0.923471 -0.379641 -0.055445
0.119493 0.073374 0.658460 -0.374276 -0.921802 0.100986
0.149541 0.103731 0.535806 0.999381 0.008553 0.034138
0.061577 0.037688 0.240970 -0.441691 -0.336870 -0.831521
0.147625 0.086639 0.372135 0.936765 -0.349867 -0.008029
0.101318 0.133640 0.422658 -0.976379 0.213619 -0.032422
0.068216 0.096025 0.717036 -0.518043 0.852731 0.066940
0.142929 0.163302 0.440913 0.979142 0.199972 -0.035935
0.147187 0.083447 0.354372 0.994400 -0.064421 0.083776
0.127538 0.168440 0.886063 0.671276 0.624068 0.399909
0.103368 0.246687 0.736886 0.000000 1.000000 0.000000
0.113601 0.154304 0.558025 -0.677102 0.584640 0.446911
0.121457 0.201071 0.411832 -0.228469 0.861007 -0.454388
0.100433 0.125609 0.514987 -0.985744 0.131905 0.104446
0.076729 0.069438 0.349324 -0.578763 0.642956 0.501638
0.068379 0.029904 0.371936 0.932122 -0.362080 0.006828
0.149634 0.101856 0.343919 0.995647 -0.093115 -0.004031
0.158958 0.246687 0.101216 0.000000 1.000000 0.000000
0.115207 0.144633 0.215013 -0.303118 0.859120 -0.412349
0.215112 0.102068 0.423144 0.081560 0.745689 0.661284
0.127351 0.168579 0.908095 0.586614 -0.059674 0.807665
0.148734 0.110297 0.527869 0.995702 0.082841 0.041413
0.137179 0.093010 0.730423 0.913007 -0.399791 0.081146
0.125590 0.170584 0.298036 0.094537 0.972842 -0.211285
0.059033 0.034614 0.319871 -0.382904 0.923785 0.002324
0.122114 0.064069 0.561146 -0.118167 -0.990595 0.068984
0.101030 0.147718 0.512923 -0.989103 0.101173 0.106954
0.096443 0.246687 0.702701 0.000000 1.000000 0.000000
0.147781 0.087913 0.307092 0.996624 -0.059530 0.056544
0.153444 0.246687 0.025037 0.000000 1.000000 0.000000
0.173194 0.063227 0.456122 -0.158195 -0.733484 -0.661042
0.103935 0.072234 0.565883 -0.851528 -0.520412 0.063812
0.147491 0.122433 0.522339 0.991344 0.088758 0.096744
0.130287 0.062302 0.310757 0.238702 -0.969877 -0.048571
0.161507 0.069164 0.339929 0.814037 0.328455 -0.479020
0.188747 0.031408 0.303891 0.997334 -0.070996 -0.016890
0.148662 0.112135 0.482964 0.999941 0.000431 0.010897
0.116902 0.246687 0.527275 0.000000 1.000000 0.000000
0.145871 0.073358 0.284036 0.847530 -0.524509 -0.081132
0.169611 0.102748 0.422463 0.872684 -0.484392 -0.061545
0.102603 0.162219 0.483835 -0.920950 0.387594 0.040285
0.111690 0.086791 0.733351 -0.783042 -0.614302 0.097360
0.100029 0.122129 0.334916 -0.993650 0.112105 -0.009632
0.114288 0.246687 0.606189 0.000000 1.000000 0.000000
0.066532 0.052683 0.350045 -0.367048 0.439237 0.819968
0.058824 0.026291 0.268459 -0.661698 -0.748246 -0.047789
0.116147 0.062665 0.452469 -0.132304 -0.988437 0.074085
0.208445 0.103038 0.427156 0.577506 0.727686 0.370080
0.110333 0.246687 0.758831 0.000000 -1.000000 0.000000
0.131648 0.126955 0.843444 0.921583 -0.017296 0.387795
0.143014 0.080178 0.205242 0.886019 -0.364211 -0.286915
0.214601 0.103084 0.412313 0.345718 -0.932768 -0.102096
0.107630 0.178883 0.409827 -0.922358 0.383749 -0.044634
0.143150 0.098415 0.649505 0.943485 0.325134 0.064219
0.134934 0.246687 0.383755 0.000000 1.000000 0.000000
0.147795 0.087925 0.264465 0.949609 -0.308748 -0.054022
0.131838 0.124214 0.839992 0.930486 -0.022339 0.365646
0.146714 0.246687 0.223626 0.000000 -1.000000 0.000000
0.148037 0.246687 0.084778 0.000000 -1.000000 0.000000
0.061638 0.102870 0.423082 -0.488382 -0.867128 0.097841
0.061194 0.035235 0.240199 -0.160656 -0.688691 -0.707032
0.147482 0.138128 0.489552 0.999116 0.041003 0.009279
0.147521 0.122301 0.456440 0.998924 0.046362 0.001315
0.032309 0.107090 0.411797 -0.405853 0.905837 0.121416
0.110182 0.065509 0.536334 -0.623830 -0.778310 0.071202
0.149522 0.100999 0.449756 0.996089 -0.081016 0.035257
0.132932 0.246687 0.254932 0.000000 1.000000 0.000000
0.127355 0.133095 0.199330 0.225384 0.836701 -0.499133
0.142198 0.169906 0.432920 0.935046 0.354478 0.005887
0.060556 0.025156 0.440966 -0.627202 -0.778304 0.029334
0.103084 0.149371 0.441583 -0.984881 0.170216 -0.032178
0.145992 0.074276 0.418952 0.797749 -0.598635 -0.072338
0.063987 0.025049 0.292767 0.115390 -0.989777 -0.083823
0.145694 0.138658 0.344359 0.972389 0.229791 -0.040700
0.132195 0.079652 0.715808 0.543338 -0.830211 0.124631
0.135297 0.083454 0.732938 0.818696 -0.562475 0.115578
0.147566 0.086822 0.524340 0.957442 -0.287213 0.028509
0.126933 0.160229 0.906122 0.542600 -0.167647 0.823091
0.103880 0.156453 0.418949 -0.971123 0.233712 -0.047953
0.100802 0.129018 0.349839 -0.989795 0.142109 -0.010548
0.104820 0.167463 0.483343 -0.831162 0.543464 0.117546
0.093672 0.246687 0.762268 0.000000 1.000000 0.000000
0.144528 0.066844 0.492006 0.759717 -0.649096 0.038779
0.127227 0.171407 0.509574 0.209157 0.929689 0.303203
0.110645 0.246687 0.759763 0.000000 -1.000000 0.000000
0.122865 0.160401 0.551585 -0.175709 0.945777 0.273188
0.098341 0.107107 0.342110 -0.999971 -0.002260 -0.007283
0.114734 0.246687 0.705040 0.000000 -1.000000 0.000000
0.103196 0.150405 0.386185 -0.980896 0.190422 -0.039779
0.129768 0.148932 0.219953 0.349582 0.851132 -0.391620
0.132713 0.246687 0.069934 0.000000 -1.000000 0.000000
0.142230 0.169773 0.361687 0.835352 0.546721 -0.057296
0.068368 0.030253 0.420945 0.949511 -0.312054 0.032434
0.104700 0.120897 0.621786 -0.845714 0.532020 0.041510
0.123639 0.124793 0.696377 -0.029153 0.998711 0.041548
0.117692 0.246687 0.578643 0.000000 1.000000 0.000000
0.184883 0.027305 0.490231 0.182803 -0.980971 0.065410
0.100853 0.079847 0.281568 -0.970159 -0.232599 -0.068484
0.158447 0.246687 0.389327 0.000000 -1.000000 0.000000
0.144428 0.150142 0.372679 0.927885 0.371790 -0.028314
0.108922 0.168243 0.498593 -0.666222 0.720549 0.192241
0.098120 0.073434 0.463736 -0.988689 0.086229 0.122715
0.147242 0.107363 0.582221 0.991331 0.112614 0.067679
0.137923 0.128279 0.541092 0.761354 0.624246 0.175091
0.131935 0.084624 0.773687 0.739273 -0.659894 0.134221
0.099486 0.111395 0.559371 -0.952305 0.300565 0.052677
0.149269 0.106729 0.278420 0.999053 -0.039918 -0.017300
0.027353 0.105858 0.419448 -0.670554 0.741139 0.032723
0.123896 0.202679 0.919517 0.349693 0.896366 -0.272477
0.105956 0.246687 0.578849 0.000000 -1.000000 0.000000
0.101908 0.138864 0.371332 -0.984663 0.173482 -0.018528
0.148148 0.116706 0.306928 0.998688 0.048105 -0.017528
0.147338 0.123907 0.355874 0.995466 0.094436 -0.011346
0.151542 0.246687 0.182989 0.000000 1.000000 0.000000
0.094320 0.065919 0.344422 -0.196944 -0.953916 0.226402
0.098149 0.105418 0.320819 -0.999902 0.009312 -0.010462
0.127462 0.246687 0.135853 0.000000 -1.000000 0.000000
0.124716 0.246687 0.157427 0.000000 -1.000000 0.000000
0.132743 0.121031 0.721553 0.688016 0.722179 0.071357
0.101906 0.071880 0.282255 -0.943622 -0.323408 -0.070600
0.142733 0.066272 0.406118 0.683414 -0.728274 -0.050610
0.090347 0.246687 0.735949 0.000000 1.000000 0.000000
0.102443 0.067729 0.430335 -0.610910 -0.790397 -0.045402
0.112205 0.063922 0.491496 -0.220467 -0.969601 0.106154
0.114458 0.246687 0.737704 0.000000 -1.000000 0.000000
0.123658 0.063688 0.562086 0.014477 -0.997651 0.066961
0.100054 0.122525 0.254292 -0.977276 0.208085 -0.040402
0.132594 0.246687 0.093138 0.000000 -1.000000 0.000000
0.102577 0.116742 0.210247 -0.967735 0.205887 -0.145254
0.142262 0.169509 0.330594 0.842496 0.532227 -0.083278
0.147840 0.119465 0.404684 0.879747 0.475291 0.012006
0.102054 0.109775 0.207782 -0.979372 0.148692 -0.136826
0.129625 0.246687 0.095840 0.000000 -1.000000 0.000000
0.136219 0.120700 0.704257 0.768545 0.637424 0.055039
0.147790 0.120021 0.273807 0.985602 0.159554 -0.055961
0.129756 0.067845 0.191311 0.316156 -0.784697 -0.533194
0.137455 0.246687 0.213790 0.000000 -1.000000 0.000000
0.149331 0.246687 0.123027 0.000000 -1.000000 0.000000
0.113585 0.115873 0.776265 -0.959479 0.281194 0.018191
0.124284 0.112632 0.897138 0.145823 -0.701444 0.697648
0.092994 0.246687 0.526637 0.000000 -1.000000 0.000000
0.146930 0.127561 0.439899 0.997648 0.068465 -0.003190
0.102548 0.144842 0.256903 -0.916987 0.388989 -0.088448
0.124565 0.246687 0.395223 0.000000 1.000000 0.000000
0.147494 0.117816 0.549769 0.938962 0.339535 0.055370
0.145209 0.161582 0.486339 0.962798 0.265568 0.049942
0.151095 0.246687 0.062051 0.000000 1.000000 0.000000
0.130184 0.246687 0.114357 0.000000 -1.000000 0.000000
0.141986 0.246687 0.182572 0.000000 1.000000 0.000000
0.100304 0.124632 0.461116 -0.992610 0.121264 -0.004624
0.104515 0.162449 0.255155 -0.840461 0.526772 -0.127031
0.097725 0.093543 0.707254 -0.810584 -0.584466 0.036780
0.133083 0.246687 0.272690 0.000000 1.000000 0.000000
0.155229 0.246687 0.144235 0.000000 1.000000 0.000000
0.099334 0.115968 0.482748 -0.996230 0.086651 0.004249
0.133506 0.246687 0.039756 0.000000 -1.000000 0.000000
0.058824 0.027502 0.481543 -0.949397 -0.307622 0.063353
0.205863 0.103019 0.413309 0.447028 -0.886906 -0.116462
0.110320 0.129508 0.536654 -0.757612 0.595473 0.267275
0.106150 0.090936 0.656162 -0.911667 -0.407399 0.053753
0.132141 0.246687 0.354610 0.000000 1.000000 0.000000
0.104162 0.159058 0.453050 -0.986664 0.157471 -0.041185
0.118369 0.149097 0.852749 -0.999808 0.004436 0.019063
0.103801 0.156053 0.273978 -0.890463 0.444633 -0.096832
0.130594 0.064882 0.552639 0.308259 -0.948394 0.074333
0.144715 0.076037 0.225852 0.914284 -0.385216 -0.125271
0.101246 0.133023 0.439454 -0.985699 0.167470 -0.018732
0.124708 0.246687 0.285517 0.000000 1.000000 0.000000
0.091517 0.246687 0.663657 0.000000 1.000000 0.000000
0.153843 0.246687 0.278172 0.000000 1.000000 0.000000
0.105586 0.159586 0.531918 -0.823150 0.517388 0.233953
0.134892 0.160641 0.548214 0.618628 0.677451 0.397945
0.135294 0.068773 0.580837 0.524186 -0.847182 0.086671
0.098140 0.105326 0.383380 -0.910390 -0.411702 -0.041133
0.147295 0.119772 0.544790 0.938849 0.339298 0.058649
0.148805 0.110987 0.250363 0.990593 0.125355 -0.054870
0.149021 0.097460 0.548628 0.994394 -0.090603 0.054518
0.134189 0.101125 0.802029 0.989008 -0.042624 0.141582
0.068379 0.029830 0.345264 0.928404 -0.371427 -0.010390
0.099169 0.092509 0.401541 -0.980086 -0.191974 -0.050761
0.108335 0.104969 0.716772 -0.993501 0.058741 0.097495
0.148138 0.246687 0.150543 0.000000 -1.000000 0.000000
0.179222 0.028012 0.374361 -0.894906 -0.446167 0.008892
0.060287 0.025131 0.395677 -0.581642 -0.813440 0.002773
0.105163 0.078994 0.200140 -0.862893 -0.416478 -0.286291
0.099387 0.094157 0.556120 -0.990428 -0.126264 0.055764
0.099240 0.091971 0.502292 -0.999383 0.004106 0.034883
0.068194 0.034697 0.466027 0.969452 0.240304 0.049163
0.146849 0.246687 0.104561 0.000000 1.000000 0.000000
0.126691 0.098871 0.867289 0.403374 -0.692649 0.597935
0.126711 0.061888 0.531863 0.126853 -0.989958 0.062378
0.104806 0.066282 0.354481 -0.411405 -0.902282 0.128970
0.142031 0.116443 0.645555 0.940291 0.328269 0.089959
0.144961 0.123400 0.577122 0.865845 0.496561 0.061157
0.121988 0.192649 0.938164 0.017950 -0.006175 0.999820
0.103373 0.152236 0.247656 -0.878040 0.465048 -0.113027
0.119069 0.131875 0.873745 -0.548762 -0.326321 0.769659
0.104781 0.164810 0.293715 -0.874933 0.474388 -0.097207
0.112853 0.120987 0.709004 -0.655166 0.755418 -0.010056
0.087153 0.184529 0.851717 1.000000 0.000000 0.000000
0.099942 0.121381 0.316727 -0.991901 0.126360 -0.012867
0.098674 0.110069 0.510281 -0.998909 0.042066 0.020258
0.073402 0.102782 0.429573 -0.818632 -0.556916 0.140307
0.145330 0.246687 0.280021 0.000000 -1.000000 0.000000
0.062697 0.044646 0.348078 -0.510136 0.834884 0.206713
0.100853 0.091544 0.225129 -0.958591 -0.248497 -0.139115
0.150753 0.246687 0.125643 0.000000 -1.000000 0.000000
0.140573 0.119379 0.662233 0.872762 0.484118 0.062580
0.123018 0.131304 0.907282 0.045256 -0.588441 0.807273
0.143736 0.073739 0.568641 0.849396 -0.523783 0.064640
0.127061 0.139676 0.891324 0.542085 -0.339744 0.768582
0.188747 0.033284 0.286080 0.993603 0.112924 -0.001306
0.136085 0.155839 0.229932 0.669074 0.685360 -0.287439
0.118391 0.125552 0.640711 -0.191414 0.978480 0.077050
0.108288 0.157734 0.232959 -0.683563 0.691643 -0.233176
0.109998 0.123666 0.625212 -0.525201 0.850376 0.031994
0.132898 0.075794 0.191311 0.674365 -0.540389 -0.503202
0.098798 0.095330 0.240927 -0.980168 -0.191934 -0.049314
0.099550 0.117567 0.523178 -0.989228 0.117106 0.087826
0.121677 0.086357 0.811558 -0.069211 -0.979595 0.188689
0.061951 0.025151 0.432214 -0.377390 -0.925842 0.019847
0.106306 0.246687 0.495558 0.000000 -1.000000 0.000000
0.187404 0.034645 0.351087 0.718601 0.439801 -0.538692
0.057685 0.105847 0.418964 -0.653158 0.749629 0.106959
0.149113 0.108114 0.322311 0.999162 -0.039179 -0.011824
0.148795 0.095488 0.471780 0.996250 -0.070730 0.049829
0.102614 0.066981 0.449203 -0.397233 -0.916365 -0.049808
0.119575 0.246687 0.587967 0.000000 -1.000000 0.000000
0.124341 0.119950 0.173234 0.119052 0.842014 -0.526156
0.152910 0.246687 0.033016 0.000000 1.000000 0.000000
0.105946 0.076369 0.192263 -0.801667 -0.519330 -0.296018
0.188747 0.028468 0.361251 0.914698 -0.402951 -0.030964
0.134940 0.079177 0.700991 0.701639 -0.702797 0.117386
0.068433 0.033248 0.262146 0.988823 -0.120829 -0.087344
0.161714 0.096280 0.712237 0.628368 0.776520 0.046595
0.058824 0.031512 0.381659 -0.996672 0.062237 0.052644
0.058824 0.034268 0.367664 -0.933524 0.354798 0.051499
0.116093 0.070762 0.616845 -0.471547 -0.877022 0.092063
0.106190 0.088941 0.651013 -0.901596 -0.429116 0.054638
0.100365 0.103392 0.216647 -0.994176 0.037083 -0.101192
0.036745 0.106671 0.406230 -0.561968 0.816173 -0.134365
0.107341 0.246687 0.715073 0.000000 -1.000000 0.000000
0.139894 0.080662 0.650687 0.849574 -0.520322 0.086541
0.099347 0.246687 0.511316 0.000000 1.000000 0.000000
0.154616 0.246687 0.267794 0.000000 -1.000000 0.000000
0.144643 0.148186 0.270474 0.938302 0.328278 -0.108733
0.099995 0.086245 0.445892 -0.999382 -0.032568 -0.013232
0.135110 0.246687 0.348723 0.000000 1.000000 0.000000
0.059356 0.034638 0.355150 -0.483438 0.875309 -0.011026
0.099576 0.118246 0.258840 -0.986135 0.163745 -0.026938
0.146993 0.246687 0.309528 0.000000 -1.000000 0.000000
0.154864 0.246687 0.036472 0.000000 1.000000 0.000000
0.139939 0.178263 0.434384 0.889608 0.456651 0.008240
0.135925 0.064100 0.395104 0.467015 -0.883535 -0.035542
0.059398 0.025080 0.302009 -0.537931 -0.841880 -0.043233
0.138300 0.246687 0.182385 0.000000 -1.000000 0.000000
0.087153 0.184478 0.839761 -1.000000 0.000000 0.000000
0.103223 0.099122 0.632306 -0.982739 0.181216 0.037204
0.101970 0.139437 0.416353 -0.971569 0.233249 -0.040609
0.025022 0.100962 0.426454 -0.995012 0.026586 0.096146
0.125523 0.087102 0.818412 0.325237 -0.918280 0.225795
0.123722 0.095429 0.889152 0.058641 -0.793723 0.605446
0.119860 0.246687 0.773744 0.000000 -1.000000 0.000000
0.143264 0.107179 0.646837 0.989747 0.110229 0.090834
0.101823 0.138295 0.313392 -0.970980 0.237215 -0.030448
0.116974 0.175023 0.361278 -0.413875 0.903883 -0.108180
0.100393 0.083230 0.488870 -0.998518 -0.030408 0.045145
0.099655 0.115952 0.536270 -0.941015 0.333855 0.055056
0.105086 0.167523 0.339863 -0.911074 0.407760 -0.060631
0.134152 0.167943 0.521842 0.371178 0.887040 0.274567
0.121389 0.246687 0.497878 0.000000 1.000000 0.000000
0.124888 0.134871 0.555149 0.181417 -0.745292 0.641582
0.098225 0.106124 0.291103 -0.998889 0.044509 -0.015490
0.114947 0.125362 0.620511 -0.320334 0.944041 0.078570
0.138732 0.246687 0.106941 0.000000 1.000000 0.000000
0.121289 0.184019 0.497293 -0.228665 0.923470 0.308083
0.122536 0.072135 0.171778 -0.818388 -0.305545 -0.486706
0.204621 0.103010 0.433339 0.339766 0.885922 0.315755
0.122409 0.060667 0.265137 -0.021036 -0.999652 -0.015921
0.127059 0.101099 0.865619 0.458164 -0.656650 0.599080
0.128556 0.085972 0.800684 0.587944 -0.795483 0.146727
0.101926 0.071620 0.446122 -0.908843 -0.406882 -0.091935
0.087153 0.184662 0.840671 -1.000000 0.000000 0.000000
0.120733 0.246687 0.800093 0.000000 -1.000000 0.000000
0.147313 0.084256 0.467492 0.992754 -0.081708 0.088105
0.115495 0.063004 0.524882 -0.375922 -0.924984 0.055563
0.144376 0.066796 0.357192 0.641740 -0.765070 0.053259
0.116450 0.246687 0.574274 0.000000 1.000000 0.000000
0.101966 0.071322 0.410692 -0.944436 -0.324623 -0.051583
0.158483 0.246687 0.261475 0.000000 -1.000000 0.000000
0.179739 0.056830 0.464612 0.133061 0.413735 0.900621
0.058919 0.037682 0.255390 -0.990125 0.131145 -0.049528
0.148218 0.116094 0.413741 0.946133 0.323358 0.016469
0.108397 0.065137 0.388168 -0.552815 -0.833262 -0.008408
0.142946 0.140674 0.539108 0.970784 0.095764 0.220016
0.139295 0.128924 0.533031 0.853664 0.487309 0.183817
0.145233 0.142756 0.451706 0.993665 0.108673 -0.028635
0.112617 0.246687 0.703630 0.000000 -1.000000 0.000000
0.133881 0.121854 0.693819 0.692430 0.717133 0.079122
0.115566 0.062850 0.343636 -0.126861 -0.989862 0.063867
0.099049 0.093483 0.307634 -0.994095 -0.097680 -0.047263
0.099951 0.086599 0.240127 -0.953404 -0.297332 -0.051138
0.100546 0.246687 0.670660 0.000000 1.000000 0.000000
0.119291 0.246687 0.641548 0.000000 -1.000000 0.000000
0.126918 0.061227 0.506313 0.108487 -0.993682 0.028762
0.100754 0.080492 0.439670 -0.960296 -0.260945 -0.098691
0.146766 0.125772 0.538153 0.951176 0.294820 0.091356
0.117105 0.138496 0.851366 -0.870073 0.132300 0.474836
0.090138 0.246687 0.671988 0.000000 1.000000 0.000000
0.123511 0.060316 0.479196 0.006324 -0.999061 0.042871
0.102796 0.117291 0.599297 -0.892571 0.448574 0.045817
0.168159 0.095629 0.722926 0.563323 0.820837 0.094309
0.142294 0.169212 0.338198 0.842906 0.532576 -0.076634
0.099446 0.246687 0.801509 0.000000 1.000000 0.000000
0.120882 0.061154 0.252703 -0.059564 -0.997596 -0.035417
0.025054 0.097790 0.414210 -0.702102 -0.712074 -0.002010
0.120120 0.171113 0.901494 -0.384881 0.100056 0.917527
0.119338 0.160281 0.871016 -0.948665 0.216834 0.230255
0.124922 0.198815 0.925774 0.553514 0.803690 0.218416
0.104775 0.154525 0.530974 -0.944979 0.250977 0.209820
0.144627 0.097564 0.623495 0.988629 -0.143640 0.044511
0.194056 0.103562 0.433047 0.419605 0.867357 0.267626
0.150965 0.246687 0.324033 0.000000 -1.000000 0.000000
0.107652 0.133897 0.540848 -0.907798 -0.176676 0.380379
0.158043 0.246687 0.243759 0.000000 -1.000000 0.000000
0.157459 0.246687 0.293082 0.000000 -1.000000 0.000000
0.129671 0.075562 0.677759 0.346417 -0.931418 0.111606
0.126544 0.085681 0.804223 0.426410 -0.892434 0.147430
0.100337 0.083723 0.264646 -0.967345 -0.245969 -0.061174
0.107961 0.246687 0.616209 0.000000 1.000000 0.000000
