0.201982 0.394881 0.156100 0.591536 -0.036414 0.805456
0.168276 0.353720 0.139836 -0.762555 -0.058308 0.644290
0.082133 0.385269 0.113678 -0.937056 -0.114782 -0.329775
0.125346 0.967227 0.104967 -0.299578 0.830335 -0.469891
0.218752 0.606653 0.122586 0.957000 0.163504 -0.239618
0.163483 0.226936 0.087257 -0.952820 0.014015 -0.303213
0.096527 0.915281 0.120682 -0.900523 -0.398633 0.173639
0.266807 0.709780 0.116820 0.924479 0.369606 -0.093439
0.235354 0.791866 0.079606 0.163629 0.301892 -0.939195
0.144611 0.464009 0.096635 0.467659 -0.304596 -0.829769
0.197433 0.334235 0.144165 0.583952 -0.128194 0.801602
0.048166 0.788878 0.135786 -0.695042 0.213020 0.686687
0.069982 0.602059 0.127763 -0.978550 0.170775 -0.115223
0.126479 0.663490 0.170747 -0.116858 -0.082909 0.989682
0.194589 0.925562 0.129844 0.999627 0.026969 -0.004373
0.123920 0.402621 0.160040 0.266211 -0.185500 0.945897
0.040380 0.694398 0.070608 -0.331761 0.157478 -0.930127
0.114991 0.237919 0.145385 0.221707 -0.076374 0.972118
0.150287 0.974534 0.120995 0.050245 0.997980 -0.038889
0.244449 0.756473 0.133445 0.543545 0.351833 0.762084
0.047712 0.629935 0.063887 0.179397 -0.482242 -0.857472
0.084533 0.724951 0.173879 -0.507366 -0.043621 0.860626
0.245956 0.676964 0.095550 -0.184599 -0.099461 -0.977768
0.088542 0.672966 0.094022 -0.613043 -0.238140 -0.753305
0.132326 0.216012 0.118772 0.999133 -0.022809 -0.034827
0.202367 0.189805 0.071518 0.806761 0.093968 -0.583358
0.208156 0.253940 0.115753 0.815134 -0.173350 0.552726
0.181719 0.148820 0.098339 -0.117574 -0.267471 0.956366
0.083874 0.425975 0.154445 -0.521804 -0.041281 0.852066
0.085849 0.282508 0.117285 -0.961657 0.000140 -0.274256
0.150301 0.443886 0.116963 -0.545653 -0.789187 -0.281864
0.162441 0.554648 0.173032 0.080610 -0.061434 0.994851
0.071468 0.700117 0.150414 -0.913361 -0.162806 0.373183
0.152587 0.572935 0.079127 0.053335 0.169942 -0.984010
0.120654 0.080722 0.131674 0.967249 0.224085 0.119226
0.200216 0.608572 0.158607 0.530586 0.067209 0.844962
0.207458 0.703391 0.165630 0.718190 -0.096898 0.689068
0.087593 0.251899 0.135474 -0.824887 -0.081434 0.559401
0.090531 0.469206 0.159629 -0.454577 -0.043494 0.889645
0.146058 0.477438 0.136604 -0.069635 -0.996156 0.053139
0.103596 0.494607 0.076773 -0.234788 -0.030937 -0.971554
0.131738 0.475591 0.079640 0.071655 -0.102099 -0.992190
0.059328 0.646159 0.083280 0.997594 -0.064962 -0.024202
0.115553 0.575785 0.173346 -0.251623 0.038326 0.967066
0.068771 0.704971 0.122066 -0.974864 -0.200067 -0.098053
0.223679 0.573855 0.119384 0.961842 0.123227 -0.244286
0.228499 0.696163 0.134106 -0.775097 0.067439 0.628233
0.163747 0.039369 0.117116 -0.831043 0.488604 0.265770
0.209923 0.370284 0.115977 0.992584 -0.101917 -0.066256
0.201189 0.748256 0.182173 0.360722 0.132776 0.923174
0.174205 0.414302 0.080798 -0.013241 -0.123952 -0.992200
0.105240 0.918853 0.092967 -0.757049 0.044437 -0.651845
0.093608 0.164905 0.102125 -0.797212 -0.036536 -0.602593
0.061895 0.534750 0.125312 -0.999206 0.014035 -0.037282
0.070670 0.679656 0.138067 -0.977951 -0.148058 0.147280
0.162684 0.385532 0.112974 -0.908250 -0.030252 -0.417333
0.247537 0.575401 0.128102 -0.567791 -0.290795 -0.770098
0.202334 0.315342 0.096145 0.797419 0.149395 -0.584640
0.077960 0.817161 0.125020 -0.545108 0.685856 0.482139
0.195750 0.410480 0.159238 0.443412 -0.035181 0.895627
0.224368 0.705056 0.124205 -0.984606 0.053300 0.166464
0.175626 0.372063 0.146805 -0.567249 -0.071431 0.820443
0.164851 0.524957 0.169789 0.030649 -0.108289 0.993647
0.084622 0.529128 0.090292 -0.593868 0.023368 -0.804223
0.044400 0.789085 0.123389 -0.824925 0.325043 0.462434
0.129064 0.356170 0.139951 0.843515 -0.026388 0.536457
0.053921 0.772958 0.078136 0.543184 0.348790 -0.763739
0.168181 0.682387 0.172104 0.105715 -0.082996 0.990927
0.180197 0.494449 0.074267 0.271964 -0.034181 -0.961700
0.164103 0.854187 0.094597 0.644703 0.482797 -0.592676
0.038228 0.648889 0.055678 -0.487047 -0.079438 -0.869755
0.093043 0.436429 0.159488 -0.367636 -0.053734 0.928416
0.202694 0.337858 0.096486 0.642609 -0.059195 -0.763904
0.113374 0.454924 0.166398 -0.132786 -0.088441 0.987191
0.129338 0.228713 0.106841 0.889059 -0.011996 -0.457636
0.120282 0.969035 0.137133 -0.302595 0.920704 0.246457
0.171396 0.264688 0.076382 -0.475916 0.178582 -0.861169
0.210532 0.630125 0.151274 0.775526 -0.054283 0.628978
0.057473 0.684972 0.099942 0.338965 -0.204216 0.918367
0.200118 0.133925 0.064788 0.841976 0.066735 -0.535371
0.051242 0.630058 0.099593 0.418281 0.334415 0.844516
0.114018 0.739188 0.069909 -0.051474 -0.001586 -0.998673
0.160311 0.722526 0.180455 0.065711 -0.002472 0.997836
0.131428 0.610146 0.090451 -0.120800 0.157195 -0.980152
0.240460 0.579717 0.148180 -0.997171 -0.035160 0.066440
0.175909 0.082676 0.059490 -0.977057 0.206522 -0.052039
0.091216 0.403817 0.091373 -0.631369 -0.040305 -0.774434
0.114478 0.883596 0.108416 -0.942080 -0.331007 0.054037
0.213652 0.672994 0.149514 0.893323 -0.060477 0.445328
0.261263 0.618007 0.119942 0.576675 -0.291389 -0.763242
0.144338 0.929632 0.173159 -0.003644 0.155170 0.987881
0.247701 0.618513 0.147550 -0.480928 0.188523 0.856252
0.210133 0.313040 0.127370 0.927516 -0.118280 0.354575
0.095127 0.789479 0.072439 -0.010977 0.121970 -0.992473
0.146252 0.510750 0.162758 -0.037486 -0.371029 0.927864
0.102376 0.062897 0.091717 -0.787947 0.294457 -0.540773
0.151241 0.480336 0.076288 -0.142516 -0.163226 -0.976241
0.068325 0.590458 0.125592 -0.980105 0.150638 -0.129242
0.143929 0.969087 0.147802 -0.005321 0.941786 0.336170
0.224160 0.578661 0.121912 0.972162 0.122458 -0.199760
0.175237 0.311544 0.141971 -0.595401 -0.175903 0.783936
0.108214 0.198456 0.096444 0.064762 -0.018401 -0.997731
0.204368 0.407602 0.145030 0.442155 -0.108841 0.890310
0.110921 0.172760 0.097424 0.188124 -0.025282 -0.981820
0.152523 0.571779 0.175936 0.050884 -0.003002 0.998700
0.079590 0.495046 0.095768 -0.701890 -0.011377 -0.712195
0.214045 0.724264 0.165162 0.849216 -0.068577 0.523573
0.053842 0.560899 0.131604 0.983868 -0.129940 -0.122960
0.207830 0.824689 0.112375 0.593934 0.680378 0.429333
0.116132 0.173738 0.097380 0.368258 -0.024365 -0.929404
0.228251 0.761061 0.084999 -0.142486 0.160230 -0.976742
0.044215 0.764342 0.073475 0.005342 0.469138 -0.883108
0.065265 0.704313 0.086349 0.960318 0.042307 -0.275680
0.201307 0.063802 0.072009 0.862571 0.502533 -0.058581
0.088989 0.352343 0.141536 -0.792291 -0.034912 0.609143
0.221416 0.575044 0.115106 0.924480 0.132071 -0.357623
0.097551 0.103599 0.101577 -0.893086 -0.013251 -0.449691
0.149356 0.452553 0.120591 -0.475779 -0.846063 -0.240443
0.262677 0.673373 0.100756 0.487597 0.044693 -0.871924
0.116219 0.251576 0.145608 0.250234 -0.085744 0.964381
0.053477 0.772412 0.114792 0.771749 0.535514 0.342970
0.216657 0.446955 0.099539 0.758930 -0.002976 -0.651165
0.182294 0.167650 0.104387 -0.111599 -0.272269 0.955728
0.153511 0.831784 0.134064 0.179931 0.369057 0.911823
0.178307 0.398622 0.162409 0.123001 -0.053054 0.990987
0.112069 0.887919 0.099343 -0.881472 -0.437592 -0.177542
0.086219 0.214074 0.130812 -0.891814 -0.071770 0.446674
0.052694 0.596474 0.094589 0.730074 -0.370513 -0.574205
0.160441 0.234604 0.096518 -0.997940 -0.050111 -0.040067
0.038744 0.766871 0.107317 -0.887070 0.382773 0.258054
0.052288 0.688376 0.067809 0.460650 0.053349 -0.885977
0.168562 0.583356 0.084026 0.208592 0.173866 -0.962424
0.107336 0.182017 0.097074 0.044285 -0.022760 -0.998760
0.153213 0.952185 0.170635 0.159951 0.635950 0.754972
0.212154 0.280785 0.112625 0.978924 -0.070461 0.191687
0.122427 0.056023 0.163055 0.688948 0.647100 0.326515
0.099552 0.777702 0.166260 -0.125180 0.471555 0.872907
0.127455 0.042500 0.123904 0.934830 0.335822 -0.115391
0.246604 0.783504 0.116621 0.653099 0.548907 0.521692
0.110941 0.292927 0.153806 0.013128 -0.080059 0.996704
0.043073 0.667773 0.098259 -0.469566 -0.083152 0.878973
0.094188 0.320772 0.101364 -0.534172 0.045485 -0.844151
0.107409 0.181118 0.097108 0.047873 -0.023006 -0.998588
0.120524 0.077879 0.120005 0.931672 0.148154 -0.331720
0.172210 0.880376 0.155136 0.864663 -0.363399 0.346842
0.086301 0.665999 0.098669 -0.677473 -0.216837 -0.702860
0.077787 0.717972 0.081710 -0.525714 -0.241939 -0.815530
0.105092 0.587194 0.168869 -0.376937 0.061420 0.924200
0.252575 0.685099 0.092027 0.176554 -0.023619 -0.984007
0.033068 0.640127 0.067134 -0.831459 -0.267394 -0.487007
0.165172 0.862952 0.125388 0.919416 -0.303327 0.250335
0.220008 0.430367 0.142088 0.911599 -0.024133 0.410371
0.184574 0.187039 0.063280 0.072653 0.179320 -0.981104
0.206512 0.766458 0.071983 0.111662 0.045005 -0.992727
0.098101 0.079805 0.106768 -0.994344 0.085711 -0.062720
0.172775 0.247015 0.073401 -0.419104 0.179671 -0.889983
0.127992 0.043635 0.159330 0.931143 0.361410 0.048532
0.098049 0.411529 0.086967 -0.494282 -0.041095 -0.868330
0.213114 0.256452 0.103208 0.993667 -0.055466 0.097718
0.130066 0.176199 0.128299 0.950026 -0.021841 0.311405
0.086332 0.393366 0.139077 -0.860064 -0.051456 0.507585
0.214277 0.438387 0.151973 0.736266 -0.028149 0.676106
0.177322 0.892062 0.139944 0.921369 -0.352663 0.163425
0.086630 0.233669 0.133008 -0.866599 -0.076028 0.493179
0.074568 0.468559 0.099791 -0.804570 -0.014804 -0.593673
0.138808 0.532168 0.171550 -0.123034 -0.127039 0.984237
0.169501 0.202315 0.068891 -0.729735 0.111007 -0.674658
0.175327 0.757956 0.071152 0.046845 0.055853 -0.997339
0.109611 0.516396 0.168628 -0.245566 -0.066601 0.967089
0.123675 0.144861 0.130390 0.861417 -0.014373 0.507695
0.127017 0.185872 0.131923 0.816631 -0.023154 0.576695
0.120714 0.217423 0.095705 0.487047 -0.012883 -0.873281
0.145872 0.490041 0.151309 0.002059 -0.741922 0.670483
0.180323 0.035555 0.153997 -0.336056 0.745363 0.575760
0.101161 0.731118 0.070109 -0.089957 -0.058672 -0.994216
0.148013 0.966371 0.152168 0.049322 0.908317 0.415364
0.111686 0.410616 0.083734 -0.194348 -0.064260 -0.978826
0.073281 0.639188 0.133294 -0.993966 -0.105858 0.028732
0.192412 0.253528 0.127608 0.210822 -0.284370 0.935247
0.092985 0.416473 0.089937 -0.581438 -0.037804 -0.812712
0.251605 0.525426 0.144590 -0.443143 -0.307758 -0.841968
0.187512 0.646239 0.170222 0.275268 -0.054201 0.959838
0.192838 0.496715 0.075483 0.398692 0.004688 -0.917073
0.187328 0.586597 0.169161 0.310563 0.015313 0.950430
0.131217 0.237220 0.110735 0.947120 -0.018505 -0.320346
0.113906 0.119767 0.136020 0.445825 -0.003238 0.895114
0.064614 0.727236 0.103765 0.815821 -0.041344 -0.576824
0.208317 0.330451 0.117274 0.968301 -0.105477 -0.226423
0.160612 0.844549 0.088766 0.044727 0.390206 -0.919640
0.144872 0.438643 0.120399 0.501506 -0.736308 -0.454248
0.153545 0.394170 0.108889 -0.920567 -0.348386 -0.176586
0.188820 0.585108 0.168610 0.332906 0.018714 0.942774
0.227413 0.450711 0.129126 0.999854 -0.017015 -0.001585
0.169479 0.203692 0.068964 -0.724655 0.112937 -0.679794
0.242154 0.759322 0.136211 0.492745 0.313462 0.811754
0.088985 0.047330 0.182263 -0.716739 0.681330 0.148576
0.100553 0.298150 0.098849 -0.325615 0.042940 -0.944527
0.111046 0.933800 0.091015 -0.630259 0.227150 -0.742412
0.097615 0.046290 0.200700 -0.288091 0.885575 0.364362
0.186733 0.515386 0.072698 0.354620 0.000756 -0.935010
0.175541 0.967548 0.123160 0.502333 0.856838 -0.116148
0.052017 0.493556 0.180627 -0.851630 -0.495036 0.172234
0.073688 0.620212 0.129651 -0.996507 -0.013884 -0.082353
0.226103 0.519157 0.116604 0.976164 0.010814 -0.216765
0.247561 0.636992 0.143076 -0.468854 0.164179 0.867883
0.216792 0.542424 0.100699 0.793342 0.074620 -0.604186
0.095739 0.077152 0.125517 -0.931610 0.153099 0.329643
0.200092 0.111779 0.080347 0.963232 -0.065504 0.260564
0.229147 0.524934 0.123457 0.998542 0.009477 -0.053137
0.211567 0.547433 0.156198 0.603621 0.008782 0.797223
0.176642 0.906662 0.162836 0.834477 -0.141367 0.532601
0.256967 0.481495 0.163370 0.925601 -0.372073 -0.069463
0.213649 0.595594 0.107380 0.771093 0.143358 -0.620375
0.174044 0.199127 0.065331 -0.525406 0.149714 -0.837576
0.122826 0.110748 0.111946 0.867761 -0.011186 -0.496856
0.170123 0.172009 0.095359 -0.797628 -0.202663 0.568083
0.223744 0.745166 0.084143 -0.256237 0.040430 -0.965768
0.100162 0.584112 0.166305 -0.452530 0.062390 0.889564
0.208569 0.705742 0.080085 0.440267 -0.237714 -0.865827
0.173282 0.703384 0.173737 0.142621 -0.098167 0.984897
0.180803 0.272110 0.078715 -0.168274 0.207509 -0.963651
0.177754 0.890940 0.122224 0.907363 -0.408604 0.098672
0.045139 0.810800 0.099549 -0.640747 0.753408 -0.147713
0.183421 0.181077 0.109342 -0.058533 -0.273725 0.960025
0.122701 0.446629 0.084275 0.078330 -0.086701 -0.993150
0.144737 0.472607 0.156759 0.234521 -0.476520 0.847306
0.084475 0.262355 0.113543 -0.954481 -0.031991 -0.296553
0.126044 0.151814 0.129117 0.917056 -0.016513 0.398417
0.117708 0.522531 0.169469 -0.216461 -0.084715 0.972609
0.257942 0.517832 0.147780 0.704054 -0.242742 -0.667372
0.067692 0.421274 0.122550 -0.998746 -0.034330 0.036443
0.205842 0.648419 0.102706 0.824962 -0.142701 -0.546876
0.113371 0.950792 0.158567 -0.637478 0.338116 0.692314
0.207488 0.276038 0.121977 0.820990 -0.172618 0.544223
0.217139 0.684162 0.137770 0.985604 -0.061505 0.157485
0.105683 0.080642 0.095883 -0.594274 0.121310 -0.795061
0.042094 0.522429 0.139537 0.765992 -0.336276 -0.547882
0.118721 0.911803 0.169742 -0.571652 0.008283 0.820454
0.209464 0.388247 0.110810 0.984127 -0.095857 -0.149351
0.215033 0.807956 0.133506 0.412170 0.667177 0.620476
0.071138 0.463375 0.140427 -0.894096 -0.029925 0.446874
0.262579 0.678533 0.122352 0.924508 0.167253 0.342507
0.048717 0.594788 0.092580 0.541488 -0.451039 -0.709475
0.242100 0.757582 0.083839 0.173455 0.209728 -0.962251
0.076764 0.611590 0.143364 -0.926274 0.137875 0.350724
0.086944 0.785084 0.072370 -0.025509 0.107448 -0.993883
0.147101 0.498019 0.144518 -0.274849 -0.883552 0.379201
0.143251 0.525306 0.171445 -0.097273 -0.144293 0.984742
0.125883 0.637945 0.169403 -0.165093 -0.061328 0.984369
0.082408 0.376011 0.115621 -0.958627 -0.107180 -0.263715
0.229367 0.710473 0.088259 -0.315854 -0.069114 -0.946287
0.161484 0.800887 0.150133 0.052302 0.497822 0.865700
0.241410 0.610571 0.144626 -0.914216 0.054390 0.401560
0.122199 0.060480 0.153901 0.815528 0.531677 0.228548
0.069478 0.450807 0.136929 -0.926389 -0.031375 0.375258
0.092545 0.829174 0.114925 -0.611729 0.692389 0.382604
0.246040 0.799872 0.097614 0.715465 0.690960 -0.103362
0.210372 0.685669 0.095878 0.778885 -0.195657 -0.595867
0.212145 0.329598 0.131221 0.975057 -0.112998 0.191040
0.211316 0.647226 0.107617 0.905306 -0.105330 -0.411494
0.126719 0.413898 0.139510 0.573840 -0.008648 0.818921
0.050124 0.616162 0.076577 0.464616 -0.451638 -0.761679
0.065049 0.696469 0.093782 0.999691 -0.003707 -0.024579
0.194370 0.359902 0.093796 0.412510 -0.056842 -0.909178
0.099267 0.097863 0.097734 -0.836777 0.010538 -0.547442
0.121958 0.259831 0.094256 0.506426 -0.001175 -0.862283
0.172499 0.418689 0.162309 -0.019916 -0.064382 0.997727
0.077599 0.388730 0.131022 -0.972887 -0.067809 0.221116
0.130969 0.559123 0.174623 -0.107500 -0.008174 0.994171
0.163877 0.957154 0.095552 0.400553 0.597507 -0.694653
0.194971 0.535186 0.164522 0.326071 -0.027386 0.944948
0.099006 0.123135 0.099338 -0.698620 -0.041284 -0.714300
0.175994 0.906404 0.164170 0.806575 -0.130096 0.576639
0.075015 0.651243 0.143737 -0.957670 -0.118429 0.262379
0.079513 0.508220 0.155239 -0.679334 -0.025487 0.733387
0.050365 0.657128 0.063650 0.325574 0.026404 -0.945148
0.117473 0.179171 0.138738 0.413486 -0.028886 0.910052
0.096381 0.059473 0.157753 -0.604404 0.684816 0.407091
0.094454 0.568364 0.087818 -0.407032 0.189021 -0.893642
0.202612 0.431730 0.087466 0.523223 -0.022693 -0.851893
0.078902 0.726416 0.172057 -0.641470 -0.053846 0.765256
0.092537 0.441404 0.089301 -0.553085 -0.031300 -0.832537
0.090295 0.411611 0.142703 -0.769985 -0.046506 0.636365
0.164570 0.827021 0.131657 0.294463 0.508558 0.809111
0.032489 0.698315 0.101126 -0.898679 0.086705 0.429950
0.142509 0.411666 0.144226 0.647062 -0.615439 0.450050
0.165863 0.055919 0.070955 -0.887455 0.456336 -0.064671
0.151449 0.958953 0.093400 0.197305 0.673487 -0.712380
0.110446 0.704117 0.074242 -0.182121 -0.211148 -0.960338
0.150860 0.873770 0.173619 0.166268 -0.237900 0.956953
0.218224 0.422800 0.104125 0.803913 -0.013069 -0.594603
0.182431 0.571635 0.172299 0.262387 0.004386 0.964953
0.110353 0.966620 0.121582 -0.606342 0.778515 -0.162061
0.216417 0.561685 0.102563 0.786011 0.114918 -0.607437
0.109968 0.078143 0.144974 0.276319 0.573945 0.770866
0.074180 0.711910 0.092484 -0.749645 -0.244896 -0.614865
0.120935 0.402655 0.145324 0.385967 -0.005037 0.922499
0.124029 0.171661 0.132948 0.743719 -0.019178 0.668217
0.050956 0.525505 0.160308 0.924674 -0.280992 -0.256948
0.136037 0.674112 0.173072 -0.062151 -0.089721 0.994026
0.183094 0.335968 0.151596 -0.007982 -0.102735 0.994677
0.128695 0.882179 0.084547 -0.307014 -0.133448 -0.942302
0.146246 0.489691 0.111442 -0.065739 -0.831531 -0.551574
0.216340 0.699458 0.144146 0.971842 -0.079132 0.221949
0.148040 0.477992 0.113494 -0.261748 -0.852027 -0.453362
0.038959 0.759575 0.112866 -0.884207 0.289055 0.366913
0.128259 0.800319 0.072446 0.001999 0.125892 -0.992042
0.230566 0.674720 0.100331 -0.867660 -0.171675 -0.466577
0.125295 0.531567 0.170825 -0.175307 -0.084409 0.980889
0.160112 0.715065 0.071345 0.057891 -0.148712 -0.987185
0.259758 0.503886 0.154898 0.984994 -0.085298 -0.150037
0.067196 0.513239 0.138846 -0.941225 -0.019668 0.337207
0.089612 0.746613 0.183924 -0.281806 0.130816 0.950512
0.112728 0.105944 0.098778 0.163030 0.002536 -0.986618
0.109557 0.897985 0.152803 -0.949475 -0.208212 0.234831
0.196998 0.065847 0.039997 0.847187 0.374974 -0.376390
0.214387 0.421131 0.097780 0.714997 -0.014625 -0.698974
0.164683 0.179518 0.093573 -0.901989 -0.156764 0.402296
0.190197 0.694932 0.076226 0.223095 -0.223157 -0.948910
0.200257 0.095595 0.072552 0.980017 0.126939 -0.153144
0.183904 0.414634 0.080188 0.160108 -0.076109 -0.984161
0.142475 0.970877 0.141235 -0.017977 0.968976 0.246499
0.205965 0.174295 0.083484 0.998751 -0.030878 -0.039268
0.043192 0.708748 0.065499 -0.331070 0.389217 -0.859594
0.245946 0.483159 0.174268 -0.732750 -0.149616 -0.663846
0.064250 0.728807 0.096398 0.891257 0.041109 -0.451632
0.202033 0.449344 0.085540 0.532253 -0.011026 -0.846514
0.087337 0.393704 0.094034 -0.710501 -0.040799 -0.702512
0.150757 0.601715 0.173208 0.018110 0.048858 0.998642
0.055091 0.692563 0.113995 0.430124 -0.090735 0.898198
0.068641 0.405146 0.122556 -0.997395 -0.037768 0.061450
0.261915 0.597490 0.126568 0.675411 -0.260849 -0.689766
0.067153 0.789760 0.148039 -0.485866 0.477484 0.732081
0.124556 0.176115 0.102450 0.725678 -0.017856 -0.687802
0.189024 0.700338 0.172335 0.226330 -0.087713 0.970093
0.237082 0.684251 0.095335 -0.480418 -0.125010 -0.868084
0.087115 0.580721 0.097110 -0.556910 0.193980 -0.807603
0.065070 0.729020 0.142675 -0.819589 -0.150088 0.552944
0.065901 0.744771 0.162756 -0.557984 -0.002325 0.829848
0.174736 0.109203 0.054100 -0.930157 0.076255 -0.359156
0.063728 0.816221 0.116590 -0.665826 0.672308 0.323539
0.221989 0.739281 0.085189 -0.316452 0.005915 -0.948590
0.177215 0.706894 0.073721 0.160737 -0.200868 -0.966341
0.157924 0.874559 0.173004 0.360445 -0.230377 0.903884
0.061442 0.736568 0.120575 0.848519 0.073360 0.524055
0.107444 0.963362 0.129456 -0.714780 0.699150 -0.016693
0.041387 0.761000 0.087313 -0.805075 0.538759 -0.248180
0.173211 0.572946 0.082512 0.250915 0.182891 -0.950575
0.195219 0.087082 0.041826 0.650421 0.239839 -0.720715
0.050393 0.759313 0.133487 -0.351848 0.119849 0.928353
0.135952 0.640168 0.169309 -0.081083 -0.060560 0.994866
0.105530 0.641484 0.092129 -0.395947 -0.224091 -0.890511
0.125871 0.393536 0.100324 0.929153 -0.080189 -0.360893
0.052862 0.717426 0.067557 0.227631 0.371625 -0.900044
0.048970 0.797733 0.130991 -0.759906 0.329604 0.560271
0.092976 0.437686 0.089260 -0.550569 -0.032331 -0.834163
0.193873 0.926624 0.125974 0.996356 0.051551 -0.067954
0.160225 0.967098 0.104753 0.274670 0.837703 -0.472028
0.030570 0.654575 0.076732 -0.967378 0.037912 -0.250486
0.145319 0.460180 0.134887 0.061625 -0.997933 0.018225
0.070548 0.511794 0.105591 -0.860874 -0.006971 -0.508770
0.099092 0.720836 0.071756 -0.155847 -0.152414 -0.975952
0.258485 0.577494 0.130585 0.578548 -0.283762 -0.764697
0.103305 0.370904 0.093892 -0.055101 -0.155057 -0.986368
0.139994 0.904767 0.175024 -0.186701 0.097065 0.977610
0.156131 0.413747 0.083307 -0.631963 -0.235909 -0.738221
0.173267 0.339428 0.094549 -0.596551 -0.011907 -0.802487
0.208037 0.640287 0.105910 0.875103 -0.113270 -0.470494
0.043040 0.584418 0.123876 -0.418906 0.405263 0.812576
0.249552 0.474503 0.160826 -0.304059 -0.044438 0.951616
0.198300 0.111327 0.062212 0.791581 0.155996 -0.590817
0.213940 0.600603 0.109808 0.792333 0.143581 -0.592952
0.122481 0.801561 0.072695 -0.000146 0.132562 -0.991175
0.061511 0.735608 0.134303 0.290556 -0.004994 0.956845
0.143657 0.414647 0.131076 0.743077 -0.661958 -0.098222
0.219880 0.740039 0.122440 -0.973115 0.229108 -0.023586
0.216023 0.765262 0.165186 0.589882 0.270726 0.760754
0.182535 0.954375 0.105565 0.716912 0.519669 -0.464739
0.083868 0.237074 0.118003 -0.993564 -0.052714 -0.100263
0.198636 0.124070 0.060306 0.741599 0.106324 -0.662364
0.156826 0.959298 0.161798 0.181309 0.781874 0.596489
0.055304 0.769859 0.083933 0.674259 0.307700 -0.671339
0.171385 0.027721 0.144929 -0.612637 0.373515 0.696536
0.153955 0.401041 0.104988 -0.855209 -0.414601 -0.311004
0.239715 0.673360 0.105104 -0.525484 -0.214765 -0.823252
0.214460 0.824814 0.108052 0.627787 0.675770 0.386289
0.208160 0.824300 0.112764 0.590981 0.680531 0.433150
0.097612 0.063357 0.113422 -0.919410 0.283160 -0.272956
0.096267 0.925069 0.122200 -0.996775 -0.001155 -0.080244
0.171261 0.240213 0.072257 -0.486676 0.170376 -0.856807
0.190871 0.393732 0.092655 0.422992 -0.068488 -0.903542
0.205096 0.037991 0.141945 0.556892 0.679265 0.477986
0.187169 0.827316 0.081350 0.128560 0.450271 -0.883588
0.149622 0.466947 0.159371 -0.358529 -0.167006 0.918458
0.046711 0.582566 0.127984 -0.087261 0.473688 0.876359
0.086400 0.572796 0.094841 -0.574054 0.178363 -0.799155
0.210041 0.732521 0.172055 0.721580 -0.007911 0.692286
0.085200 0.811958 0.137764 -0.369517 0.623892 0.688634
0.184037 0.676114 0.079348 0.213895 -0.220284 -0.951695
0.174241 0.713923 0.072374 0.136541 -0.183069 -0.973572
0.067853 0.726321 0.150695 -0.916407 -0.146547 0.372456
0.163483 0.049718 0.085635 -0.898524 0.433976 0.065725
0.162106 0.441696 0.163188 -0.170344 -0.087391 0.981502
0.195807 0.915226 0.125960 0.890031 -0.414413 0.190017
0.116223 0.066020 0.150050 0.595880 0.622026 0.507948
0.223552 0.724967 0.139865 -0.811206 0.200262 0.549399
0.242083 0.523086 0.163619 -0.996269 -0.054504 -0.066909
0.118878 0.699262 0.074539 -0.134832 -0.198842 -0.970712
0.221863 0.723800 0.125801 -0.979936 0.143679 0.138135
0.191938 0.769352 0.171312 0.163821 0.389179 0.906478
0.221151 0.428875 0.113517 0.916991 -0.010997 -0.398756
0.072651 0.695218 0.153903 -0.891422 -0.154502 0.426024
0.240478 0.814058 0.097895 0.644641 0.764451 -0.007337
0.200647 0.505855 0.082388 0.548182 0.015081 -0.836223
0.185923 0.242205 0.072576 0.070891 0.193892 -0.978458
0.219048 0.565674 0.108915 0.863066 0.121191 -0.490337
0.226995 0.548346 0.135933 0.969241 0.046342 0.241712
0.264269 0.603687 0.138863 0.970446 0.010632 0.241086
0.089880 0.321333 0.141936 -0.898418 0.015529 0.438866
0.211520 0.564352 0.099206 0.725530 0.133087 -0.675199
0.209072 0.712211 0.165776 0.761611 -0.099261 0.640387
0.127500 0.225664 0.101876 0.796485 -0.005458 -0.604633
0.080519 0.255349 0.124747 -0.990034 -0.057431 0.128588
0.056769 0.756399 0.122853 0.803866 0.226943 0.549814
0.129120 0.893817 0.173577 -0.410905 -0.043881 0.910622
0.179048 0.900419 0.155355 0.938052 -0.218155 0.269197
0.205647 0.243049 0.114460 0.755085 -0.190754 0.627263
0.212948 0.666955 0.101920 0.868191 -0.142684 -0.475274
0.114574 0.315476 0.100893 0.407588 0.060227 -0.911177
0.228527 0.696227 0.134292 -0.770541 0.068537 0.633694
0.163737 0.399094 0.160630 -0.184239 -0.074129 0.980082
0.233057 0.678711 0.137610 -0.523629 0.007821 0.851910
0.115988 0.033067 0.215281 0.729400 0.313114 0.608224
0.118757 0.068125 0.104900 0.841737 0.217058 -0.494332
0.096556 0.250963 0.141921 -0.522443 -0.095744 0.847282
0.118442 0.807428 0.074444 -0.002854 0.180106 -0.983643
0.071680 0.673831 0.115254 -0.953985 -0.171375 -0.246057
0.162165 0.887194 0.085431 0.334738 -0.081950 -0.938741
0.057656 0.518563 0.179294 -0.355320 -0.917245 -0.180026
0.122082 0.395689 0.088465 0.055518 -0.094493 -0.993976
0.043702 0.498318 0.157617 0.865499 -0.153256 -0.476889
0.176303 0.361515 0.093571 -0.392089 -0.027132 -0.919527
0.077717 0.672942 0.158367 -0.775333 -0.130619 0.617897
0.068824 0.732458 0.163128 -0.830142 -0.103298 0.547899
0.167066 0.726598 0.069999 0.059911 -0.059867 -0.996407
0.113417 0.394109 0.152652 0.110021 -0.001071 0.993929
0.213326 0.672355 0.100780 0.859141 -0.152023 -0.488636
0.222056 0.385389 0.119075 0.945820 -0.030127 -0.323290
0.135410 0.868490 0.085176 -0.234206 -0.191771 -0.953085
0.093641 0.520087 0.163214 -0.458379 -0.040822 0.887819
0.183952 0.223007 0.122137 -0.097502 -0.285213 0.953492
0.173800 0.102225 0.059217 -0.996233 0.045303 -0.073944
0.056892 0.806991 0.078251 0.230742 0.414333 -0.880390
0.189559 0.161982 0.102870 0.259741 -0.248484 0.933162
0.151341 0.392129 0.123771 -0.946595 -0.267021 0.180716
0.180583 0.363755 0.150640 -0.295196 -0.088528 0.951327
0.208254 0.812953 0.078071 0.141255 0.345036 -0.927899
0.080971 0.706479 0.084511 -0.550499 -0.252757 -0.795654
0.125402 0.208517 0.098324 0.662051 -0.012376 -0.749357
0.084797 0.658210 0.101756 -0.700408 -0.193178 -0.687103
0.145652 0.611305 0.086406 -0.006070 0.139886 -0.990149
0.066871 0.567221 0.136619 -0.971275 0.082379 0.223245
0.082676 0.437007 0.095692 -0.727853 -0.027175 -0.685195
0.214898 0.557214 0.100794 0.767370 0.109543 -0.631778
0.083692 0.727553 0.071137 -0.166188 -0.117306 -0.979092
0.205439 0.625781 0.160321 0.611610 -0.063554 0.788603
0.096814 0.129983 0.130874 -0.664568 -0.064423 0.744445
0.209256 0.220134 0.092401 0.999031 -0.028660 -0.033401
0.158573 0.386572 0.123893 -0.996403 -0.034609 -0.077358
0.114002 0.396958 0.151999 0.120948 -0.001616 0.992657
0.156029 0.878586 0.084533 0.274828 -0.120737 -0.953883
0.080294 0.496883 0.094968 -0.688456 -0.011535 -0.725186
0.102538 0.047705 0.199571 -0.124288 0.909281 0.397192
0.169927 0.435587 0.078922 0.047375 -0.113423 -0.992417
0.221578 0.410877 0.136772 0.977666 -0.028006 0.208290
0.184020 0.953907 0.149162 0.804770 0.470194 0.362302
0.175897 0.938070 0.164496 0.644687 0.152485 0.749084
0.119827 0.779806 0.071633 -0.002679 0.099244 -0.995059
0.131565 0.748711 0.070040 -0.000788 0.049942 -0.998752
0.196588 0.323273 0.143718 0.522417 -0.192528 0.830670
0.096148 0.193680 0.136080 -0.657599 -0.088544 0.748147
0.136832 0.677577 0.076943 -0.032685 -0.176318 -0.983791
0.209525 0.638837 0.156964 0.723320 -0.066059 0.687346
0.059325 0.754170 0.143152 0.279149 0.159974 0.946828
0.133433 0.262745 0.114197 0.981295 -0.021718 -0.191281
0.243089 0.676662 0.100507 -0.152613 -0.184005 -0.971005
0.199228 0.530538 0.084182 0.545382 0.063912 -0.835747
0.257781 0.712610 0.098177 0.545400 0.205986 -0.812471
0.189822 0.282377 0.082049 0.182795 0.218415 -0.958583
0.049868 0.794722 0.082495 0.462472 0.433487 -0.773440
0.221925 0.439010 0.115499 0.938612 -0.006650 -0.344911
0.189711 0.591216 0.167117 0.352691 0.025214 0.935400
0.225361 0.690432 0.107069 -0.958730 -0.093134 -0.268633
0.213673 0.402826 0.097427 0.694866 -0.022471 -0.718788
0.187874 0.413890 0.158887 -0.253220 -0.077076 0.964333
0.117034 0.877242 0.157379 -0.825281 -0.401265 0.397363
0.155408 0.679787 0.076798 0.060217 -0.179663 -0.981883
0.040029 0.708856 0.065227 -0.462280 0.377274 -0.802472
0.125170 0.165443 0.131314 0.831513 -0.018778 0.555188
0.169853 0.236823 0.071688 -0.568204 0.158087 -0.807560
0.182330 0.209901 0.116833 -0.185288 -0.284245 0.940677
0.156604 0.575643 0.174932 0.080563 -0.000435 0.996749
0.182928 0.144280 0.098089 -0.024329 -0.262817 0.964539
0.036154 0.687732 0.078611 -0.872597 0.125793 -0.471965
0.130691 0.292825 0.114578 0.970182 0.010815 -0.242138
0.131684 0.322010 0.138384 0.897867 -0.044818 0.437979
0.041461 0.729778 0.069121 -0.348174 0.433256 -0.831303
0.206360 0.229510 0.083542 0.913602 0.059391 -0.402248
0.082286 0.526090 0.157512 -0.659042 -0.018540 0.751877
0.148994 0.475930 0.092071 -0.284917 -0.495422 -0.820597
0.080130 0.416931 0.133307 -0.955275 -0.073099 0.286542
0.211034 0.614652 0.150620 0.717841 0.066401 0.693034
0.152483 0.429303 0.107404 -0.620964 -0.660299 -0.422384
0.269434 0.647311 0.121533 0.962320 0.024717 -0.270793
0.117614 0.075530 0.101532 0.629638 0.155903 -0.761085
0.158559 0.707752 0.072642 0.071793 -0.173524 -0.982209
0.110505 0.527029 0.169487 -0.242253 -0.052751 0.968778
0.169401 0.496330 0.074149 0.194492 -0.067143 -0.978603
0.087133 0.034767 0.123923 -0.969500 0.227074 -0.092234
0.253063 0.762017 0.100561 0.759097 0.513995 -0.399476
0.180408 0.903577 0.125676 0.892136 -0.412665 0.183852
0.089363 0.832887 0.106387 -0.693339 0.675426 0.251160
0.211839 0.762854 0.168935 0.491329 0.268367 0.828598
0.156656 0.762451 0.173634 0.054953 0.322295 0.945043
0.205760 0.158524 0.083190 0.997616 -0.051360 0.046099
0.152479 0.385374 0.134791 -0.850975 -0.205752 0.483227
0.244151 0.656156 0.138293 -0.622544 0.048434 0.781085
0.066629 0.804743 0.076235 0.113757 0.308582 -0.944371
0.143434 0.857818 0.165736 -0.041082 -0.835389 0.548122
0.096523 0.329398 0.099748 -0.616988 -0.133426 -0.775580
0.104472 0.227573 0.145431 -0.257251 -0.094643 0.961699
0.105246 0.624435 0.165090 -0.402727 -0.064216 0.913065
0.058834 0.636332 0.081053 0.962326 -0.106053 -0.250361
0.175040 0.450193 0.077565 0.155770 -0.080173 -0.984534
0.085798 0.332070 0.123414 -0.996112 -0.080674 0.035398
0.191426 0.698636 0.075717 0.228396 -0.223380 -0.947595
0.243219 0.746922 0.084988 0.166310 0.173031 -0.970774
0.255899 0.734804 0.123103 0.775287 0.458490 0.434416
0.120552 0.871577 0.157809 -0.774078 -0.507962 0.377859
0.212362 0.390043 0.097376 0.663010 -0.033006 -0.747882
0.227812 0.474258 0.125079 0.997161 -0.008646 -0.074797
0.113295 0.550963 0.172135 -0.241742 -0.005669 0.970324
0.198546 0.062288 0.036039 0.863243 0.340259 -0.372875
0.056030 0.612004 0.093991 0.945152 -0.206083 -0.253412
0.036871 0.508630 0.150195 -0.863828 -0.447884 -0.230651
0.044811 0.506477 0.171407 -0.255126 0.087620 0.962930
0.245501 0.669698 0.139283 -0.387750 0.098788 0.916456
0.172477 0.598125 0.170058 0.196705 0.012577 0.980382
0.219662 0.727808 0.103896 0.065980 -0.066857 -0.995579
0.105604 0.777411 0.071733 -0.008079 0.100817 -0.994872
0.082827 0.355644 0.123676 -0.996233 -0.083769 0.022418
0.089761 0.150545 0.118373 -0.994058 -0.065556 0.086901
0.208324 0.406814 0.153680 0.685619 -0.033429 0.727193
0.066714 0.491830 0.136331 -0.953224 -0.023120 0.301378
0.130740 0.393440 0.091878 0.271059 -0.112409 -0.955977
0.181515 0.913906 0.137320 0.898530 -0.317255 0.303303
0.182130 0.122683 0.091028 -0.038604 -0.257665 0.965463
0.081641 0.413725 0.152791 -0.545958 -0.040214 0.836847
0.151849 0.855282 0.150000 0.343558 -0.892146 0.293333
0.152658 0.436905 0.091505 -0.557377 -0.430468 -0.709949
0.159146 0.552761 0.173196 0.051715 -0.069588 0.996234
0.232949 0.681459 0.139793 -0.484730 0.028367 0.874204
0.106816 0.958369 0.108885 -0.713565 0.587209 -0.382115
0.185230 0.640411 0.171037 0.241672 -0.047509 0.969194
0.261243 0.693397 0.119087 0.948419 0.160122 0.273611
0.130287 0.213169 0.132054 0.831854 -0.029047 0.554234
0.095102 0.043787 0.207309 -0.343349 0.866771 0.361691
0.168457 0.263424 0.076172 -0.548078 0.169920 -0.818986
0.161588 0.237171 0.109249 -0.901451 -0.156473 0.403612
0.256804 0.543864 0.158565 0.818128 0.120562 0.562256
0.071283 0.690142 0.145350 -0.947172 -0.156110 0.280169
0.046565 0.481929 0.165501 -0.669600 -0.697186 -0.256062
0.142307 0.814786 0.076074 0.004548 0.225758 -0.974173
0.072253 0.388802 0.114040 -0.985777 -0.040442 -0.163118
0.196376 0.712927 0.073763 0.249708 -0.224446 -0.941950
0.136414 0.727550 0.069879 -0.013665 -0.036451 -0.999242
0.140737 0.447510 0.088751 0.329215 -0.158049 -0.930934
0.207797 0.239810 0.087634 0.941441 0.043768 -0.334324
0.168231 0.799387 0.072985 0.033623 0.122883 -0.991852
0.256178 0.543968 0.139387 0.579451 -0.278417 -0.765977
0.204117 0.127408 0.078903 0.993706 -0.063745 0.092114
0.150087 0.426919 0.133209 -0.855150 -0.372287 0.360723
0.128651 0.038791 0.164545 0.953373 0.296622 0.055637
0.147435 0.480759 0.134425 -0.334177 -0.942037 0.029874
0.064455 0.697083 0.100727 0.987190 -0.005911 0.159442
0.150955 0.418460 0.139574 -0.790121 -0.225541 0.569948
0.058767 0.650835 0.068796 0.769680 -0.040766 -0.637127
0.093530 0.064119 0.142537 -0.910222 0.327505 0.253447
0.258839 0.639217 0.140025 0.485617 0.193595 0.852466
0.190810 0.637913 0.168159 0.347694 -0.053783 0.936064
0.109355 0.571456 0.084453 -0.252177 0.189906 -0.948864
0.112419 0.455460 0.081988 -0.084318 -0.060060 -0.994627
0.253307 0.474498 0.160816 0.770352 -0.440784 0.460725
0.164869 0.208530 0.102786 -0.870283 -0.172915 0.461203
0.213979 0.665689 0.146652 0.906087 -0.053348 0.419716
0.179621 0.284720 0.082825 -0.225074 0.220519 -0.949059
0.134043 0.917535 0.079388 -0.146238 0.070237 -0.986753
0.131683 0.320406 0.138351 0.889988 -0.043525 0.453901
0.189486 0.287836 0.140341 0.078187 -0.271524 0.959250
0.073952 0.626870 0.131260 -0.995534 -0.093054 -0.015906
0.184882 0.221877 0.069151 0.049848 0.188735 -0.980762
0.259213 0.498125 0.158220 0.977753 -0.061043 0.200679
0.197836 0.691560 0.078367 0.298591 -0.229633 -0.926344
0.195617 0.091873 0.044923 0.647595 0.220059 -0.729517
0.078900 0.369537 0.132259 -0.960245 -0.059763 0.272687
0.131015 0.953478 0.087122 -0.243945 0.559140 -0.792372
0.236583 0.512114 0.183537 -0.824439 0.331303 0.458845
0.135442 0.225117 0.126327 0.975621 -0.030086 0.217391
0.206079 0.574280 0.097161 0.654600 0.159172 -0.739028
0.224669 0.434219 0.132964 0.994102 -0.021743 0.106250
0.132655 0.321268 0.133100 0.956189 -0.050616 0.288340
0.046127 0.487058 0.173927 -0.854537 -0.503935 0.125761
0.199081 0.583819 0.096106 0.564739 0.161339 -0.809345
0.191720 0.121416 0.088501 0.543046 -0.220561 0.810218
0.223582 0.747056 0.095382 -0.472233 0.130575 -0.871749
0.211330 0.626895 0.115110 0.970821 -0.058161 -0.232647
0.102957 0.351024 0.153935 -0.146739 -0.006215 0.989156
0.119808 0.054757 0.103580 0.908775 0.347940 -0.230358
0.094964 0.799352 0.151489 -0.171901 0.591108 0.788062
0.224983 0.694393 0.110941 -0.982618 -0.057451 -0.176527
0.153626 0.461136 0.078180 -0.257077 -0.183309 -0.948846
0.155886 0.774258 0.166313 0.051883 0.401869 0.914226
0.194636 0.423439 0.160105 0.400335 -0.033850 0.915743
0.155042 0.491493 0.167898 -0.116874 -0.120002 0.985870
0.117289 0.131448 0.134389 0.590608 -0.007786 0.806921
0.205790 0.514416 0.158455 0.507406 -0.031292 0.861139
0.174098 0.937166 0.165204 0.613784 0.163656 0.772325
0.111015 0.911491 0.084667 -0.534724 -0.018447 -0.844825
0.078985 0.829372 0.099293 -0.518446 0.848798 -0.103712
0.211893 0.349753 0.133417 0.932028 -0.114294 0.343890
0.179917 0.775560 0.166769 0.116856 0.442096 0.889323
0.211150 0.725356 0.169176 0.770156 -0.044937 0.636271
0.120698 0.366913 0.146952 0.505821 -0.003385 0.862632
0.205624 0.160783 0.082736 0.998806 -0.045070 0.018873
0.117599 0.612669 0.095361 -0.240247 0.149952 -0.959060
0.065900 0.425174 0.129510 -0.975068 -0.033545 0.219356
0.224325 0.600382 0.133116 0.980663 0.151181 0.124272
0.094901 0.062776 0.131751 -0.942960 0.322252 -0.083545
0.256894 0.653033 0.108734 0.316827 -0.162649 -0.934433
0.101489 0.725433 0.178608 -0.201574 -0.011145 0.979410
0.192841 0.045491 0.133151 0.087945 0.823248 0.560828
0.230968 0.804985 0.079134 0.214431 0.364745 -0.906080
0.177920 0.273134 0.079052 -0.276804 0.203918 -0.939040
0.229018 0.790361 0.140586 0.441509 0.364134 0.820047
0.062301 0.668177 0.089980 0.910667 -0.139632 0.388831
0.249311 0.478667 0.165698 -0.674168 -0.141603 -0.724876
0.103293 0.281786 0.096895 -0.212309 0.025935 -0.976858
0.142310 0.421529 0.156115 0.579805 -0.305315 0.755387
0.169432 0.969927 0.130516 0.339438 0.936210 0.091061
0.103217 0.239024 0.145624 -0.278742 -0.095545 0.955602
0.175719 0.427838 0.162987 0.038867 -0.060562 0.997407
0.127130 0.368686 0.107776 0.942447 -0.080377 -0.324552
0.105397 0.938250 0.097372 -0.762021 0.257014 -0.594363
0.167734 0.326771 0.102809 -0.795411 0.105268 -0.596859
0.084650 0.410327 0.137493 -0.892713 -0.061414 0.446421
0.143839 0.941345 0.081889 0.040919 0.342407 -0.938660
0.160481 0.777328 0.164632 0.059522 0.437125 0.897429
0.126036 0.187267 0.105262 0.830242 -0.011382 -0.557287
0.089177 0.586831 0.097829 -0.512709 0.209538 -0.832600
0.172021 0.613768 0.169774 0.170299 0.026442 0.985038
0.151539 0.394195 0.128491 -0.923677 -0.231434 0.305383
0.215091 0.684552 0.146235 0.940434 -0.066284 0.333452
0.138576 0.601140 0.173312 -0.080948 0.062031 0.994786
0.108389 0.254616 0.094297 0.022973 -0.002398 -0.999733
0.267536 0.654811 0.113769 0.791265 -0.038524 -0.610259
0.164080 0.290984 0.103704 -0.928812 0.104590 -0.355485
0.035376 0.669845 0.071861 -0.852437 0.084083 -0.516024
0.090986 0.217891 0.134658 -0.780227 -0.083151 0.619945
0.033984 0.632210 0.065869 -0.791919 -0.328082 -0.515002
0.147050 0.483675 0.129972 -0.226994 -0.961757 -0.153287
0.255745 0.492003 0.168493 0.841313 0.009809 0.540459
0.121283 0.737795 0.069727 -0.038248 0.004575 -0.999258
0.106958 0.111785 0.138192 0.055591 0.005616 0.998438
0.219625 0.406602 0.140308 0.945243 -0.029581 0.325025
0.067018 0.564442 0.118705 -0.966337 0.101483 -0.236418
0.109094 0.419310 0.164636 -0.098129 -0.085475 0.991496
0.223105 0.501843 0.111828 0.935774 0.012364 -0.352383
0.090254 0.235359 0.098614 -0.691111 -0.013134 -0.722629
0.192941 0.753113 0.181593 0.198989 0.206544 0.957989
0.217366 0.809041 0.077936 0.162007 0.334572 -0.928340
0.125870 0.335744 0.143828 0.829870 -0.031172 0.557086
0.219634 0.519301 0.102357 0.844773 0.026158 -0.534485
0.162444 0.587331 0.172699 0.123831 0.005992 0.992285
0.211173 0.798186 0.074554 0.085059 0.143425 -0.985999
0.163047 0.869761 0.090104 0.573656 -0.307116 -0.759340
0.172853 0.095240 0.069924 -0.978736 0.068428 0.193374
0.104598 0.193930 0.142708 -0.215969 -0.074406 0.973561
0.192401 0.564814 0.168387 0.355515 0.005695 0.934653
0.079265 0.651495 0.153137 -0.805714 -0.117172 0.580599
0.102173 0.426825 0.082097 -0.387527 -0.040165 -0.920983
0.156750 0.537390 0.073204 0.101804 0.069621 -0.992365
0.037945 0.557664 0.132592 -0.783251 0.286474 0.551771
0.160667 0.405228 0.137082 -0.956879 -0.052222 0.285755
0.066831 0.550816 0.137524 -0.963994 0.039758 0.262937
0.074242 0.666557 0.111021 -0.906483 -0.171181 -0.385987
0.051862 0.781129 0.106653 0.723512 0.680523 -0.115836
0.102646 0.682222 0.078893 -0.242803 -0.231846 -0.941963
0.077195 0.442433 0.151471 -0.648517 -0.031286 0.760557
0.124349 0.407157 0.141973 0.506411 -0.006899 0.862265
0.201585 0.632228 0.104442 0.810973 -0.131495 -0.570116
0.221427 0.486185 0.143367 0.872596 -0.017365 0.488133
0.128726 0.161718 0.119616 0.999222 -0.013285 -0.037122
0.087515 0.619352 0.109304 -0.662706 -0.003360 -0.748873
0.116195 0.151090 0.098246 0.380861 -0.029747 -0.924154
0.120820 0.829512 0.130464 -0.317580 0.515577 0.795816
0.163387 0.370820 0.110577 -0.902804 -0.021793 -0.429501
0.150069 0.561986 0.076320 0.027524 0.174856 -0.984209
0.203714 0.291835 0.088564 0.757980 0.143617 -0.636270
0.198787 0.386154 0.089051 0.381267 -0.064404 -0.922219
0.097251 0.087286 0.130894 -0.800837 0.125136 0.585663
0.179153 0.962943 0.109098 0.590678 0.699865 -0.401608
0.088992 0.635360 0.157868 -0.589441 -0.094095 0.802312
0.030141 0.665847 0.086782 -0.995832 0.032940 0.085047
0.149376 0.855165 0.155089 0.201401 -0.903057 0.379375
0.176831 0.960691 0.106082 0.581177 0.664453 -0.469825
0.171059 0.418165 0.080778 -0.081980 -0.139843 -0.986774
0.129661 0.903085 0.081381 -0.232028 -0.039489 -0.971907
0.258814 0.530990 0.146755 0.801645 -0.212658 -0.558696
0.050548 0.683409 0.103215 -0.099136 -0.172544 0.980000
0.142643 0.412879 0.143159 0.650581 -0.637370 0.412922
0.186617 0.293028 0.085524 0.041300 0.235484 -0.971000
0.094290 0.228567 0.138101 -0.656998 -0.090595 0.748429
0.100936 0.445549 0.081431 -0.380656 -0.035700 -0.924027
0.173169 0.069298 0.057799 -0.898327 0.439308 0.004049
0.254443 0.725369 0.129655 0.688856 0.404861 0.601302
0.044587 0.582309 0.099552 0.412265 -0.498752 -0.762420
0.121032 0.417165 0.162988 0.084894 -0.144002 0.985929
0.072523 0.657677 0.119542 -0.971525 -0.146105 -0.186527
0.051556 0.533301 0.153823 0.916140 -0.295110 -0.271288
0.255759 0.678156 0.093101 0.217999 -0.030624 -0.975468
0.090030 0.483803 0.087533 -0.534385 -0.021162 -0.844976
0.074166 0.629453 0.127969 -0.991874 -0.101280 -0.076991
0.215170 0.640037 0.136433 0.945922 -0.027480 0.323228
0.170585 0.379032 0.095047 -0.541930 -0.024750 -0.840059
0.176355 0.418626 0.150131 -0.628387 -0.076278 0.774152
0.244017 0.635617 0.107899 -0.561807 -0.290922 -0.774427
0.113742 0.888380 0.087300 -0.619224 -0.203455 -0.758398
0.167208 0.962224 0.153237 0.324032 0.797089 0.509562
0.133148 0.262660 0.113287 0.973989 -0.020815 -0.225638
0.120623 0.491368 0.168412 -0.154303 -0.098174 0.983134
0.251339 0.625199 0.111796 -0.142286 -0.346713 -0.927116
0.180196 0.609680 0.167676 0.250404 0.021965 0.967892
0.046726 0.558911 0.139629 -0.079830 0.514411 0.853820
0.110724 0.939713 0.093447 -0.668256 0.293659 -0.683519
0.118974 0.899503 0.171869 -0.581142 -0.066287 0.811098
0.129228 0.297642 0.111301 0.930507 0.020910 -0.365676
0.234954 0.784681 0.086192 0.056945 0.349121 -0.935346
0.131740 0.383554 0.116584 0.998378 -0.056904 0.001700
0.154585 0.460189 0.078159 -0.232540 -0.178326 -0.956099
0.058665 0.528958 0.169527 0.982158 -0.136162 -0.129715
0.138013 0.744032 0.069731 0.001212 0.040855 -0.999164
0.132367 0.354158 0.124327 0.998149 -0.055935 0.023892
0.110184 0.032684 0.086529 -0.202263 0.029744 -0.978879
0.209045 0.798115 0.074417 0.077055 0.133451 -0.988055
0.100805 0.835716 0.109650 -0.640902 0.692388 0.331426
0.145909 0.725912 0.181724 0.007417 0.055556 0.998428
0.073949 0.520643 0.098806 -0.758754 0.003510 -0.651368
0.096687 0.052292 0.117325 -0.818509 0.475507 -0.322391
0.162616 0.336918 0.117726 -0.998875 -0.030557 -0.036249
0.079626 0.478542 0.154174 -0.647843 -0.029526 0.761202
0.226014 0.798289 0.136268 0.409938 0.472894 0.779950
0.038833 0.504188 0.164566 -0.977711 -0.138996 0.157357
0.152518 0.412549 0.110865 -0.812675 -0.527461 -0.247678
0.116531 0.733903 0.183012 -0.118624 0.076906 0.989956
0.119376 0.427884 0.165021 -0.028093 -0.116421 0.992803
0.202559 0.435178 0.156969 0.538512 -0.031266 0.842038
0.150947 0.461483 0.078502 -0.349332 -0.200666 -0.915260
0.126298 0.181530 0.132071 0.804969 -0.022087 0.592906
0.244866 0.560009 0.162469 -0.002972 0.261907 0.965089
0.158842 0.363891 0.126726 -0.991280 -0.038508 0.126022
0.193113 0.371639 0.151142 0.179879 -0.104301 0.978144
0.189608 0.617522 0.165910 0.365222 -0.013239 0.930826
0.076221 0.745043 0.070794 -0.122721 -0.038181 -0.991707
0.110716 0.709843 0.073333 -0.181243 -0.208105 -0.961168
0.226170 0.589704 0.133039 0.984945 0.128629 0.115488
0.166250 0.852715 0.119243 0.912781 0.109601 0.393469
0.210908 0.292527 0.115815 0.978566 -0.071666 0.193060
0.052350 0.783156 0.084383 0.574708 0.388417 -0.720308
0.037397 0.694009 0.078375 -0.763709 0.155970 -0.626436
0.222157 0.745351 0.110310 -0.846898 0.238264 -0.475389
0.240189 0.633991 0.124482 -0.944245 -0.162442 -0.286379
0.119058 0.881349 0.163700 -0.729577 -0.303409 0.612911
0.125321 0.507935 0.075073 -0.059318 -0.080993 -0.994948
0.066399 0.419331 0.127079 -0.985741 -0.034609 0.164674
0.136132 0.267584 0.123964 0.988749 -0.024917 0.147497
0.068762 0.816958 0.080287 0.010681 0.496177 -0.868155
0.194475 0.431072 0.160522 0.390798 -0.034910 0.919814
0.045144 0.737798 0.069627 -0.073551 0.433126 -0.898328
0.072257 0.662300 0.138211 -0.982630 -0.129547 0.132872
0.130435 0.182856 0.120230 0.999835 -0.017757 -0.003926
0.074682 0.757313 0.073250 0.064830 0.028946 -0.997476
0.174070 0.070453 0.040793 -0.884841 0.443666 -0.142184
0.147528 0.512327 0.165881 -0.215363 -0.172462 0.961185
0.218065 0.724067 0.147447 0.983163 -0.069539 0.168983
0.080884 0.238779 0.129311 -0.949590 -0.062849 0.307130
0.093080 0.373633 0.145320 -0.695729 -0.027580 0.717775
0.127011 0.406240 0.139528 0.605258 -0.007613 0.795993
0.213039 0.681825 0.153780 0.868892 -0.070520 0.489952
0.068600 0.732488 0.161953 -0.840441 -0.105656 0.531503
0.088353 0.376081 0.100574 -0.688756 -0.139694 -0.711408
0.102065 0.783684 0.072072 -0.008888 0.111148 -0.993764
0.239043 0.500273 0.182188 -0.430100 -0.460669 -0.776400
0.212484 0.506081 0.094207 0.733753 0.020081 -0.679119
0.254448 0.611287 0.117891 0.156679 -0.345979 -0.925068
0.079036 0.369470 0.131721 -0.964191 -0.061375 0.258008
0.161706 0.425417 0.161885 -0.208369 -0.082517 0.974563
0.118470 0.580457 0.086593 -0.210624 0.185337 -0.959837
0.166379 0.582933 0.083576 0.187654 0.172933 -0.966892
0.117294 0.312593 0.150434 0.305675 -0.073308 0.949309
0.116064 0.883943 0.159446 -0.829517 -0.328040 0.451985
0.150823 0.437259 0.152704 -0.510275 -0.176453 0.841715
0.082424 0.701662 0.166246 -0.613849 -0.146916 0.775632
0.166063 0.196777 0.100019 -0.859360 -0.178089 0.479359
0.167385 0.811713 0.076315 0.030401 0.214717 -0.976203
0.224328 0.567272 0.119795 0.968810 0.108388 -0.222845
0.065019 0.714987 0.082740 0.904461 0.067863 -0.421122
0.254922 0.740282 0.122203 0.760096 0.472614 0.445972
0.219548 0.722623 0.098108 0.546390 -0.166856 -0.820742
0.197503 0.410170 0.086109 0.385545 -0.048879 -0.921394
0.164288 0.581909 0.083009 0.167410 0.172364 -0.970703
0.058098 0.663995 0.069027 0.745802 -0.022809 -0.665777
0.099808 0.782599 0.072056 -0.009800 0.110377 -0.993842
0.068975 0.716972 0.145807 -0.932567 -0.183390 0.310945
0.244126 0.464511 0.177986 0.655346 -0.736872 -0.165954
0.216412 0.750545 0.077375 -0.092925 -0.001865 -0.995671
0.074050 0.557870 0.103846 -0.800506 0.104000 -0.590232
0.116798 0.057030 0.090761 0.805987 0.339111 -0.485169
0.103937 0.316655 0.101049 -0.143441 0.065978 -0.987457
0.146527 0.702445 0.072851 0.015428 -0.157542 -0.987392
0.166106 0.502857 0.073671 0.181095 -0.073137 -0.980742
0.209440 0.641013 0.157771 0.718453 -0.067907 0.692253
0.093096 0.043561 0.100038 -0.842329 0.223073 -0.490633
0.141767 0.490418 0.167407 0.074816 -0.181487 0.980543
0.150137 0.452654 0.155264 -0.453615 -0.178068 0.873227
0.226271 0.689563 0.117708 -0.997673 -0.041626 0.054004
0.111407 0.325632 0.100368 0.108477 -0.103894 -0.988655
0.201191 0.622372 0.105836 0.793558 -0.081450 -0.603019
0.051062 0.680997 0.102252 -0.058831 -0.171846 0.983366
0.154497 0.591160 0.083426 0.074653 0.159760 -0.984329
0.068429 0.449480 0.114826 -0.973364 -0.026847 -0.227687
0.109390 0.400290 0.083307 -0.273069 -0.058881 -0.960191
0.138505 0.962609 0.158083 -0.071624 0.856416 0.511295
0.136907 0.711129 0.178329 -0.035001 -0.087274 0.995569
0.200951 0.381502 0.093325 0.735453 -0.067228 -0.674232
0.203074 0.220877 0.073335 0.731430 0.122161 -0.670886
0.142179 0.478742 0.080128 0.168677 -0.132545 -0.976719
0.152225 0.485310 0.075581 -0.059165 -0.145860 -0.987534
0.246191 0.774634 0.086904 0.384246 0.351531 -0.853687
