0.170013 0.330770 0.100439 0.972992 -0.146951 -0.178021
0.247040 0.203194 0.069033 0.277976 -0.031603 -0.960068
0.145077 0.923756 0.141032 0.872046 -0.285557 -0.397484
0.286006 0.572418 0.138476 -0.857628 -0.504203 0.101259
0.250126 0.485476 0.081882 0.895780 0.410079 -0.171502
0.219965 0.691639 0.043703 0.117792 0.203042 -0.972059
0.154637 0.647108 0.178547 -0.128956 -0.163514 0.978076
0.041131 0.438311 0.118631 -0.660356 0.602662 0.448026
0.217875 0.944262 0.077315 0.724859 0.069319 -0.685401
0.163178 0.343554 0.058069 0.540669 -0.117430 -0.832999
0.242058 0.338913 0.151733 0.265162 -0.098063 0.959204
0.159899 0.212347 0.100909 0.934427 -0.033571 -0.354568
0.133215 0.101863 0.087415 0.479432 -0.433980 -0.762762
0.168445 0.957188 0.073369 0.308583 -0.426694 0.850123
0.204386 0.838972 0.164539 -0.320517 -0.708246 0.629012
0.115477 0.856809 0.153105 -0.698860 -0.641828 0.315675
0.130029 0.945142 0.131179 -0.926832 0.285060 0.244385
0.212921 0.637113 0.176305 0.355737 -0.215222 0.909467
0.220590 0.475742 0.170501 0.518156 0.481679 0.706753
0.149312 0.901943 0.145080 0.805116 -0.269448 -0.528381
0.138276 0.845962 0.071249 -0.229759 -0.949212 -0.214958
0.181091 0.940793 0.178622 -0.003497 0.300330 0.953829
0.206324 0.395513 0.163299 0.484259 -0.604969 0.632064
0.092705 0.668299 0.097644 0.918182 -0.142506 -0.369641
0.203756 0.231869 0.111903 -0.977771 0.206542 0.036115
0.216402 0.800281 0.069277 0.551456 -0.324699 -0.768419
0.223514 0.609587 0.052151 0.327598 -0.335579 -0.883214
0.180013 0.879532 0.126570 -0.043778 0.995013 0.089622
0.099323 0.161266 0.140863 -0.779138 -0.181296 0.600064
0.236607 0.149932 0.142254 0.113109 -0.179038 0.977319
0.133390 0.795283 0.133936 -0.890717 -0.386288 0.239593
0.093550 0.226937 0.147803 -0.656028 0.055684 0.752679
0.241976 0.514183 0.148733 0.182065 -0.493995 0.850189
0.270379 0.728619 0.056380 0.387703 0.725648 -0.568438
0.300043 0.227031 0.089254 -0.381092 -0.076930 -0.921331
0.195208 0.854192 0.073818 0.260879 -0.854658 -0.448889
0.229130 0.414313 0.093106 0.833082 -0.548341 -0.072780
0.098689 0.669971 0.067948 -0.877753 0.020074 -0.478692
0.218205 0.646635 0.045191 0.200222 -0.203084 -0.958472
0.264504 0.182896 0.140418 0.903014 -0.108461 0.415693
0.115932 0.539307 0.079838 -0.447503 -0.500713 -0.740964
0.319443 0.490159 0.143365 0.481925 -0.246483 0.840829
0.156329 0.394954 0.163005 -0.595805 -0.714059 0.367607
0.084891 0.598212 0.100026 0.752242 0.587638 -0.298017
0.252215 0.854679 0.085174 0.653356 -0.718479 -0.238568
0.228972 0.708593 0.048721 0.152387 0.546142 -0.823715
0.211967 0.030206 0.199793 -0.427959 -0.902568 0.047146
0.114409 0.066303 0.081617 -0.368202 0.895609 -0.249623
0.082391 0.463363 0.103385 0.900082 -0.435412 0.016379
0.224583 0.442792 0.139116 -0.724560 0.670767 0.158381
0.102692 0.033080 0.204014 -0.809937 -0.445897 0.381022
0.032620 0.663460 0.151230 -0.764257 -0.071995 0.640880
0.141144 0.499660 0.052596 0.011915 0.790332 -0.612563
0.294831 0.327795 0.089646 -0.702890 -0.045733 -0.709827
0.211443 0.226811 0.150692 -0.454945 0.085508 0.886405
0.115818 0.255449 0.146295 -0.406990 0.430773 0.805478
0.264520 0.255219 0.090883 0.872480 -0.472650 -0.124021
0.206378 0.747532 0.105157 0.777144 0.267941 -0.569434
0.244558 0.514140 0.131712 0.350563 -0.621555 0.700554
0.151657 0.894296 0.073636 -0.672338 0.210879 -0.709572
0.201977 0.960535 0.110976 -0.666372 -0.739458 0.095657
0.185828 0.833662 0.163408 -0.044972 0.502558 0.863373
0.125654 0.691717 0.043726 -0.607337 0.326985 -0.724032
0.151079 0.050160 0.079603 0.894210 0.231655 -0.383047
0.086122 0.593322 0.123449 0.839594 -0.431449 0.330051
0.299774 0.317247 0.109677 -0.299571 -0.051404 0.952688
0.133689 0.712796 0.178314 -0.424301 0.577532 0.697442
0.038402 0.534944 0.146433 -0.668307 -0.046179 0.742451
0.247065 0.495401 0.165926 0.438755 0.770742 0.462007
0.214453 0.880647 0.159676 0.627498 0.184281 0.756496
0.315208 0.602711 0.097574 0.381880 0.880633 -0.280451
0.132780 0.076779 0.125470 0.061777 -0.567800 0.820845
0.041196 0.480697 0.084325 -0.595425 -0.238291 -0.767259
0.311085 0.292705 0.089578 0.637971 -0.102453 -0.763215
0.133352 0.833472 0.135798 -0.922924 0.215831 0.318793
0.231281 0.788553 0.133718 0.923682 -0.287602 0.253172
0.138253 0.694508 0.185323 -0.276871 0.120894 0.953272
0.105804 0.281423 0.082444 -0.451139 0.763383 -0.462300
0.094335 0.197438 0.120997 -0.924324 -0.037466 0.379765
0.216509 0.261397 0.145380 -0.645617 0.408279 0.645358
0.200686 0.256642 0.127916 -0.897278 -0.411941 0.158734
0.327890 0.505612 0.108704 0.959112 -0.233751 -0.159577
0.089442 0.640189 0.158493 0.833894 -0.178887 0.522131
0.061357 0.653499 0.160186 0.118190 -0.159544 0.980090
0.088463 0.619982 0.126970 0.934929 -0.300802 0.188219
0.257238 0.120387 0.110984 0.950196 -0.310638 0.025123
0.135147 0.957843 0.084287 -0.866334 0.312281 -0.389803
0.141641 0.858185 0.136521 -0.950264 0.145505 0.275367
0.041553 0.473764 0.097790 -0.764914 -0.331949 -0.552011
0.248568 0.491700 0.135556 0.690863 0.667609 0.277501
0.115365 0.194595 0.148259 -0.155658 -0.070623 0.985283
0.091223 0.349458 0.129176 -0.875160 -0.153362 0.458884
0.174846 0.390631 0.150924 0.924222 0.148461 0.351813
0.240352 0.514140 0.114100 0.492125 -0.766343 0.412955
0.105518 0.644888 0.045519 -0.648866 -0.039075 -0.759899
0.117842 0.443181 0.059218 0.219233 0.749253 -0.624946
0.175276 0.732692 0.061168 0.051999 0.936860 -0.345817
0.113207 0.066131 0.171286 -0.520743 0.838739 0.159195
0.266741 0.229316 0.109696 0.968919 0.100314 -0.226126
0.124888 0.820532 0.081797 -0.912027 0.145842 -0.383323
0.192053 0.963133 0.052649 0.091535 0.343432 -0.934706
0.283974 0.590768 0.084803 -0.622783 -0.392610 -0.676756
0.045244 0.618276 0.070934 -0.522777 -0.291132 -0.801215
0.162942 0.433181 0.180405 -0.338640 -0.449441 0.826635
0.265864 0.364997 0.153998 0.758624 -0.079466 0.646665
0.097770 0.685673 0.183338 -0.449615 -0.042624 0.892205
0.224353 0.653495 0.043903 0.230049 -0.187526 -0.954940
0.084348 0.731460 0.077536 0.542221 0.757033 -0.364552
0.173912 0.958938 0.147219 0.351482 -0.615471 -0.705448
0.087791 0.612329 0.136187 0.860787 -0.329290 0.388091
0.336469 0.678617 0.113538 0.973423 -0.082044 -0.213815
0.126193 0.368846 0.052305 -0.307257 -0.025306 -0.951290
0.307396 0.401765 0.088339 0.189701 0.655898 -0.730624
0.166344 0.971491 0.132540 -0.486137 0.763810 0.424578
0.229279 0.028885 0.139379 -0.046261 -0.998514 -0.028800
0.152267 0.723779 0.053216 -0.117366 0.879871 -0.460491
0.310579 0.727412 0.159399 -0.135204 0.888555 0.438394
0.034347 0.715772 0.143914 -0.856359 0.494072 0.150139
0.103657 0.677608 0.039550 -0.717378 0.073328 -0.692814
0.148903 0.064791 0.110185 0.824758 0.528365 -0.201505
0.271651 0.344663 0.149018 0.803672 -0.140177 0.578326
0.144246 0.028896 0.113288 0.171766 -0.985136 0.001662
0.190070 0.854192 0.077525 0.174313 -0.887069 -0.427462
0.141345 0.074710 0.111084 0.431794 0.895625 -0.106814
0.327715 0.601434 0.087395 0.717678 0.500077 -0.484624
0.235928 0.306765 0.148940 0.035801 -0.145114 0.988767
0.034310 0.644400 0.133138 -0.922272 -0.175830 0.344235
0.276270 0.660347 0.128332 -0.929105 -0.122179 0.349050
0.273750 0.435673 0.093936 0.839924 0.478486 -0.256083
0.157478 0.314072 0.149579 0.501915 -0.107128 0.858257
0.035370 0.386589 0.119599 -0.414371 -0.909854 0.021517
0.188103 0.619019 0.050379 0.034651 -0.258698 -0.965336
0.155610 0.843968 0.076396 0.531344 -0.804212 0.266300
0.212292 0.564175 0.060682 0.371361 -0.510260 -0.775710
0.213177 0.967794 0.073743 0.562943 0.407570 -0.719015
0.084871 0.598671 0.093329 0.749036 0.518722 -0.412155
0.257650 0.586554 0.131120 0.836845 -0.476629 0.269285
0.158582 0.956321 0.161278 0.603820 -0.332893 -0.724282
0.104376 0.630767 0.141896 -0.799339 -0.300336 0.520439
0.051320 0.570130 0.089111 -0.294229 -0.662502 -0.688855
0.292707 0.347749 0.104062 -0.886716 -0.063915 0.457875
0.110944 0.732692 0.076087 -0.198165 0.970417 -0.137921
0.085080 0.511558 0.126174 0.975580 -0.177851 0.128888
0.222720 0.854500 0.071792 0.186977 -0.972470 -0.139071
0.052775 0.708875 0.160913 -0.513634 0.560244 0.649851
0.214773 0.512721 0.137933 0.162604 0.969860 0.181469
0.213461 0.418114 0.154144 -0.359529 0.424982 0.830740
0.135878 0.121998 0.083398 0.405258 -0.347290 -0.845669
0.049581 0.447284 0.133316 -0.743483 -0.584474 0.324996
0.069487 0.675945 0.163040 0.559867 -0.036683 0.827770
0.224147 0.431422 0.151838 -0.438654 0.624936 0.645784
0.113646 0.567466 0.060064 -0.398146 -0.307011 -0.864421
0.201405 0.854192 0.125062 0.269830 -0.958037 0.096729
0.274332 0.679032 0.134971 -0.867795 -0.020637 0.496494
0.086006 0.528170 0.090195 0.838014 -0.156674 -0.522672
0.248869 0.254633 0.144412 0.122149 -0.319087 0.939821
0.325380 0.383233 0.100535 0.453809 -0.774819 -0.440129
0.134765 0.792870 0.128200 -0.899624 -0.403483 0.166967
0.156645 0.249040 0.141935 0.786741 0.364954 0.497843
0.177688 0.813465 0.172973 -0.127101 0.181435 0.975155
0.148530 0.117496 0.109709 0.947829 -0.318633 0.009667
0.140135 0.198824 0.148828 0.574940 -0.064895 0.815618
0.185509 0.451688 0.176099 0.351506 -0.082020 0.932586
0.150318 0.125526 0.087644 0.881348 -0.309698 -0.356809
0.158291 0.832433 0.168871 0.986979 0.152483 0.051194
0.232584 0.857186 0.057999 -0.387035 0.863691 0.322865
0.297462 0.127935 0.101800 -0.899873 -0.108371 0.422473
0.119998 0.453712 0.037182 -0.789486 -0.048978 -0.611811
0.206592 0.816693 0.164589 0.376031 0.267374 0.887193
0.327305 0.639400 0.069727 0.681295 -0.291331 -0.671538
0.065866 0.381826 0.105270 0.258036 -0.942871 -0.210741
0.145244 0.684217 0.041506 -0.517715 0.155635 -0.841278
0.222844 0.431249 0.057856 -0.481521 0.752107 -0.449970
0.087749 0.378879 0.082124 -0.988351 -0.001273 -0.152188
0.222541 0.216849 0.151254 -0.156026 -0.012252 0.987677
0.234184 0.388075 0.156003 0.274010 0.045483 0.960651
0.092272 0.663371 0.105544 0.952750 -0.155126 -0.261159
0.206383 0.845033 0.174451 0.007122 -0.985054 0.172099
0.233124 0.311153 0.065464 0.059549 -0.299988 -0.952082
0.128910 0.942322 0.122631 -0.953034 0.281073 0.112799
0.237139 0.559651 0.061532 0.561738 -0.557111 -0.611619
0.335670 0.670140 0.131941 0.994731 -0.099649 0.024071
0.300631 0.440134 0.102289 -0.335945 0.689752 -0.641391
0.088035 0.414408 0.121183 0.774744 -0.010903 0.632181
0.171589 0.387449 0.159062 -0.275289 -0.815805 0.508604
0.258354 0.028885 0.180949 0.163381 -0.978348 0.127047
0.189915 0.930801 0.066486 -0.192848 -0.312171 0.930246
0.236493 0.502006 0.164389 0.300778 0.832164 0.465870
0.102108 0.435902 0.150821 -0.595653 0.554528 0.581117
0.056772 0.602661 0.138029 -0.492052 0.752935 0.437005
0.206776 0.885105 0.067877 0.542153 0.170819 -0.822734
0.257859 0.588227 0.136562 0.812338 -0.458552 0.360328
0.060036 0.530970 0.147840 0.057703 -0.077971 0.995284
0.216494 0.894140 0.078900 0.261127 -0.930410 -0.257196
0.229276 0.820545 0.152348 0.753210 0.278550 0.595890
0.109601 0.486432 0.064322 -0.675600 0.608824 -0.415811
0.209354 0.136894 0.098193 -0.944942 -0.211336 -0.249842
0.227095 0.443067 0.084423 -0.556120 0.794134 -0.245117
0.152084 0.039804 0.084832 0.925146 0.048139 -0.376547
0.146587 0.942525 0.070805 -0.714927 0.293134 -0.634785
0.265775 0.192807 0.136895 0.953648 -0.092638 0.286312
0.251988 0.512721 0.109912 0.542755 0.839488 0.026033
0.084752 0.584509 0.075228 0.835535 -0.469432 -0.285508
0.259639 0.602403 0.129442 0.895692 -0.424519 0.132362
0.287130 0.489918 0.142866 -0.751875 -0.302563 0.585781
0.186205 0.489684 0.167257 0.065311 0.619410 0.782347
0.283344 0.516260 0.080584 -0.758374 -0.086055 -0.646114
0.150049 0.028896 0.086358 0.238232 -0.970905 -0.024252
0.049043 0.450184 0.126211 -0.114767 0.723743 0.680459
0.133187 0.959203 0.145301 -0.845691 0.314471 0.431179
0.137735 0.435689 0.172904 -0.678207 -0.391351 0.621997
0.136960 0.098234 0.088139 0.659824 -0.441405 -0.608107
0.213037 0.066842 0.100544 -0.607046 0.790858 -0.077713
0.139024 0.440436 0.069896 0.594847 0.623626 -0.507196
0.102273 0.133463 0.128257 -0.902856 -0.266455 0.337421
0.257649 0.447324 0.050322 0.715268 -0.076669 -0.694632
0.214834 0.857875 0.150002 0.349166 0.789035 0.505477
0.135693 0.967757 0.113509 -0.898743 0.438410 0.007656
0.053368 0.388443 0.120847 -0.097584 -0.909021 0.405164
0.107940 0.087447 0.132109 -0.877313 -0.386148 0.284975
0.259082 0.138673 0.140739 0.616026 -0.187253 0.765146
0.127788 0.962466 0.100690 -0.937743 0.311870 -0.152891
0.114113 0.028896 0.116759 -0.061130 -0.994966 -0.079412
0.129896 0.732692 0.114269 -0.248212 0.968071 0.035070
0.168621 0.493287 0.166418 -0.130848 0.594904 0.793075
0.224216 0.285968 0.090245 -0.283353 0.880650 -0.379693
0.141830 0.849359 0.092716 -0.687018 0.515020 -0.512602
0.174868 0.383290 0.124316 0.992326 0.111430 0.053590
0.250030 0.218074 0.071584 0.394253 0.088112 -0.914768
0.285259 0.466190 0.129116 -0.906925 -0.403736 0.120346
0.204582 0.540530 0.154642 -0.021070 -0.491015 0.870896
0.211561 0.033076 0.179408 -0.870822 -0.466001 0.156563
0.309978 0.252647 0.091924 0.680693 -0.055843 -0.730437
0.188279 0.879532 0.148384 0.127254 0.941077 0.313337
0.168369 0.882021 0.168511 -0.377874 0.189428 0.906272
0.093030 0.316358 0.090960 -0.960139 -0.227287 -0.162706
0.070370 0.442340 0.129214 0.483285 0.535606 0.692504
0.279059 0.732059 0.104890 -0.466684 0.884254 -0.017379
0.116195 0.153329 0.077148 -0.313306 -0.184349 -0.931587
0.133049 0.512721 0.091661 -0.180933 0.965329 -0.188158
0.242218 0.456378 0.129443 -0.458759 0.883296 0.096580
0.148378 0.512721 0.072885 0.027416 0.929538 -0.367707
0.237351 0.827192 0.138632 0.872329 0.342512 0.348895
0.116549 0.604626 0.169019 -0.539149 -0.373432 0.754895
0.256540 0.239928 0.095262 0.782962 -0.620536 -0.043648
0.190445 0.529312 0.067231 0.290883 -0.614489 -0.733342
0.131494 0.283896 0.082868 0.213181 0.712857 -0.668123
0.113249 0.448422 0.082368 -0.968242 -0.249345 -0.018279
0.218709 0.636442 0.351683 -0.066087 0.908809 -0.411946
0.232331 0.950224 0.147877 0.870611 0.296618 0.392498
0.326547 0.479525 0.139332 0.674256 -0.278976 0.683777
0.202876 0.721958 0.174803 -0.143854 0.820722 0.552921
0.210064 0.618185 0.334999 -0.552716 -0.831511 -0.055635
0.158664 0.221963 0.092408 0.863092 0.049749 -0.502591
0.202800 0.938052 0.094544 -0.573467 -0.673728 0.466075
0.042080 0.725797 0.084703 -0.399553 0.912761 -0.084999
0.324562 0.441445 0.105575 0.282010 0.687135 -0.669564
0.257921 0.065173 0.129838 0.794437 0.598335 -0.104239
0.197869 0.592797 0.055305 0.173358 -0.348516 -0.921132
0.145701 0.465823 0.172809 -0.470891 0.023934 0.881867
0.130557 0.253023 0.078701 0.286676 -0.531095 -0.797342
0.255718 0.274422 0.073835 0.684485 -0.470341 -0.557009
0.223754 0.770583 0.145855 0.816420 -0.442058 0.371543
0.281169 0.558485 0.127551 -0.891717 0.146857 0.428105
0.090123 0.430575 0.078923 -0.838237 0.506850 -0.201149
0.303913 0.287738 0.097981 0.535431 0.513719 -0.670378
0.329036 0.571333 0.084309 0.758240 0.185774 -0.624949
0.150483 0.860837 0.142223 -0.611161 0.675405 0.412688
0.152591 0.298790 0.068271 0.564588 -0.314982 -0.762907
0.303994 0.057063 0.097948 0.563062 -0.608956 -0.558690
0.164058 0.957487 0.078391 0.448313 -0.457007 0.768218
0.199389 0.562867 0.159652 -0.005209 -0.393284 0.919402
0.107827 0.462204 0.040031 -0.818064 0.114527 -0.563609
0.047039 0.682969 0.063723 -0.723223 0.098008 -0.683625
0.210773 0.892652 0.069762 0.604843 0.167699 -0.778487
0.167652 0.865241 0.075219 0.488884 -0.243762 0.837599
0.214415 0.401056 0.159286 0.629147 -0.526457 0.571855
0.163702 0.406754 0.095045 0.885455 0.326727 -0.330483
0.031647 0.681670 0.091726 -0.984796 0.092778 -0.146865
0.264870 0.213434 0.150795 0.861351 -0.021457 0.507557
0.285402 0.463631 0.120898 -0.893815 -0.439284 -0.090131
0.206664 0.904631 0.064993 0.498932 0.211375 -0.840469
0.270379 0.684911 0.046489 0.513287 -0.031425 -0.857642
0.210062 0.396150 0.101085 0.699435 -0.685427 0.202434
0.229942 0.858000 0.127407 0.793071 -0.587872 0.159514
0.039443 0.586637 0.102082 -0.813341 0.558110 -0.164284
0.135374 0.285979 0.115634 0.045913 0.978440 0.201362
0.309071 0.569701 0.146782 0.077559 0.453060 0.888100
0.138318 0.857620 0.126442 -0.985416 0.143409 0.091587
0.040945 0.563816 0.078959 -0.805477 0.318844 -0.499545
0.276247 0.373745 0.055883 0.663434 -0.151742 -0.732687
0.139484 0.850430 0.103521 -0.943917 0.131174 -0.303009
0.310913 0.262084 0.090988 0.714261 -0.159617 -0.681435
0.235310 0.908463 0.118970 0.972950 0.225391 0.050672
0.255538 0.078129 0.087012 0.635506 0.733401 -0.241363
0.243933 0.400446 0.157077 0.547859 0.053689 0.834846
0.246359 0.622604 0.173051 0.566104 -0.244926 0.787107
0.089711 0.421869 0.065603 -0.835672 0.464785 -0.292621
0.331730 0.634834 0.125419 0.969750 -0.235024 0.065943
0.070313 0.674127 0.162809 0.578119 -0.047775 0.814552
0.151664 0.034338 0.123834 0.945037 -0.300559 -0.128726
0.199776 0.911479 0.172661 0.336390 0.244874 0.909329
0.101442 0.448078 0.091702 -0.575995 0.817453 -0.000391
0.141872 0.165799 0.144386 0.513860 -0.143512 0.845785
0.156660 0.248931 0.147061 0.707129 0.373610 0.600320
0.224405 0.412999 0.110180 0.829577 -0.539616 0.143583
0.093543 0.693151 0.069994 0.777736 0.078487 -0.623672
0.199703 0.663088 0.182131 0.335019 -0.142625 0.931354
0.231202 0.472670 0.043542 0.592939 0.306793 -0.744514
0.212987 0.424745 0.123612 -0.815806 0.569328 0.101613
0.128044 0.966366 0.131245 -0.912542 0.325198 0.248018
0.171684 0.960166 0.136023 0.488734 -0.723708 -0.487222
0.230245 0.082853 0.133231 -0.531855 -0.462990 0.709063
0.199932 0.732692 0.060768 0.135468 0.907787 -0.396953
0.207006 0.583937 0.056970 0.271928 -0.411594 -0.869854
0.177100 0.879532 0.135015 -0.078381 0.979223 0.187024
0.326903 0.496411 0.144081 0.722591 -0.201190 0.661350
0.227890 0.876671 0.135301 0.760674 0.636972 0.125070
0.037251 0.611221 0.154324 -0.825677 -0.340538 0.449768
0.270379 0.709060 0.083391 0.704669 0.495536 -0.507825
0.167451 0.310557 0.144371 0.719975 -0.109617 0.685288
0.151172 0.339981 0.058883 0.342269 -0.135215 -0.929822
0.192867 0.379510 0.154891 0.231207 -0.767363 0.598078
0.300795 0.163785 0.105785 -0.336565 -0.097270 0.936623
0.155926 0.179431 0.129089 0.971007 -0.138337 0.194958
0.164586 0.879532 0.097117 -0.335772 0.922348 -0.191131
0.183976 0.944513 0.178919 0.053657 0.308670 0.949655
0.153649 0.512721 0.107063 -0.114095 0.992406 -0.045964
0.306409 0.179874 0.106278 0.323983 -0.090817 0.941694
0.263395 0.258338 0.077501 0.818679 -0.474360 -0.323648
0.149636 0.041915 0.197714 0.971546 0.202657 0.122591
0.320318 0.649472 0.068058 0.415034 -0.257776 -0.872524
0.129433 0.501661 0.164470 -0.472617 0.494607 0.729381
0.084165 0.495165 0.113364 0.963161 -0.268740 -0.010017
0.082842 0.436077 0.121654 0.829366 0.483107 0.280643
0.152570 0.947051 0.078253 0.644900 -0.317346 0.695267
0.192552 0.914450 0.165165 -0.207365 -0.294058 -0.933022
0.066474 0.485346 0.083939 0.299345 -0.351640 -0.886985
0.141517 0.862803 0.137705 -0.941559 0.152756 0.300219
0.088038 0.678125 0.163262 0.917679 -0.018373 0.396897
0.100353 0.276558 0.094369 -0.675898 0.675142 -0.295542
0.080402 0.706968 0.065436 0.527507 0.402545 -0.748127
0.042907 0.447463 0.107407 -0.703703 -0.497053 -0.507682
0.129424 0.109804 0.136855 0.027668 -0.272941 0.961633
0.274298 0.429091 0.131220 0.824766 0.502600 0.259141
0.225811 0.239928 0.112480 -0.274175 -0.960695 -0.043514
0.055281 0.596856 0.142765 -0.530232 0.650782 0.543449
0.270379 0.717506 0.080795 0.610143 0.642639 -0.463402
0.148929 0.057761 0.169702 0.724461 0.682399 0.097405
0.200620 0.895872 0.159749 -0.441478 -0.272377 -0.854932
0.174085 0.604843 0.053042 -0.039967 -0.286022 -0.957389
0.111181 0.859155 0.122972 0.393770 0.918748 0.029096
0.202176 0.221054 0.117852 -0.957099 0.108813 0.268555
0.194797 0.854192 0.113664 0.179574 -0.983246 -0.031317
0.231569 0.788907 0.135945 0.921338 -0.266486 0.283057
0.136633 0.919485 0.091137 -0.898913 0.248160 -0.361071
0.094341 0.226820 0.123794 -0.924513 0.136515 0.355866
0.235896 0.239928 0.132539 -0.176759 -0.660002 0.730173
0.315041 0.375415 0.106173 0.245566 -0.964406 -0.098069
0.118494 0.854441 0.152964 -0.630502 -0.728845 0.266931
0.167483 0.883290 0.158938 0.411179 -0.261954 -0.873105
0.085311 0.397351 0.123285 0.424401 -0.474582 0.771140
0.146036 0.875504 0.100467 0.931882 -0.242987 0.269357
0.211035 0.047861 0.109619 -0.883243 0.431218 -0.184208
0.266904 0.376536 0.155000 0.798859 -0.055893 0.598916
0.132981 0.427691 0.137825 -0.787285 -0.494648 0.368110
0.306609 0.042344 0.095336 0.762210 -0.207292 -0.613242
0.159411 0.220751 0.115067 0.992975 0.024474 -0.115766
0.153185 0.845781 0.058715 -0.109196 -0.961038 -0.253933
0.274250 0.357010 0.073651 0.809253 -0.209887 -0.548686
0.119560 0.455897 0.123073 -0.092742 0.960359 0.262886
0.136699 0.070961 0.137391 0.157282 0.985565 0.062645
0.131877 0.800108 0.120489 -0.957194 -0.280343 0.072026
0.071982 0.451800 0.117766 0.504340 -0.743556 0.439051
0.195717 0.403435 0.120137 -0.877759 0.350668 0.326453
0.314939 0.433221 0.100512 0.068086 0.526717 -0.847310
0.249774 0.239928 0.131581 0.242202 -0.535652 0.808959
0.096412 0.311174 0.065448 -0.623325 -0.221703 -0.749876
0.110592 0.381424 0.155429 -0.291554 0.007922 0.956522
0.184770 0.897998 0.068563 -0.021117 -0.279741 0.959843
0.196134 0.856249 0.158374 -0.420915 -0.233940 -0.876414
0.143715 0.648871 0.178943 -0.208086 -0.151136 0.966363
0.215728 0.723205 0.053047 0.108333 0.790575 -0.602706
0.107198 0.353713 0.153022 -0.391950 -0.090737 0.915501
0.159207 0.227171 0.132033 0.983584 0.060290 0.170081
0.206164 0.854521 0.077671 0.453859 0.704523 -0.545581
0.302038 0.549376 0.149751 0.092507 0.056307 0.994119
0.329631 0.616017 0.125870 0.928554 -0.317708 0.191961
0.224116 0.901563 0.150109 0.817938 0.220534 0.531358
0.232169 0.835466 0.133717 0.821387 0.487276 0.296455
0.139155 0.536092 0.065958 -0.122005 -0.428973 -0.895040
0.176039 0.846733 0.073505 0.012250 0.715730 -0.698269
0.168643 0.401267 0.157153 0.853103 0.195444 0.483753
0.207896 0.385897 0.142776 0.532235 -0.687273 0.494351
0.222242 0.854192 0.112674 0.594767 -0.803898 0.001209
0.206378 0.745352 0.130112 0.731440 0.244789 0.636454
0.292384 0.384681 0.081714 -0.567238 0.011146 -0.823479
0.275478 0.380433 0.109026 0.982209 -0.126995 -0.138342
0.167084 0.306585 0.124417 0.933497 -0.199525 0.297949
0.308963 0.284340 0.092932 0.645046 0.217341 -0.732584
0.173551 0.359077 0.082722 0.876906 -0.041182 -0.478894
0.097619 0.676707 0.045353 -0.766365 0.068587 -0.638734
0.192126 0.850369 0.066393 0.312213 0.133955 -0.940521
0.192558 0.327556 0.071540 -0.848601 -0.029366 -0.528217
0.278409 0.641027 0.092845 -0.960184 -0.174991 -0.217773
0.116641 0.454638 0.130330 -0.222283 0.918702 0.326460
0.089036 0.407564 0.068855 -0.891627 0.305062 -0.334574
0.102237 0.283947 0.082877 -0.502329 0.760710 -0.411080
0.185146 0.752694 0.116870 0.036617 -0.998898 -0.029352
0.093543 0.723096 0.068926 0.735887 0.462451 -0.494580
0.181980 0.603575 0.168783 -0.030743 -0.278678 0.959892
0.287422 0.601086 0.142196 -0.775147 0.521430 0.356731
0.228532 0.847479 0.065152 0.295381 -0.925480 -0.237145
0.158587 0.798894 0.164526 -0.465547 -0.190128 0.864360
0.170176 0.863676 0.103537 -0.108722 0.983733 -0.142999
0.103698 0.122266 0.130626 -0.888547 -0.299102 0.347883
0.092843 0.669873 0.137981 0.992471 -0.085578 0.087625
0.223786 0.366348 0.052885 -0.316511 0.031248 -0.948074
0.246259 0.276091 0.073455 0.494505 -0.478511 -0.725598
0.096342 0.282162 0.112926 -0.931027 -0.362458 0.042583
0.263440 0.626288 0.062257 0.659568 -0.357908 -0.660963
0.197536 0.854192 0.113907 0.222680 -0.974574 -0.024862
0.191166 0.350180 0.111543 -0.978032 0.015625 0.207868
0.311701 0.316465 0.090188 0.677941 -0.282794 -0.678545
0.257256 0.442250 0.051949 0.704061 -0.137726 -0.696656
0.327357 0.595646 0.112215 0.901310 -0.416638 0.118546
0.241069 0.819170 0.075719 0.871587 -0.183554 -0.454582
0.196937 0.419774 0.176045 0.366269 -0.490772 0.790563
0.037882 0.551053 0.120969 -0.928654 0.080225 0.362169
0.150642 0.037797 0.168064 0.995372 0.093526 -0.022101
0.179756 0.813727 0.172849 -0.095841 0.191222 0.976856
0.232981 0.836570 0.098725 0.916149 0.343208 -0.207073
0.163080 0.624287 0.173428 -0.123755 -0.220208 0.967571
0.297231 0.553215 0.149190 -0.192520 0.128674 0.972820
0.222595 0.136768 0.080449 -0.320718 -0.230525 -0.918694
0.306143 0.580925 0.147224 -0.164206 -0.577857 0.799448
0.196007 0.512721 0.148621 -0.020691 0.928155 0.371618
0.212642 0.853772 0.083310 -0.409670 -0.795285 0.446869
0.212170 0.439404 0.032382 0.185827 -0.242994 -0.952062
0.204072 0.957501 0.079140 -0.558220 -0.456637 0.692729
0.164583 0.415919 0.039533 -0.388615 -0.570837 -0.723273
0.183138 0.600507 0.053857 0.043255 -0.307114 -0.950689
0.196766 0.698875 0.045845 -0.122330 0.415132 -0.901499
0.094575 0.301961 0.107258 -0.954862 -0.296194 0.022519
0.180848 0.961380 0.050857 -0.114591 0.333855 -0.935633
0.193484 0.884074 0.171099 0.178209 0.194035 0.964672
0.264683 0.184441 0.137242 0.944950 -0.113934 0.306738
0.172386 0.364066 0.146798 0.903072 0.064120 0.424676
0.136153 0.892464 0.099406 -0.935038 0.201013 -0.292056
0.329502 0.536906 0.120556 0.994443 -0.079983 -0.068460
0.151174 0.860542 0.103980 -0.443562 0.887096 -0.127725
0.179015 0.882278 0.171688 -0.158905 0.192514 0.968343
0.117836 0.855416 0.079336 -0.661186 -0.693088 -0.287161
0.172977 0.484372 0.047468 0.202835 0.607970 -0.767614
0.235282 0.803791 0.078348 0.811434 -0.360611 -0.459929
0.154533 0.423849 0.178185 -0.476999 -0.516346 0.711237
0.135117 0.239879 0.103932 0.339097 -0.931376 -0.132484
0.150778 0.354264 0.153070 0.511574 0.012775 0.859144
0.309491 0.296203 0.092402 0.639088 0.248581 -0.727856
0.105566 0.028896 0.187037 -0.206497 -0.978439 0.004000
0.258411 0.066463 0.093635 0.798477 0.538674 -0.268823
0.138646 0.403829 0.106921 -0.758750 -0.651179 -0.016255
0.169814 0.864239 0.118980 -0.207906 0.973865 0.091448
0.260923 0.612678 0.144100 0.870733 -0.365957 0.328480
0.211598 0.936175 0.084489 0.720627 -0.182189 -0.668958
0.121985 0.239879 0.134216 -0.508733 -0.662556 0.549737
0.238441 0.404369 0.055442 0.098188 0.383398 -0.918349
0.209008 0.881740 0.087458 -0.021692 -0.999041 0.038044
0.110925 0.452171 0.086141 -0.228088 0.963803 -0.138058
0.038418 0.534649 0.141837 -0.722458 -0.046601 0.689842
0.125466 0.850433 0.156926 -0.480850 -0.844907 0.234343
0.085166 0.585117 0.075151 0.839756 -0.464417 -0.281296
0.150459 0.418503 0.154804 0.614319 0.481056 0.625457
0.250706 0.531124 0.082430 0.730101 -0.643124 -0.230964
0.307166 0.386008 0.079239 0.174404 0.061781 -0.982734
0.136380 0.443717 0.066045 0.557006 0.639377 -0.530039
0.235826 0.849916 0.094767 -0.124857 0.988123 0.089573
0.144156 0.512721 0.150158 -0.407229 0.754375 0.514863
0.253477 0.460525 0.067801 0.867937 0.098353 -0.486839
0.215445 0.400992 0.157125 -0.134867 0.123516 0.983135
0.153375 0.271532 0.087841 0.709872 0.399174 -0.580294
0.052889 0.550857 0.149484 -0.223244 0.082077 0.971301
0.207455 0.944669 0.089224 0.651122 -0.420076 -0.632120
0.168610 0.856955 0.202005 -0.130122 -0.671334 0.729643
0.103185 0.640078 0.141366 -0.805568 -0.253442 0.535563
0.223920 0.328972 0.150869 -0.136872 -0.072200 0.987954
0.328651 0.652572 0.159095 0.826584 -0.147026 0.543269
0.331411 0.386899 0.108127 0.642195 -0.758855 0.108278
0.152778 0.212618 0.150683 0.823448 -0.024330 0.566870
0.317833 0.516418 0.080507 0.458225 -0.208029 -0.864149
0.215293 0.093622 0.092341 -0.456503 -0.343355 -0.820799
0.145120 0.853790 0.123012 0.954946 -0.221853 -0.197127
0.115612 0.580770 0.163668 -0.600821 -0.475824 0.642344
0.264401 0.253726 0.100711 0.868113 -0.490199 0.078003
0.285901 0.454675 0.088837 -0.435245 -0.362484 -0.824116
0.209684 0.239928 0.087031 -0.261727 -0.525917 -0.809265
0.145439 0.555427 0.157983 -0.454004 -0.555122 0.696936
0.229284 0.874016 0.101675 0.965463 0.169737 -0.197664
0.246963 0.732692 0.146522 0.079093 0.975095 0.207208
0.322741 0.571474 0.145658 0.403124 -0.447065 0.798513
0.273098 0.443500 0.123997 0.577386 0.785918 0.221266
0.180220 0.725119 0.126219 -0.331857 -0.793847 0.509586
0.118942 0.447950 0.035249 -0.813151 -0.161595 -0.559171
0.086421 0.535604 0.088306 0.807483 -0.123740 -0.576767
0.125901 0.286708 0.071024 -0.000430 -0.323717 -0.946154
0.335081 0.664863 0.144123 0.980292 -0.100070 0.170334
0.149941 0.044311 0.168238 0.977069 0.212915 -0.001887
0.258012 0.063419 0.176056 0.355689 0.916264 0.184243
0.305211 0.320277 0.110229 0.121868 -0.050088 0.991282
0.232287 0.835656 0.144181 0.755440 0.486743 0.438624
0.306565 0.372647 0.086591 0.198323 -0.171284 -0.965054
0.144605 0.872493 0.082450 -0.798212 0.426116 -0.425774
0.141493 0.927471 0.078106 -0.795644 0.261061 -0.546624
0.091082 0.649817 0.107658 0.961242 -0.207366 -0.181696
0.178089 0.442966 0.178128 0.083702 -0.279445 0.956506
0.161936 0.879532 0.105753 -0.361165 0.927527 -0.096199
0.135267 0.443634 0.059262 0.516471 0.622061 -0.588470
0.308904 0.351381 0.087797 0.466650 -0.107847 -0.877842
0.227547 0.182287 0.071369 -0.309532 -0.086454 -0.946951
0.148394 0.891014 0.077151 -0.723194 0.203175 -0.660083
0.326673 0.481971 0.085962 0.835966 -0.344101 -0.427498
0.133333 0.685824 0.187231 -0.193722 -0.055156 0.979505
0.334161 0.707762 0.083527 0.837934 0.374273 -0.397223
0.229808 0.857113 0.109141 0.776227 -0.629001 -0.042760
0.153105 0.751369 0.141623 -0.416189 -0.866481 0.275676
0.101900 0.653157 0.179904 -0.501169 -0.176162 0.847229
0.163409 0.363523 0.053518 0.491105 -0.044992 -0.869938
0.237784 0.239928 0.107328 0.274726 -0.961439 0.012690
0.268565 0.410324 0.056277 0.642582 0.202084 -0.739087
0.243713 0.382847 0.155548 0.472419 0.005659 0.881356
0.112723 0.626884 0.174011 -0.503652 -0.277380 0.818166
0.325563 0.460423 0.116436 0.842993 -0.442750 0.305509
0.112678 0.452443 0.147745 -0.398028 0.827079 0.396880
0.153276 0.615254 0.171402 -0.223186 -0.253289 0.941293
0.265636 0.176312 0.078234 0.782515 -0.166656 -0.599914
0.234450 0.835258 0.094004 0.925652 0.266988 -0.268117
0.101302 0.652293 0.106504 -0.988731 -0.147554 0.025273
0.036184 0.623263 0.083588 -0.843766 -0.235865 -0.482106
0.063200 0.708295 0.065561 -0.115422 0.632992 -0.765506
0.156329 0.879532 0.089432 -0.470467 0.845610 -0.252200
0.097113 0.323484 0.062643 -0.656148 -0.180442 -0.732742
0.182198 0.862989 0.084694 0.140000 0.903951 -0.404070
0.274995 0.399972 0.054825 0.683183 0.071982 -0.726690
0.112467 0.491589 0.136917 -0.791221 0.334503 0.511935
0.323342 0.669637 0.161922 0.803394 -0.084409 0.589435
0.239307 0.823542 0.074322 0.862509 -0.115548 -0.492673
0.302691 0.723752 0.159736 -0.315939 0.813721 0.487894
0.271270 0.323699 0.070757 0.804038 -0.304383 -0.510758
0.115947 0.285979 0.140457 -0.643506 0.644534 0.412887
0.310545 0.126774 0.099292 0.973148 -0.108446 0.203032
0.129850 0.512721 0.099067 -0.253999 0.962905 -0.091100
0.172763 0.414649 0.040086 -0.294125 -0.580061 -0.759619
0.136466 0.200119 0.068504 0.205967 -0.053455 -0.977098
0.160306 0.794600 0.164361 -0.430904 -0.253013 0.866202
0.157668 0.512721 0.091892 -0.000979 0.973549 -0.228478
0.202491 0.231834 0.149475 -0.660920 0.084464 0.745688
0.242211 0.028885 0.193350 0.015847 -0.994988 0.098733
0.331565 0.633351 0.093857 0.916871 -0.285666 -0.278825
0.235318 0.117047 0.137830 -0.020109 -0.257039 0.966192
0.172913 0.879532 0.149269 -0.124978 0.928031 0.350912
0.260603 0.608090 0.107366 0.885618 -0.443790 -0.136862
0.228927 0.854192 0.129867 0.653251 -0.735425 0.180038
0.100046 0.659341 0.068283 -0.876646 -0.033006 -0.480002
0.031515 0.680001 0.068441 -0.915672 0.071888 -0.395445
0.270379 0.694746 0.143608 0.973756 0.103462 0.202720
0.326221 0.585465 0.080646 0.858760 -0.448853 -0.247107
0.287047 0.392028 0.096009 -0.950890 0.293105 -0.099484
0.283465 0.424158 0.119837 -0.711825 0.417137 0.565068
0.076699 0.552051 0.149310 0.779580 0.096705 0.618792
0.207002 0.683863 0.041401 0.016648 0.052534 -0.998480
0.088798 0.406537 0.111975 0.894312 -0.416068 0.164603
0.119119 0.429786 0.079558 -0.889947 -0.448089 -0.084911
0.246689 0.679179 0.040014 0.337316 -0.100713 -0.935989
0.165945 0.410985 0.123035 0.939730 0.337317 0.055894
0.209352 0.847032 0.074881 0.507215 0.584241 -0.633557
0.206461 0.380357 0.155332 -0.341951 0.076658 0.936586
0.033089 0.658164 0.127487 -0.937743 -0.096325 0.333707
0.165314 0.287398 0.110133 0.948708 -0.303584 0.088260
0.203140 0.725119 0.130974 0.183173 -0.722674 0.666476
0.324238 0.586356 0.148123 0.491974 -0.395872 0.775401
0.311403 0.362457 0.092219 0.780661 -0.209064 -0.588949
0.214566 0.847793 0.179195 0.190799 -0.913610 0.359044
0.262132 0.241682 0.148408 0.721003 0.289511 0.629555
0.215107 0.637875 0.316911 -0.377532 -0.632715 -0.676123
0.125184 0.484758 0.168403 -0.642683 0.230411 0.730663
0.171010 0.348216 0.128834 0.984552 -0.036606 0.171222
0.245096 0.505670 0.054612 0.709567 0.600007 -0.369468
0.097495 0.720830 0.140323 -0.632117 0.773301 0.049324
0.138314 0.067909 0.158812 0.080374 0.983492 0.162124
0.311921 0.250943 0.092279 0.808564 -0.098259 -0.580146
0.273858 0.361835 0.105720 0.970944 -0.188299 -0.147689
0.208584 0.872871 0.069733 0.490721 0.495717 -0.716559
0.098879 0.262982 0.126031 -0.923155 0.367932 0.111408
0.151103 0.141143 0.079579 0.787828 -0.269292 -0.553903
0.303607 0.164568 0.098313 0.662039 -0.180575 -0.727390
0.067728 0.602661 0.109868 0.097201 0.993316 0.062251
0.227274 0.285968 0.085855 -0.161637 0.840307 -0.517453
0.274332 0.704168 0.152493 -0.840737 0.271943 0.468196
0.328587 0.519147 0.080015 0.754431 -0.193908 -0.627083
0.101518 0.043904 0.124568 -0.926667 0.359833 -0.108665
0.225232 0.553837 0.062624 0.494909 -0.569233 -0.656536
0.085530 0.583656 0.120796 0.865750 0.498289 0.046747
0.194979 0.854192 0.120966 0.170851 -0.984370 0.042719
0.164817 0.375706 0.091414 -0.395676 -0.849059 -0.350056
0.140272 0.267660 0.145548 0.030270 -0.309831 0.950310
0.200096 0.926758 0.097636 -0.526345 -0.723234 0.447094
0.270379 0.719311 0.052540 0.428228 0.600019 -0.675720
0.204484 0.934745 0.092620 0.603111 -0.565785 -0.562267
0.046032 0.667069 0.161912 -0.370854 -0.062981 0.926553
0.230591 0.786172 0.140740 0.900752 -0.270458 0.339850
0.283283 0.597004 0.144514 -0.867911 -0.406081 0.286057
0.307510 0.260642 0.108128 0.371156 -0.067197 0.926136
0.146587 0.243768 0.148089 0.562196 0.349520 0.749514
0.087596 0.655794 0.160478 0.859786 -0.119057 0.496582
0.255290 0.102108 0.097751 0.919774 -0.362526 -0.150300
0.142316 0.702518 0.046923 -0.445953 0.550047 -0.706098
0.199525 0.293202 0.147762 -0.783618 -0.279748 0.554692
0.096117 0.285416 0.115813 -0.930655 -0.352614 0.097693
0.224472 0.536589 0.153758 0.113620 -0.444898 0.888344
0.034844 0.430009 0.105884 -0.800754 0.471096 -0.369949
0.102105 0.650978 0.174287 -0.541123 -0.187909 0.819681
0.258529 0.732692 0.101327 0.243255 0.951271 -0.189503
0.239025 0.966626 0.111382 0.932690 0.339732 -0.121128
0.255689 0.508263 0.058699 0.762485 0.580314 -0.286099
0.149901 0.514140 0.081640 -0.081013 -0.691854 -0.717478
0.227035 0.783655 0.094838 0.777136 -0.558706 -0.289666
0.275083 0.732591 0.114454 -0.597133 0.801700 0.026633
0.125448 0.722875 0.052949 -0.222886 0.885878 -0.406867
0.205924 0.458291 0.038718 0.330689 0.153494 -0.931174
0.136725 0.044673 0.076401 0.640903 0.344793 -0.685829
0.173833 0.363495 0.088919 0.912100 -0.015173 -0.409686
0.095466 0.237869 0.132265 -0.876536 0.192051 0.441362
0.186011 0.816460 0.171555 -0.003465 0.247873 0.968786
0.140642 0.879532 0.103958 -0.659520 0.747766 -0.076680
0.143998 0.028896 0.197714 0.109185 -0.984170 0.139599
0.144046 0.137554 0.140587 0.480788 -0.199380 0.853868
0.330769 0.626215 0.131431 0.941624 -0.267304 0.204677
0.112172 0.567441 0.076180 -0.590814 -0.410481 -0.694583
0.115953 0.049938 0.077670 -0.633053 0.579706 -0.513015
0.154675 0.157736 0.083077 0.838297 -0.222356 -0.497811
0.115632 0.028896 0.090862 -0.018441 -0.993269 -0.114355
0.126629 0.299869 0.148346 -0.166897 -0.238085 0.956797
0.232749 0.452882 0.093515 -0.510344 0.843148 -0.169267
0.137037 0.521328 0.068731 -0.105994 -0.488077 -0.866340
0.083199 0.731306 0.142393 0.089068 0.934200 0.345453
0.216553 0.846231 0.095722 -0.833532 -0.242735 0.496291
0.193771 0.806737 0.173490 0.148110 0.116583 0.982075
0.135672 0.042013 0.209919 0.519414 0.618750 0.589370
0.336418 0.676842 0.133468 0.997226 -0.071982 0.018927
0.244768 0.434773 0.104125 0.950249 -0.264009 -0.165308
0.114666 0.038794 0.211794 -0.616140 0.393870 0.682083
0.122663 0.285979 0.127600 -0.414076 0.846901 0.333616
0.317804 0.588680 0.078131 0.672804 -0.525008 -0.521251
0.152155 0.553472 0.157545 -0.408311 -0.555140 0.724639
0.236111 0.942064 0.132222 0.941209 0.283071 0.184383
0.264525 0.641431 0.161604 0.867739 -0.238841 0.435872
0.251256 0.535516 0.112172 0.691751 -0.674195 0.258730
0.146437 0.935523 0.072032 -0.722094 0.280644 -0.632312
0.291832 0.452654 0.113887 -0.696312 -0.646550 -0.311644
0.194449 0.725657 0.131915 -0.022209 -0.700849 0.712964
0.215771 0.524678 0.068102 0.491511 -0.661376 -0.566567
0.150401 0.890707 0.144890 0.793921 -0.260023 -0.549615
0.128782 0.590760 0.165908 -0.488458 -0.419951 0.764886
0.172759 0.732692 0.147297 -0.190016 0.960380 0.203871
0.122858 0.444149 0.118869 -0.901222 -0.323701 0.288125
0.154444 0.418644 0.082983 0.773032 0.450465 -0.446657
0.093543 0.700594 0.065548 0.753874 0.171545 -0.634229
0.250925 0.294714 0.147894 0.289525 -0.200424 0.935952
0.217208 0.619113 0.329430 0.282441 -0.657333 -0.698670
0.227297 0.964043 0.074596 0.738628 0.265086 -0.619805
0.166804 0.588147 0.165322 -0.193417 -0.355735 0.914354
0.190933 0.364189 0.053377 -0.790759 0.146386 -0.594367
0.175716 0.958861 0.084065 0.185997 -0.605731 0.773624
0.294106 0.383070 0.116458 -0.457574 -0.042373 0.888161
0.224075 0.861927 0.087086 0.842793 -0.383196 -0.377969
0.087964 0.391251 0.088953 -0.986150 0.083381 -0.143371
0.188875 0.572432 0.161798 -0.061035 -0.375816 0.924682
0.212741 0.112214 0.096988 -0.762052 -0.319094 -0.563432
0.265866 0.328170 0.150799 0.650227 -0.156259 0.743497
0.303363 0.643437 0.157581 0.048255 -0.239224 0.969765
0.265650 0.175466 0.074615 0.751639 -0.166324 -0.638259
0.221508 0.285968 0.113478 -0.545528 0.837312 0.036167
0.108923 0.477900 0.069756 -0.882110 0.379579 -0.278929
0.167882 0.879532 0.094708 -0.290058 0.930143 -0.225167
0.242007 0.239928 0.126031 0.112986 -0.722787 0.681772
0.144531 0.641325 0.177250 -0.219943 -0.168189 0.960905
0.177798 0.369376 0.134186 -0.244434 -0.955556 0.164817
0.281026 0.542076 0.082039 -0.909405 0.035849 -0.414363
0.093543 0.724502 0.068743 0.730531 0.477621 -0.488061
0.093298 0.675054 0.104634 0.941835 -0.107234 -0.318508
0.132418 0.724450 0.173849 -0.420770 0.790559 0.444937
0.038811 0.616797 0.071122 -0.660197 -0.253769 -0.706924
0.214956 0.965610 0.080647 0.696422 -0.058575 -0.715238
0.142189 0.730143 0.055100 -0.073395 0.933666 -0.350545
0.235210 0.254600 0.146424 -0.107416 0.482775 0.869132
0.135218 0.849723 0.144402 0.084769 0.991301 -0.100678
0.097495 0.715750 0.124930 -0.678057 0.731959 -0.066897
0.106148 0.710646 0.179138 -0.521781 0.489837 0.698430
0.172766 0.865283 0.147637 -0.298155 0.815865 0.495447
0.261623 0.170538 0.145025 0.736836 -0.117933 0.665707
0.215364 0.285968 0.128737 -0.756476 0.631219 0.171193
0.316732 0.392016 0.099115 0.307730 -0.482532 -0.820039
0.110406 0.696663 0.045190 -0.612523 0.447583 -0.651526
0.211923 0.118176 0.088808 -0.622253 -0.264789 -0.736674
0.336471 0.678588 0.124233 0.993807 -0.068368 -0.087596
0.143517 0.405549 0.054809 0.426810 0.348873 -0.834338
0.145641 0.879532 0.123115 -0.571238 0.813954 0.105670
0.134261 0.911416 0.098633 -0.934176 0.232164 -0.270952
0.260525 0.043066 0.113301 0.957594 0.137649 -0.253113
0.156997 0.914092 0.065614 -0.544891 0.246697 -0.801395
0.071531 0.581873 0.144954 0.110326 0.617790 0.778566
0.198706 0.879532 0.081625 0.185612 0.887315 -0.422160
0.103528 0.118365 0.098396 -0.842185 -0.297088 -0.449959
0.268095 0.297966 0.102042 0.928346 -0.364123 -0.074762
0.166516 0.968415 0.070569 -0.410134 0.517490 -0.750995
0.138609 0.910034 0.089196 -0.885275 0.232686 -0.402673
0.254598 0.562193 0.116812 0.798548 -0.579133 0.164092
0.097495 0.679336 0.053388 -0.797364 0.092943 -0.596299
0.096065 0.246004 0.145333 -0.769105 0.199533 0.607177
0.329172 0.568228 0.127583 0.970965 0.229432 0.067738
0.115775 0.428936 0.152946 -0.171058 0.586369 0.791777
0.155805 0.255375 0.144719 0.653207 0.461007 0.600661
0.179309 0.564482 0.160014 -0.158520 -0.443643 0.882073
0.250071 0.732692 0.086380 0.248614 0.922308 -0.295871
0.217995 0.076768 0.123979 -0.878200 -0.476912 0.036324
0.144134 0.850558 0.068753 0.229907 0.964743 0.128114
0.273977 0.427356 0.067050 0.758902 0.309656 -0.572871
0.256419 0.113344 0.117148 0.898498 -0.336062 0.282425
0.171045 0.715556 0.177257 -0.274068 0.681091 0.678971
0.282175 0.581411 0.138719 -0.845951 0.328106 0.420372
0.046940 0.607339 0.072325 -0.435221 -0.344974 -0.831610
0.229602 0.788479 0.103620 0.869850 -0.466338 -0.160904
0.215744 0.090333 0.113913 -0.880668 -0.433222 -0.191685
0.310997 0.314011 0.090892 0.646623 0.231547 -0.726819
0.221067 0.872944 0.073679 -0.431754 0.817404 0.381365
0.102171 0.040489 0.166777 -0.919493 0.314616 0.235689
0.028434 0.413460 0.106914 -0.843263 0.090731 -0.529788
0.202409 0.213822 0.083409 -0.900862 0.121623 -0.416720
0.214354 0.361060 0.153656 -0.243822 0.017989 0.969653
0.190127 0.865566 0.064186 0.225808 0.161918 -0.960621
0.217233 0.944007 0.151137 -0.709940 -0.311964 -0.631398
0.129201 0.251249 0.146940 -0.013330 0.458314 0.888691
0.204819 0.381890 0.106510 0.558452 -0.786445 0.263885
0.233406 0.899144 0.112279 0.975931 0.211639 -0.052608
0.312385 0.301547 0.090533 0.753117 -0.100341 -0.650190
0.196482 0.770002 0.166555 0.215200 -0.973856 -0.072753
0.124218 0.588198 0.056169 -0.384278 -0.262437 -0.885131
0.194810 0.309599 0.102413 -0.987255 -0.152889 -0.044196
0.205424 0.567456 0.160681 0.051745 -0.363919 0.929992
0.134863 0.939352 0.089844 -0.895299 0.281176 -0.345515
0.248245 0.716733 0.051131 0.281054 0.630859 -0.723205
0.207762 0.408071 0.156391 -0.325672 0.233580 0.916176
0.260918 0.279903 0.112669 0.678355 0.733760 -0.037820
0.033606 0.652339 0.141701 -0.859672 -0.132645 0.493324
0.162797 0.403603 0.167549 -0.367482 -0.683598 0.630595
0.128071 0.510761 0.056320 -0.037327 0.867281 -0.496418
0.203369 0.366286 0.052899 -0.675682 0.122474 -0.726948
0.188044 0.849532 0.056014 0.062621 0.995316 0.073656
0.239963 0.828784 0.088766 0.948189 0.054851 -0.312937
0.093295 0.196158 0.083306 -0.924997 0.021066 -0.379390
0.243245 0.288699 0.070581 0.362360 -0.422547 -0.830752
0.267567 0.659421 0.087114 0.815536 -0.258599 -0.517714
0.215669 0.958320 0.103621 -0.834399 -0.518139 0.187908
0.224759 0.882264 0.118594 -0.969358 -0.245603 -0.004860
0.155522 0.474763 0.044244 -0.102827 0.495166 -0.862692
0.162260 0.381606 0.058746 -0.300014 -0.764552 -0.570484
0.214525 0.356247 0.153238 -0.249394 0.006714 0.968379
0.224476 0.306075 0.066621 -0.101358 -0.289884 -0.951679
0.168930 0.854192 0.139811 -0.268576 -0.942373 0.199501
0.119068 0.851066 0.090525 -0.526688 -0.830059 -0.183308
0.089203 0.411103 0.071606 -0.890236 0.333885 -0.309841
0.100416 0.240173 0.110514 -0.714047 -0.582069 -0.389015
0.238869 0.378129 0.051760 0.036452 0.044894 -0.998326
0.151396 0.031383 0.137284 0.620056 -0.781171 0.072824
0.085967 0.573698 0.083912 0.750371 0.211387 -0.626306
0.252612 0.861397 0.151965 -0.223947 0.958467 -0.176606
0.038645 0.568441 0.142640 -0.776800 0.208748 0.594143
0.280893 0.618591 0.107718 -0.950600 -0.290250 -0.110068
0.197025 0.632742 0.175325 0.196596 -0.223535 0.954663
0.061631 0.724564 0.159693 -0.396232 0.800117 0.450348
0.146007 0.940768 0.087496 0.794852 -0.304989 0.524588
0.093543 0.687893 0.067529 0.754706 0.005008 -0.656044
0.210414 0.596386 0.054631 0.262791 -0.363885 -0.893604
0.307106 0.135509 0.094820 0.621231 -0.473093 -0.624704
0.245166 0.437421 0.149922 -0.040674 0.787436 0.615053
0.240613 0.960686 0.121728 0.950980 0.308509 0.021431
0.189995 0.763976 0.156650 0.276387 -0.676798 0.682316
0.270095 0.675231 0.041375 0.482619 -0.160451 -0.861008
0.078919 0.453198 0.116233 0.715691 -0.550381 0.429962
0.270379 0.688546 0.105173 0.938284 -0.006976 -0.345796
0.224171 0.437991 0.110023 -0.704901 0.698657 -0.122446
0.328776 0.522821 0.121096 0.990009 -0.140623 -0.010401
0.209051 0.139134 0.099604 -0.963090 -0.200587 -0.179506
0.113727 0.130651 0.139659 -0.484526 -0.273336 0.830976
0.092940 0.317217 0.084111 -0.925055 -0.223443 -0.307160
0.246717 0.240295 0.148621 0.386829 0.321757 0.864196
0.170287 0.854192 0.122098 -0.210496 -0.977478 0.015126
0.188610 0.514140 0.114847 0.015167 -0.985886 0.166727
0.182700 0.514140 0.073597 0.254615 -0.701180 -0.665972
0.167836 0.844971 0.177370 -0.118776 -0.985385 0.122102
0.206378 0.738815 0.104436 0.890178 -0.034240 -0.454324
0.185544 0.512721 0.086103 0.223336 0.944890 -0.239384
0.213938 0.871695 0.145452 -0.801325 -0.243409 -0.546471
0.187338 0.397749 0.134850 -0.740069 0.187474 0.645873
0.121302 0.449708 0.119496 -0.916665 -0.250849 0.311128
0.201101 0.205307 0.090021 -0.962797 0.052116 -0.265153
0.208991 0.279230 0.099511 -0.699628 0.674726 -0.235086
0.207947 0.278252 0.146464 -0.708039 -0.342186 0.617729
0.087913 0.389076 0.083586 -0.975256 0.073758 -0.208412
0.096714 0.173090 0.103496 -0.993757 -0.100439 -0.048567
0.065893 0.602661 0.092192 0.212052 0.904120 -0.370946
0.051884 0.636057 0.068672 -0.403886 -0.253571 -0.878964
0.163133 0.260322 0.080630 0.865231 -0.417514 -0.277592
0.145206 0.514140 0.080423 -0.109899 -0.658055 -0.744906
0.127179 0.582231 0.163995 -0.521636 -0.460071 0.718492
0.325574 0.460628 0.113711 0.866445 -0.444284 0.227783
0.073078 0.535412 0.148391 0.655156 -0.052278 0.753683
0.076733 0.450606 0.113609 0.384100 0.845850 -0.370142
0.273472 0.421915 0.057904 0.698572 0.265893 -0.664303
0.183367 0.512721 0.115019 0.062846 0.997887 -0.016511
0.175762 0.973590 0.119295 -0.447241 0.878094 0.170079
0.093543 0.722631 0.088181 0.800480 0.512310 -0.311080
0.102592 0.646940 0.171369 -0.564718 -0.206946 0.798916
0.274173 0.415678 0.102300 -0.747729 0.265749 -0.608505
0.107181 0.108981 0.136744 -0.819621 -0.341585 0.459935
0.220809 0.274108 0.073907 -0.085888 -0.392642 -0.915672
0.315238 0.570130 0.135565 0.273593 -0.654612 0.704720
0.199374 0.555111 0.062385 0.292900 -0.523001 -0.800424
0.224673 0.879532 0.140789 0.644669 0.748884 0.153538
0.179450 0.860496 0.072038 0.184454 -0.239926 0.953107
0.181161 0.854192 0.088859 0.008360 -0.945187 -0.326423
0.264238 0.730299 0.171607 0.091589 0.921314 0.377877
0.187840 0.916078 0.175272 0.101565 0.255389 0.961489
0.088387 0.365134 0.061384 -0.907863 -0.030763 -0.418136
0.135537 0.143998 0.141454 0.293443 -0.192822 0.936328
0.151895 0.372280 0.051522 0.293252 -0.013068 -0.955946
0.218297 0.139649 0.140870 -0.563274 -0.245621 0.788918
0.187488 0.618902 0.172221 0.063126 -0.251169 0.965883
0.191004 0.732692 0.145495 -0.117399 0.971593 0.205484
0.229746 0.853759 0.053500 0.413633 -0.799382 -0.435770
0.226790 0.952023 0.096169 -0.910391 -0.307791 0.276500
0.281977 0.576910 0.106937 -0.930067 0.345373 -0.125271
0.194445 0.972250 0.100626 0.378227 0.780255 -0.498142
0.188950 0.970978 0.086879 0.099839 0.729075 -0.677113
0.274332 0.729903 0.131713 -0.741677 0.661117 0.113311
0.203570 0.841571 0.071248 0.405343 0.532514 -0.743051
0.121507 0.133847 0.081034 -0.123612 -0.262155 -0.957076
0.221365 0.422212 0.153184 -0.271326 0.517364 0.811614
0.064017 0.443389 0.103247 -0.085691 0.640925 -0.762806
