0.404716 0.245337 0.040401 -0.354997 0.084822 0.931011
0.437622 0.211334 0.067427 -0.587294 0.193707 0.785852
0.535448 0.792466 0.070806 0.423593 -0.898255 0.117074
0.385484 0.458228 0.042812 -0.992063 0.024811 0.123272
0.224603 0.897493 0.104104 -0.310555 -0.943676 0.114157
0.435588 0.855011 0.113246 -0.374756 0.643898 -0.667049
0.385484 0.062644 0.085873 0.836182 0.029721 -0.547646
0.501401 0.785093 0.031542 0.615549 -0.271202 -0.739966
0.424400 0.941844 0.045184 -0.072716 -0.859548 0.505855
0.391581 0.796799 0.120351 -0.929933 -0.312697 0.193509
0.436438 0.199819 0.079145 -0.405489 0.241885 0.881516
0.390672 0.783336 0.039712 0.111731 0.084537 -0.990136
0.491823 0.726246 0.030188 -0.139019 0.193729 0.971155
0.436948 0.570162 0.069245 0.939499 -0.341313 0.029119
0.449607 0.328581 0.095215 -0.461991 0.254044 -0.849721
0.203346 0.891831 0.141766 0.287215 0.204991 0.935674
0.525364 0.515971 0.070358 -0.558385 -0.083703 -0.825348
0.385484 0.390914 0.078085 -0.954427 -0.001996 0.298436
0.524455 0.667299 0.035312 0.061638 0.239683 -0.968893
0.511572 0.746207 0.142033 0.967763 -0.191422 0.163682
0.519428 0.711542 0.030188 0.223502 0.084566 -0.971028
0.308043 0.819331 0.075211 -0.427282 -0.871065 -0.242232
0.406432 0.711894 0.030188 -0.464151 0.457392 0.758523
0.450278 0.570162 0.123632 -0.913802 0.101566 0.393257
0.473929 0.569488 0.061107 -0.889409 -0.318403 0.327980
0.475460 0.818339 0.084221 -0.504974 -0.653356 -0.564028
0.535924 0.791715 0.084948 -0.930115 0.225002 -0.290278
0.495533 0.745079 0.142517 0.976906 -0.210704 -0.035478
0.504700 0.145386 0.099106 -0.988213 -0.147843 0.039718
0.417706 0.565401 0.058504 0.947648 -0.244173 0.205773
0.456262 0.393415 0.054181 -0.868376 0.043959 -0.493953
0.730332 0.870469 0.069067 0.324210 -0.935233 0.142220
0.499750 0.872380 0.127789 -0.505674 -0.554287 0.661105
0.575710 0.830318 0.113325 -0.459669 0.831247 -0.312623
0.424298 0.081226 0.075439 -0.370807 0.164632 0.914001
0.458479 0.855294 0.058530 0.991926 -0.039065 0.120652
0.682222 0.881309 0.105490 0.342032 -0.932080 0.119331
0.463246 0.539743 0.110445 0.817052 0.185835 -0.545795
0.478895 0.956155 0.092625 -0.411115 -0.323347 0.852310
0.497596 0.864529 0.063806 -0.564173 0.332484 -0.755753
0.504695 0.902620 0.124240 0.924790 -0.236965 -0.297677
0.504760 0.905678 0.097902 0.944769 -0.326845 0.024147
0.624754 0.843866 0.042334 -0.453523 0.797863 0.397153
0.537821 0.423315 0.130511 -0.934804 -0.056890 0.350578
0.390672 0.031497 0.114354 -0.853007 0.455226 -0.255243
0.390672 0.798478 0.112353 -0.917762 -0.265589 0.295256
0.869586 0.942705 0.148676 -0.343969 -0.536172 0.770847
0.175271 0.894503 0.079311 -0.253547 -0.817606 0.516948
0.481515 0.283362 0.109853 -0.976087 -0.126413 0.176843
0.430651 0.312169 0.035268 -0.286867 0.057593 0.956238
0.496320 0.159432 0.100693 -0.950220 -0.145664 0.275434
0.390672 0.038412 0.170464 0.834342 -0.550400 -0.030541
0.446287 0.814107 0.109614 -0.997431 -0.027322 0.066227
0.529664 0.172773 0.046921 -0.942778 0.082720 0.322996
0.421694 0.928601 0.097174 0.817080 -0.431967 -0.381818
0.727828 0.864637 0.137438 -0.404639 0.912714 0.056750
0.508509 0.254992 0.111491 -0.460237 0.012526 -0.887708
0.430966 0.708019 0.030188 0.426815 0.404863 0.808650
0.293144 0.827525 0.068125 -0.436465 -0.873187 -0.216894
0.412706 0.455059 0.030188 -0.999590 0.026312 -0.011298
0.579399 0.825256 0.032393 -0.444671 0.848957 0.285552
0.387525 0.065147 0.090718 0.840915 0.023894 -0.540639
0.421694 0.910472 0.039853 0.228631 0.330674 -0.915632
0.469611 0.572131 0.134086 0.677096 -0.115878 -0.726714
0.399932 0.201357 0.043779 0.419676 -0.118829 -0.899862
0.504695 0.929642 0.069110 -0.788338 0.280348 -0.547658
0.856200 0.939723 0.142027 -0.435189 -0.219159 0.873258
0.421694 0.893723 0.079352 0.416028 0.319629 -0.851327
0.497601 0.126307 0.053559 0.907505 0.104067 -0.406947
0.420691 0.082754 0.052887 -0.457694 -0.173569 -0.872003
0.385484 0.428523 0.033829 -0.987251 0.116665 -0.108278
0.484302 0.765055 0.133955 0.724719 -0.363700 0.585239
0.417023 0.640172 0.138194 -0.013117 0.050603 0.998633
0.504747 0.036931 0.167117 0.951115 -0.306184 -0.040398
0.455460 0.385571 0.051984 -0.901424 0.047231 -0.430352
0.428214 0.565540 0.058542 0.947240 -0.279501 0.156893
0.452705 0.358795 0.083085 -0.645772 0.132083 -0.752019
0.218949 0.861123 0.091452 0.366311 0.685899 0.628776
0.423495 0.073385 0.063802 -0.490401 -0.149623 -0.858557
0.478065 0.569695 0.123824 -0.050541 -0.230207 -0.971828
0.485503 0.299281 0.036565 0.984842 0.172867 -0.014293
0.312824 0.855873 0.089983 0.462723 0.693872 0.551751
0.521349 0.445359 0.133002 -0.963058 -0.061126 0.262263
0.400849 0.672924 0.108157 0.032748 0.132857 0.990594
0.538263 0.471186 0.033911 0.992872 0.065370 -0.099656
0.395397 0.815746 0.099780 -0.768067 -0.091145 0.633850
0.385484 0.163013 0.070531 0.901608 0.019628 -0.432109
0.076075 0.957193 0.164759 -0.354389 -0.933661 0.051826
0.482337 0.433980 0.131716 -0.992841 -0.084893 0.084028
0.154934 0.916043 0.090307 0.363708 0.913223 -0.183685
0.405005 0.082469 0.052909 -0.745325 -0.132249 -0.653453
0.402017 0.665567 0.046261 0.906367 0.300246 0.297240
0.441210 0.569695 0.071287 -0.983206 -0.182441 -0.004696
0.480744 0.802257 0.118005 -0.993671 0.062106 -0.093605
0.464005 0.791282 0.122701 -0.981949 0.012697 0.188720
0.471053 0.820757 0.069712 0.689696 0.483490 -0.539033
0.405211 0.645278 0.097523 0.482868 0.228429 0.845375
0.582308 0.795936 0.089667 -0.201876 0.141776 0.969095
0.411539 0.605130 0.073255 -0.916613 -0.159765 0.366464
0.303666 0.860820 0.086324 -0.348123 -0.928411 0.129861
0.483405 0.264840 0.082548 -0.971078 -0.148437 0.187011
0.504862 0.372657 0.124787 -0.994403 -0.058377 -0.088060
0.407733 0.649074 0.138728 -0.224497 0.026909 0.974103
0.504695 0.908790 0.107046 0.939811 -0.005501 -0.341650
0.437588 0.211113 0.090846 -0.251432 0.341868 0.905488
0.417305 0.233405 0.041317 0.442242 -0.189275 -0.876697
0.672991 0.836605 0.105248 0.413599 -0.902680 0.118761
0.541060 0.277894 0.076560 -0.969130 0.006719 0.246457
0.047833 0.941811 0.166240 -0.120211 -0.821572 0.557287
0.506228 0.790448 0.034219 0.763661 -0.259498 -0.591171
0.810377 0.913904 0.152294 -0.496781 0.722655 0.480602
0.457962 0.893405 0.037969 0.982835 -0.139016 0.121283
0.406503 0.637099 0.082993 0.703791 0.268254 0.657813
0.535927 0.266715 0.039231 -0.994942 0.053984 -0.084716
0.517843 0.025000 0.157112 -0.904365 0.421571 -0.066355
0.195432 0.897381 0.143324 -0.411708 -0.895708 -0.167938
0.483996 0.853123 0.087963 0.297348 0.478758 -0.826060
0.385484 0.293333 0.100635 -0.901527 -0.014843 0.432467
0.452028 0.413961 0.030188 -0.798744 0.043090 0.600126
0.407002 0.030643 0.183506 -0.443936 -0.795545 -0.412347
0.385484 0.330085 0.062648 0.974300 0.000336 -0.225253
0.423178 0.202064 0.043724 -0.075647 -0.240178 -0.967777
0.464871 0.855011 0.100481 -0.572026 0.547444 -0.610812
0.541060 0.446543 0.132368 0.920528 -0.037546 -0.388868
0.564889 0.795343 0.027999 -0.450588 0.516848 0.727900
0.504681 0.687647 0.030188 0.266509 0.409057 -0.872723
0.458057 0.418421 0.129889 0.174971 0.062132 -0.982611
0.518370 0.400858 0.127974 -0.958066 -0.073460 0.276971
0.429982 0.427889 0.030188 -0.284809 0.008643 -0.958545
0.421797 0.030231 0.136635 -0.970268 0.149664 0.190211
0.385484 0.388319 0.063131 0.989188 -0.008738 -0.146393
0.390672 0.755546 0.076490 -0.956249 -0.147782 0.252485
0.461624 0.569695 0.092941 0.413744 0.892321 -0.180499
0.407676 0.629616 0.073841 -0.926385 -0.153769 0.343752
0.072742 0.951301 0.172251 -0.578096 -0.765265 -0.283151
0.491978 0.569695 0.117247 0.144524 -0.030533 -0.989030
0.244016 0.849858 0.082885 0.366210 0.827569 0.425465
0.515122 0.900334 0.074609 -0.855322 -0.517437 0.026144
0.535550 0.775802 0.074786 -0.108793 -0.138760 0.984332
0.222132 0.854897 0.129403 0.496950 0.195775 0.845407
0.172104 0.898088 0.081079 -0.461948 -0.886654 -0.021201
0.463298 0.539280 0.074588 -0.693263 -0.602203 0.395902
0.701636 0.875891 0.062604 -0.258593 -0.072788 0.963240
0.508221 0.681546 0.140718 0.823635 -0.227567 -0.519460
0.434119 0.177200 0.089233 -0.151297 0.259872 0.953717
0.493697 0.951604 0.059154 -0.410682 0.792110 -0.451556
0.535924 0.764215 0.095101 -0.772176 -0.073725 -0.631117
0.423686 0.883127 0.111423 -0.132889 0.466211 -0.874636
0.071405 0.939091 0.138443 -0.670401 0.159119 -0.724737
0.512028 0.490839 0.038148 -0.892695 -0.422197 -0.157623
0.511447 0.025000 0.088370 0.610910 0.641207 -0.464373
0.531352 0.448295 0.030188 -0.715160 -0.330431 -0.615924
0.534590 0.069629 0.090545 0.506322 0.079631 -0.858660
0.438358 0.869423 0.049111 0.519248 -0.817271 -0.249898
0.476577 0.821570 0.064835 0.622449 -0.478413 -0.619418
0.385484 0.172622 0.100183 0.930650 -0.005152 -0.365874
0.323462 0.807880 0.106749 -0.268362 -0.857367 -0.439208
0.510932 0.264650 0.039400 -0.645458 0.492264 0.584003
0.483320 0.487413 0.133939 0.960222 0.086920 -0.265364
0.466001 0.695831 0.030188 0.830864 0.513099 0.215394
0.468492 0.410435 0.060971 0.989057 0.120534 -0.085081
0.251036 0.881620 0.127617 0.367677 0.605684 0.705663
0.572137 0.833441 0.074227 0.374088 -0.817261 -0.438341
0.434113 0.177064 0.070622 -0.469283 0.191649 0.862000
0.520879 0.258034 0.111835 -0.920159 -0.105337 0.377108
0.450376 0.576424 0.057930 -0.948504 0.002304 -0.316757
0.513262 0.025000 0.109953 -0.123068 0.978492 -0.165553
0.460336 0.433313 0.073877 -0.570297 0.032786 -0.820784
0.480710 0.291127 0.081133 0.961492 0.107382 -0.252987
0.523128 0.462339 0.133939 0.948184 -0.002455 -0.317711
0.491205 0.270101 0.038954 0.953568 0.148187 -0.262202
0.446219 0.568971 0.059482 0.943395 -0.322921 0.075680
0.123150 0.945117 0.122258 0.539935 0.833625 0.116355
0.326204 0.850103 0.083413 -0.312664 -0.910918 0.269202
0.433270 0.718413 0.030188 -0.439558 0.252804 0.861904
0.397011 0.802156 0.118055 -0.928531 -0.264341 0.260679
0.527373 0.337318 0.033451 -0.957498 0.094863 -0.272393
0.403850 0.709632 0.142383 -0.658109 -0.117375 0.743717
0.520223 0.047716 0.127661 -0.120363 0.982671 0.140965
0.412413 0.551541 0.054706 0.923039 -0.278130 0.265789
0.385484 0.445901 0.048387 -0.987640 0.019688 0.155497
0.157340 0.913263 0.088952 0.303857 0.027878 0.952310
0.390283 0.786071 0.072969 0.328585 0.909012 -0.256378
0.525439 0.673735 0.114757 0.917683 -0.040226 -0.395272
0.431293 0.586199 0.055277 -0.986505 -0.055829 0.153919
0.396535 0.025000 0.061274 0.505723 0.844580 -0.175866
0.491420 0.663636 0.139632 0.882817 -0.049064 0.467148
0.535872 0.031475 0.156728 -0.911855 0.400188 0.091485
0.475597 0.388387 0.126565 -0.987339 -0.084303 -0.134366
0.541060 0.184448 0.061510 -0.517772 0.134860 -0.844822
0.517271 0.619840 0.079280 -0.332902 0.291203 -0.896871
0.440331 0.570162 0.104142 -0.456259 -0.492633 -0.741040
0.781023 0.882508 0.144771 -0.391437 0.913530 0.110636
0.145674 0.890880 0.142394 0.470977 0.539106 0.698244
0.391530 0.323709 0.034382 0.919137 -0.016851 -0.393576
0.403893 0.654617 0.036707 0.883674 0.329892 0.332102
0.423002 0.279935 0.037744 0.969576 -0.211054 0.124010
0.442040 0.649537 0.138768 0.359597 0.030171 0.932620
0.468367 0.606260 0.049832 -0.827006 0.057815 -0.559213
0.541060 0.355502 0.038254 -0.798742 0.136858 -0.585902
0.084759 0.934725 0.136861 -0.763747 0.219720 -0.606971
0.429204 0.129126 0.063697 -0.889184 -0.040073 -0.455791
0.498399 0.332930 0.120298 -0.926689 -0.050729 -0.372390
0.535022 0.482444 0.107999 0.680629 -0.076378 -0.728636
0.530176 0.499250 0.080577 0.995047 0.035491 0.092858
0.427828 0.137007 0.048721 -0.609205 -0.202323 -0.766769
0.066300 0.961978 0.164917 -0.425097 -0.821741 -0.379519
0.410119 0.049446 0.118270 -0.728999 0.681228 0.066998
0.390811 0.025000 0.169025 -0.807952 -0.566756 -0.161246
0.473821 0.928819 0.136767 0.846676 -0.177933 0.501478
0.541060 0.410922 0.040782 -0.991550 0.072935 -0.107276
0.396914 0.501754 0.054825 -0.999222 -0.033444 -0.020910
0.515563 0.608555 0.080096 0.269470 0.160997 -0.949456
0.538613 0.056540 0.080122 0.185591 0.151829 -0.970826
0.541060 0.456675 0.133582 0.924078 -0.058751 -0.377661
0.433968 0.745090 0.142512 0.441004 -0.167255 -0.881783
0.514712 0.198128 0.044846 -0.696061 0.270698 0.664997
0.385484 0.368763 0.058117 0.983728 -0.002132 -0.179652
0.446188 0.294977 0.046014 -0.832487 -0.028015 -0.553336
0.514926 0.604349 0.078490 0.230246 0.164220 -0.959176
0.440545 0.239910 0.070988 -0.721078 0.226472 0.654795
0.385484 0.165463 0.063903 0.912057 0.033956 -0.408655
0.481772 0.280718 0.045423 -0.891443 -0.189983 -0.411383
0.420716 0.693297 0.030188 0.851365 0.345933 0.394344
0.518620 0.204952 0.105837 0.006278 0.059525 -0.998207
0.541060 0.346860 0.084904 0.914527 0.035893 -0.402929
0.415993 0.064248 0.090619 0.203288 0.182840 0.961896
0.478688 0.319647 0.118797 -0.983204 -0.115353 0.141435
0.511185 0.078694 0.091570 -0.921650 -0.160074 0.353466
0.569768 0.791648 0.076598 0.230373 -0.752351 0.617168
0.383575 0.820020 0.098909 0.378476 0.484106 0.788922
0.494482 0.230772 0.042173 0.934566 0.138360 -0.327786
0.417092 0.807175 0.042583 0.923806 0.353129 -0.147923
0.887876 0.954944 0.166503 0.231547 -0.950978 0.205006
0.438240 0.217464 0.086254 -0.388942 0.319280 0.864167
0.394255 0.047811 0.127147 -0.773499 -0.564106 0.288936
0.390672 0.754851 0.044933 -0.992407 -0.122690 0.008703
0.459936 0.809955 0.043973 0.633580 -0.085246 -0.768966
0.541060 0.194378 0.071857 -0.950324 0.018274 0.310726
0.491125 0.800918 0.039454 0.856976 -0.163012 -0.488896
0.458927 0.620556 0.137007 -0.567906 -0.363289 -0.738582
0.481454 0.283959 0.045721 0.974310 0.124819 -0.187458
0.393679 0.718361 0.128203 -0.698334 -0.089110 0.710204
0.530406 0.498502 0.050388 -0.723194 -0.194538 -0.662680
0.411071 0.550924 0.102714 -0.881165 -0.055201 -0.469575
0.463298 0.464620 0.079655 -0.890396 -0.334078 0.309170
0.409681 0.546097 0.118937 -0.920081 -0.001868 -0.391724
0.435385 0.447010 0.030188 -0.843680 0.006713 -0.536805
0.521327 0.817135 0.091444 -0.464662 0.131116 -0.875727
0.403320 0.118020 0.050179 -0.900322 0.016883 0.434897
0.606892 0.850026 0.072105 0.406989 -0.905108 -0.123042
0.586441 0.824443 0.033233 -0.465189 0.769318 0.437891
0.390672 0.778020 0.084150 0.591891 0.176670 -0.786417
0.458071 0.411074 0.050013 -0.852616 0.028094 -0.521783
0.407156 0.732845 0.143827 0.273561 -0.158788 -0.948657
0.500663 0.749734 0.030188 0.392443 -0.085238 -0.915818
0.487231 0.428974 0.131151 -0.990313 -0.083655 0.110827
0.463246 0.508446 0.133470 0.956959 0.137451 -0.255610
0.211107 0.900909 0.130265 -0.383627 -0.918126 0.099373
0.203391 0.868798 0.091118 -0.406821 -0.908354 0.096901
0.483167 0.267170 0.071055 0.958414 0.110251 -0.263227
0.565147 0.795700 0.026078 -0.463945 0.561112 0.685498
0.445395 0.287291 0.067411 -0.960167 0.193782 0.201314
0.535924 0.770877 0.086028 -0.940756 0.249634 0.229477
0.415995 0.589299 0.135122 0.253642 0.144903 0.956383
0.444495 0.531966 0.133939 -0.704363 0.114575 0.700532
0.445558 0.615609 0.047294 0.571051 0.476974 -0.668129
0.411507 0.818930 0.048460 0.906061 0.413152 0.091425
0.496963 0.460739 0.030188 0.805648 0.054125 0.589917
0.134350 0.908069 0.150117 0.422893 0.475060 0.771673
0.463298 0.525159 0.112103 0.618696 -0.162481 0.768645
0.425241 0.569695 0.060769 -0.952273 -0.146276 0.267917
0.605185 0.849347 0.070970 -0.405895 0.911703 -0.063619
0.463246 0.544536 0.063419 -0.785091 -0.376039 0.492165
0.482695 0.271709 0.043846 -0.627756 -0.169986 -0.759623
0.335663 0.837279 0.121911 0.364188 0.582517 0.726664
0.385484 0.201664 0.082776 0.929487 0.004866 -0.368822
0.221476 0.856733 0.117132 0.494387 0.735362 0.463490
0.400154 0.263372 0.039016 0.747174 -0.072827 -0.660627
0.745399 0.870624 0.105171 0.417933 -0.908388 -0.012810
0.636689 0.817608 0.121136 0.359125 -0.747064 0.559396
0.463298 0.481410 0.104514 0.809825 -0.212106 0.546987
0.481427 0.284102 0.093976 0.952163 0.099983 -0.288771
0.495713 0.914088 0.037969 -0.347576 -0.552102 0.757875
0.392269 0.406106 0.030188 0.898384 0.050374 -0.436312
0.755059 0.874964 0.141383 -0.378798 0.802824 0.460419
0.466771 0.937230 0.041493 -0.734939 0.309863 -0.603199
0.326799 0.847121 0.105352 0.047880 -0.269838 0.961715
0.504695 0.897384 0.040270 0.802155 -0.295495 0.518874
0.147882 0.931584 0.133466 -0.347436 -0.937701 0.002197
0.455473 0.385665 0.046855 -0.927031 0.041249 -0.372710
0.390672 0.750510 0.115844 0.209593 -0.087175 -0.973895
0.428501 0.691080 0.141296 0.180778 -0.156302 -0.971025
0.541060 0.388494 0.109415 0.912775 0.003884 -0.408444
0.390672 0.799139 0.110191 -0.872064 -0.210412 0.441850
0.535317 0.786286 0.051654 -0.492291 0.857984 0.146677
0.438287 0.217988 0.100225 0.007394 0.458229 0.888804
0.311459 0.847721 0.125617 0.210893 0.174148 0.961872
0.855419 0.920979 0.165838 -0.056842 0.979631 0.192594
0.685108 0.842330 0.105096 -0.442155 0.878016 0.183268
0.451767 0.349659 0.090626 -0.515656 0.167805 -0.840203
0.562435 0.793389 0.034502 -0.426238 0.448991 0.785321
0.513415 0.594381 0.131869 0.213209 -0.173093 -0.961551
0.513861 0.597324 0.087578 -0.191113 0.172410 -0.966308
0.541060 0.300434 0.051303 0.818733 0.108742 -0.563783
0.218983 0.899620 0.109308 0.451254 0.828417 0.331807
0.824811 0.939003 0.156639 0.232130 -0.860815 0.452895
0.431446 0.777026 0.030188 0.342117 0.054510 -0.938075
0.541060 0.295331 0.064248 -0.986402 0.013059 0.163829
0.432359 0.159934 0.071063 -0.483974 0.187621 0.854732
0.609541 0.806147 0.110602 0.406494 -0.872791 0.270183
0.759501 0.904132 0.085479 -0.360165 0.920858 0.149336
0.471262 0.383436 0.105539 -0.991554 -0.117699 0.054483
0.117757 0.949010 0.112195 0.451193 0.887793 0.090822
0.446376 0.413475 0.129341 0.345319 0.033856 -0.937875
0.613760 0.810223 0.093548 0.373274 -0.890250 0.261002
0.385484 0.445318 0.119244 0.989827 -0.080971 0.116989
0.483749 0.261522 0.097686 -0.970545 -0.137682 0.197702
0.461437 0.443994 0.055926 -0.729991 0.014118 -0.683311
0.493118 0.694746 0.030188 -0.187718 0.211758 -0.959125
0.541060 0.452531 0.044879 0.997497 0.070647 0.003080
0.475352 0.872228 0.047241 0.258542 -0.029794 -0.965540
0.434059 0.330636 0.033850 -0.216283 0.057277 0.974649
0.582224 0.794796 0.098606 0.196154 -0.566912 0.800084
0.517265 0.544051 0.123566 0.984129 0.030300 0.174851
0.430326 0.237531 0.109832 0.614429 0.316041 0.722907
0.148654 0.930271 0.141106 -0.355697 -0.910007 0.212995
0.437774 0.471456 0.032764 -0.938457 -0.031482 -0.343959
0.496739 0.134681 0.055684 0.687902 0.027693 -0.725275
0.494090 0.160522 0.096982 -0.746394 -0.232226 0.623672
0.834183 0.937522 0.114211 -0.301223 0.349961 0.887013
0.447440 0.842855 0.099410 0.370119 -0.923059 0.104760
0.385484 0.313319 0.101139 0.980639 -0.026116 -0.194073
0.541060 0.458922 0.130719 0.929504 -0.101400 -0.354599
0.416250 0.777872 0.030188 0.301659 0.106094 -0.947495
0.420158 0.491364 0.038219 -0.978987 -0.178538 -0.098530
0.522117 0.087727 0.053884 0.009584 0.475607 -0.879606
0.480275 0.579629 0.057060 -0.201329 0.217285 -0.955120
0.243331 0.854352 0.052328 -0.457030 -0.879988 -0.129402
0.411502 0.686700 0.030188 0.924900 0.377894 0.041913
0.535872 0.025700 0.180611 -0.739889 0.660117 0.129653
0.520226 0.049885 0.115888 -0.658594 -0.744995 -0.106004
0.450463 0.910135 0.037969 -0.505525 0.261195 -0.822327
0.815455 0.902167 0.116309 0.388510 -0.902824 -0.184307
0.448707 0.319732 0.083903 -0.819781 0.246238 -0.517035
0.495669 0.622068 0.045541 0.201810 0.282258 -0.937871
0.412978 0.799928 0.038959 0.809571 0.288158 -0.511429
0.424151 0.670622 0.032362 0.928157 0.369636 -0.043518
0.386835 0.128019 0.049411 -0.904595 0.048806 0.423469
0.516180 0.064848 0.055757 0.790219 0.233249 -0.566700
0.535872 0.050887 0.085281 -0.851528 -0.520023 -0.066909
0.726485 0.865814 0.137516 -0.408721 0.912613 0.009143
0.510011 0.571910 0.113302 0.043264 -0.064593 -0.996973
0.452329 0.552369 0.054933 0.898145 -0.439696 0.001821
0.432051 0.887792 0.136776 -0.348074 0.424881 -0.835656
0.438884 0.820121 0.073527 0.500118 0.854141 0.142569
0.458874 0.419291 0.128441 0.145128 0.067419 -0.987113
0.535924 0.756032 0.125758 -0.977774 0.209556 0.006711
0.161858 0.927036 0.114665 0.445230 0.874942 0.190384
0.500287 0.874342 0.108821 0.210895 -0.654418 0.726127
0.109111 0.949723 0.140946 -0.321017 -0.751576 -0.576265
0.603132 0.838267 0.038217 -0.439378 0.851288 0.286804
0.262051 0.883560 0.067687 0.456598 -0.123356 0.881080
0.410392 0.612437 0.092336 0.652001 0.250723 0.715565
0.480774 0.313500 0.035401 0.980821 0.137675 -0.137974
0.471500 0.381062 0.086634 -0.990112 -0.131560 0.048696
0.657645 0.833066 0.075406 0.333068 -0.911201 0.242444
0.419135 0.819055 0.079925 -0.151725 -0.106240 0.982697
0.407888 0.337727 0.120942 0.961920 0.029201 0.271767
0.451443 0.346516 0.094335 -0.429198 0.182420 -0.884597
0.518760 0.819434 0.077651 -0.064335 -0.331407 -0.941292
0.503353 0.941948 0.099795 0.236160 0.226786 -0.944879
0.416192 0.056125 0.061708 0.952450 -0.215931 -0.214970
0.408780 0.622619 0.110335 -0.629775 -0.065924 0.773975
0.436770 0.569695 0.069967 -0.979263 -0.185524 0.081392
0.390672 0.799805 0.110378 -0.903780 -0.240199 0.354240
0.511866 0.397503 0.030188 -0.509541 -0.045555 -0.859239
0.390672 0.783859 0.051296 0.456267 0.178956 -0.871662
0.463246 0.539556 0.096341 0.983619 0.140717 0.112657
0.847139 0.928186 0.164425 -0.103074 0.298292 0.948893
0.470819 0.387773 0.050349 0.989603 0.130289 -0.060921
0.469160 0.855011 0.099681 0.605050 -0.628687 0.488535
0.535924 0.762293 0.061143 -0.757062 0.192879 0.624223
0.438361 0.799471 0.038730 0.873481 0.149568 -0.463315
0.673075 0.874724 0.124119 0.025247 -0.949703 0.312133
0.158178 0.889653 0.102173 -0.371392 -0.887179 0.273827
0.479118 0.306618 0.053068 -0.978534 -0.165238 0.123156
0.155297 0.911943 0.149025 0.150513 -0.211896 0.965632
0.483160 0.569488 0.115811 0.921786 -0.034004 0.386204
0.836994 0.909699 0.153840 -0.404971 0.913823 0.030440
0.558878 0.828268 0.065492 -0.392645 0.909183 -0.138625
0.504298 0.941003 0.086955 -0.075766 0.226037 -0.971168
0.461781 0.447618 0.111700 -0.075590 0.043124 -0.996206
0.408298 0.641411 0.040291 0.758703 0.372459 0.534457
0.332186 0.806494 0.083100 -0.414756 -0.864971 -0.282493
0.421875 0.807641 0.042816 0.796498 0.220415 -0.563036
0.528103 0.025000 0.103652 -0.027957 -0.985031 0.170096
0.541060 0.311931 0.098175 -0.947925 -0.010823 0.318310
0.506914 0.748227 0.030188 0.400089 -0.099714 -0.911036
0.396346 0.799160 0.038575 0.730749 0.357742 -0.581400
0.506025 0.283229 0.114682 -0.949301 -0.108732 0.294967
0.409965 0.125497 0.049605 -0.125478 -0.162696 -0.978665
0.428940 0.224299 0.108365 0.518818 0.283339 0.806565
0.164102 0.882039 0.140601 0.409863 0.207084 0.888329
0.385484 0.238717 0.059029 -0.947735 0.023488 0.318194
0.541060 0.381543 0.083364 -0.985569 -0.008495 0.169063
0.456310 0.819969 0.075732 0.250058 0.963379 -0.096807
0.435426 0.189969 0.088000 -0.216957 0.274834 0.936694
0.316336 0.835464 0.123205 0.390991 0.569417 0.723111
0.479916 0.298831 0.056809 -0.977368 -0.163441 0.134309
0.385484 0.330930 0.054381 0.971871 0.006308 -0.235430
0.535872 0.034770 0.123457 -0.986379 -0.112428 0.120065
0.402352 0.663447 0.046150 0.906610 0.299356 0.297394
0.605177 0.808439 0.075378 -0.470622 0.841769 0.264461
0.539445 0.783316 0.038011 -0.493311 0.820539 0.288721
0.399359 0.510243 0.103203 -0.993998 -0.005631 -0.109257
0.451231 0.955799 0.097252 0.240279 -0.763571 0.599353
0.399427 0.786380 0.032185 0.399343 0.134673 -0.906856
0.708311 0.852972 0.107197 -0.440657 0.890256 0.115174
0.523097 0.658279 0.102242 0.790787 0.046574 -0.610317
0.486282 0.517748 0.133939 0.984660 0.068855 0.160322
0.489730 0.203072 0.093412 0.964562 0.056251 -0.257792
0.447629 0.569695 0.086602 -0.956013 -0.262488 -0.130916
0.451871 0.822083 0.098025 -0.498955 -0.764341 -0.408444
0.535924 0.743537 0.142905 -0.949317 0.267846 0.164488
0.838913 0.944868 0.140259 0.377237 0.810133 -0.448751
0.445155 0.505076 0.133939 -0.346967 0.036852 0.937153
0.405193 0.645397 0.092009 0.568403 0.246677 0.784900
0.392015 0.728897 0.068576 -0.970108 -0.124297 0.208423
0.522665 0.083686 0.054214 -0.878194 0.410393 0.245670
0.469286 0.855011 0.119789 -0.619810 -0.001577 -0.784750
0.234866 0.896439 0.071538 0.532936 0.744391 0.402319
0.483164 0.841055 0.056393 -0.209644 -0.968117 -0.137109
0.773318 0.920630 0.133709 0.269546 -0.884715 0.380294
0.353354 0.798559 0.063185 0.356095 0.920699 -0.159715
0.407530 0.225137 0.108458 0.592192 0.096707 0.799972
0.463246 0.541118 0.105627 0.978109 -0.180002 0.104412
0.653063 0.856344 0.129849 0.044407 -0.808509 0.586806
0.478221 0.788901 0.123720 -0.992825 0.063979 0.101016
0.498919 0.590624 0.135207 0.346411 -0.189807 -0.918680
0.541060 0.398547 0.046849 -0.999212 0.022649 -0.032589
0.489298 0.907020 0.140010 0.559659 0.262260 -0.786131
0.411566 0.622593 0.137130 -0.044313 0.079758 0.995829
0.450294 0.823136 0.050563 0.976268 0.162132 -0.143576
0.801573 0.918249 0.152261 0.175660 -0.783581 0.595939
0.523905 0.663612 0.103609 0.824360 0.035066 -0.564978
0.055617 0.938789 0.174268 -0.274561 -0.961480 0.013130
0.472888 0.569488 0.107554 0.683154 0.187904 -0.705686
0.504695 0.934081 0.096490 0.458317 0.075445 -0.885581
0.463298 0.465389 0.074276 -0.981034 -0.180322 -0.071103
0.207929 0.902711 0.128305 -0.389237 -0.919946 0.046833
0.467608 0.419036 0.079241 0.989089 0.117309 -0.089120
0.436052 0.196144 0.099721 0.040031 0.355644 0.933764
0.472878 0.698977 0.141763 0.639427 -0.112971 0.760507
0.519672 0.025000 0.166484 -0.919797 -0.392178 0.013046
0.541060 0.400605 0.087180 0.946201 0.020987 -0.322899
0.751577 0.889725 0.143473 -0.473669 0.878900 0.056322
0.493542 0.342709 0.033010 0.953236 0.217933 -0.209397
0.405685 0.642857 0.039898 0.778659 0.350177 0.520641
0.463246 0.480906 0.055018 -0.958206 -0.147493 -0.245125
0.623519 0.857434 0.075379 0.402563 -0.913156 -0.063949
0.463298 0.483720 0.093679 0.817590 -0.283240 0.501320
0.493443 0.904454 0.139565 -0.515427 0.039653 0.856016
0.486865 0.494754 0.039275 -0.570260 -0.406132 0.714045
0.468290 0.412391 0.076410 0.989226 0.119874 -0.084041
0.535597 0.740796 0.071914 0.177829 0.014890 0.983949
0.537653 0.817019 0.076028 -0.298599 0.696304 -0.652686
0.390838 0.379562 0.125580 0.982304 -0.035947 0.183813
0.489187 0.938160 0.042236 -0.800807 -0.473560 0.366672
0.453797 0.624475 0.044888 0.696291 0.383497 -0.606720
0.535924 0.787024 0.070163 0.250305 -0.397376 -0.882859
0.445878 0.834188 0.055249 0.279786 0.959697 -0.026498
0.444882 0.940773 0.131636 0.818181 0.373192 -0.437388
0.488097 0.353472 0.122619 -0.981084 -0.101939 0.164569
0.541060 0.352643 0.079868 -0.983197 -0.003193 0.182520
0.424441 0.701304 0.141915 0.210915 -0.158310 -0.964600
0.048957 0.969013 0.177052 -0.190033 0.667648 -0.719815
0.575268 0.829495 0.118338 -0.459829 0.854086 -0.243094
0.486419 0.569695 0.125533 -0.031835 -0.206080 -0.978017
0.508979 0.893289 0.081115 0.987185 -0.053674 0.150283
0.463298 0.513301 0.103008 0.863234 -0.232461 0.448096
0.179167 0.920405 0.099274 0.607964 0.612497 0.505199
0.541060 0.162528 0.062688 -0.614528 0.145210 -0.775416
0.407220 0.038227 0.179173 0.999883 0.015319 -0.000443
0.537554 0.326143 0.119531 -0.985856 -0.045506 0.161298
0.591148 0.803001 0.066013 -0.476664 0.847641 0.233017
0.486083 0.855011 0.095426 -0.770767 0.227186 -0.595235
0.438047 0.215647 0.100629 0.029137 0.448020 0.893549
0.432531 0.161701 0.092979 -0.046782 0.251491 0.966728
0.435339 0.487612 0.133939 0.030506 0.014852 -0.999424
0.441637 0.813558 0.112906 -0.990120 -0.093840 0.104196
0.477375 0.323716 0.069965 0.975559 0.116094 -0.186565
0.864986 0.942526 0.146666 -0.377460 -0.395143 0.837488
0.446363 0.296684 0.050115 -0.964703 0.039687 -0.260332
0.400492 0.461680 0.030188 -0.999180 0.026841 -0.030313
0.526993 0.510327 0.065179 -0.609480 -0.124220 -0.783009
0.514017 0.555321 0.129392 0.922647 0.024651 0.384857
0.499348 0.109223 0.053554 0.812057 0.077163 -0.578454
0.414000 0.174201 0.102810 0.381909 0.139947 0.913543
0.396509 0.700466 0.074270 0.612949 0.300681 0.730674
0.390672 0.773592 0.098024 -0.912003 -0.177561 0.369759
0.504673 0.569695 0.060474 -0.066986 0.203669 -0.976746
0.444554 0.868634 0.133613 -0.277005 0.589801 -0.758554
0.109543 0.934598 0.107338 0.310079 0.214730 0.926144
0.483918 0.569488 0.074953 -0.934344 -0.135718 -0.329519
0.776171 0.883247 0.120194 -0.450301 0.867954 0.209487
0.231651 0.858074 0.065464 -0.445893 -0.891662 -0.078215
0.541060 0.346971 0.047813 0.955332 0.070708 -0.286952
0.368251 0.826765 0.105264 0.400626 0.650108 0.645646
0.327320 0.811487 0.062065 0.351281 0.932206 -0.087136
0.463246 0.513076 0.072122 0.810059 0.090348 0.579345
0.445245 0.823170 0.050580 0.975222 0.205085 -0.082954
0.469138 0.855011 0.062066 -0.405446 0.655508 -0.637121
0.402707 0.661168 0.075553 0.730043 0.284372 0.621426
0.449096 0.323455 0.067267 -0.968246 0.148670 -0.200991
0.494904 0.318833 0.034964 0.953065 0.289919 0.087261
0.463298 0.466428 0.107046 0.717185 -0.177888 0.673796
0.653741 0.828537 0.097439 -0.448628 0.853763 0.264236
0.529534 0.501478 0.114087 0.794808 0.004041 -0.606847
0.524715 0.253671 0.111342 -0.928361 -0.101575 0.357530
0.480363 0.294461 0.053630 -0.978586 -0.167246 0.119992
0.602184 0.802265 0.116867 0.371768 -0.801080 0.469105
0.529665 0.701648 0.122120 -0.932440 0.328295 -0.150927
0.254373 0.882249 0.109078 -0.366537 -0.924397 0.105548
0.470313 0.439045 0.132289 -0.995718 -0.089464 0.023277
0.414493 0.441264 0.132422 0.877896 -0.031043 -0.477843
0.438847 0.446060 0.030188 -0.808743 0.003688 -0.588151
0.479141 0.306386 0.106263 0.962620 0.092242 -0.254663
0.457561 0.575218 0.134272 0.945913 0.047518 0.320922
0.679744 0.884430 0.058788 -0.393980 0.914306 0.093942
0.303663 0.845351 0.125873 0.390860 0.604768 0.693891
0.385484 0.410704 0.120376 0.997951 -0.054492 -0.033525
0.406138 0.639366 0.124551 -0.492822 -0.029864 0.869618
0.597101 0.801435 0.101385 0.390934 -0.881453 0.264974
0.518951 0.526249 0.133939 0.996866 0.017296 0.077199
0.483364 0.916423 0.141579 0.866805 0.160368 -0.472157
0.225178 0.893547 0.133952 0.202636 0.166221 0.965043
0.504695 0.923272 0.084541 0.827588 -0.086266 -0.554668
0.251115 0.883650 0.110784 0.439377 0.801933 0.404787
0.385484 0.112652 0.066094 0.850201 0.115814 -0.513562
0.523173 0.658789 0.090735 0.646921 0.102893 -0.755584
0.385484 0.260336 0.088189 0.958711 -0.008184 -0.284265
0.356776 0.833427 0.096916 0.155239 -0.045987 0.986806
0.892332 0.944557 0.173864 0.537271 -0.589230 -0.603447
0.373047 0.802556 0.113126 -0.252660 -0.896610 0.363666
0.494897 0.533318 0.050379 -0.937313 0.146482 -0.316208
0.220932 0.900640 0.093149 0.009349 -0.822279 0.569008
0.502967 0.284955 0.037738 0.848635 0.230563 -0.476087
0.533912 0.133315 0.097742 0.012824 0.046748 -0.998824
0.370970 0.832907 0.044455 0.142027 -0.572481 0.807523
0.385484 0.405248 0.080811 -0.953942 -0.005199 0.299945
0.391732 0.362600 0.123700 0.978511 -0.028018 0.204283
0.385484 0.304577 0.104635 0.979186 -0.027481 -0.201098
0.471713 0.379023 0.057292 0.988147 0.126515 -0.086945
0.447367 0.906967 0.139988 0.601385 0.428513 -0.674324
0.385484 0.180280 0.065588 0.911715 0.022031 -0.410232
0.541060 0.378027 0.090878 0.928536 0.022962 -0.370531
0.435222 0.187898 0.061718 -0.995956 0.079128 0.042556
0.404984 0.646736 0.071716 0.787034 0.284945 0.547160
0.338958 0.844821 0.037034 0.078602 -0.705795 0.704042
0.393266 0.720964 0.037573 -0.991585 -0.111877 0.065143
0.535924 0.812155 0.089438 -0.434800 -0.002670 -0.900523
0.395433 0.707273 0.039675 0.069455 0.599159 0.797611
0.831132 0.931098 0.145987 -0.062313 -0.995630 -0.069558
0.697549 0.851158 0.132731 -0.399592 0.902333 0.161618
0.481045 0.287932 0.100958 -0.976958 -0.132408 0.167393
0.079344 0.933509 0.133252 -0.742254 0.020599 -0.669802
0.390218 0.801879 0.081772 -0.344287 -0.938813 0.009861
0.439843 0.569695 0.121555 0.475908 0.272742 0.836136
0.390672 0.759642 0.064900 -0.968881 -0.147785 0.198569
0.504563 0.916798 0.141642 0.719665 0.149228 -0.678096
0.393821 0.733596 0.030188 -0.996156 -0.087572 -0.002227
0.506486 0.400370 0.030188 0.279904 -0.063400 -0.957932
0.454271 0.374294 0.123672 0.179526 0.115819 -0.976912
0.760798 0.917548 0.110818 -0.437385 0.791188 0.427453
0.494306 0.450216 0.030188 0.606795 0.062273 0.792415
0.414585 0.025000 0.181132 -0.876491 0.476430 0.069127
0.541060 0.430967 0.072962 -0.977316 0.007402 0.211658
0.429125 0.869051 0.049359 0.443518 -0.885971 -0.135454
0.504747 0.032596 0.116909 -0.918894 0.336619 -0.205721
0.406701 0.709565 0.142376 -0.861733 -0.175143 0.476173
0.682855 0.839050 0.123107 0.398489 -0.799558 0.449349
0.433407 0.624313 0.137233 -0.370848 -0.076529 0.925535
0.420021 0.278248 0.037873 0.960882 -0.164192 -0.223041
0.420320 0.139960 0.099014 0.218276 0.173494 0.960341
0.078464 0.929627 0.142957 -0.687616 0.079088 -0.721754
0.385484 0.448615 0.035893 -0.996120 0.038700 0.079037
0.474362 0.353152 0.061507 0.983930 0.122654 -0.129757
0.433071 0.553137 0.055144 0.922232 -0.362751 0.133786
0.410631 0.410621 0.030188 -0.561991 0.085953 0.822666
0.416067 0.568275 0.087604 0.873903 -0.452758 -0.176928
0.436125 0.541791 0.052035 0.866106 -0.488767 0.104723
0.392105 0.169353 0.102273 0.991477 0.029832 -0.126819
0.478948 0.821737 0.049863 0.902109 -0.083280 -0.423396
0.483996 0.822839 0.075418 0.405593 -0.144281 0.902595
0.421797 0.025640 0.183640 -0.778482 0.618084 0.109256
0.426359 0.248683 0.040144 0.125831 -0.614357 -0.778930
0.402327 0.680175 0.140603 -0.572034 -0.062896 0.817815
0.415140 0.503255 0.041477 -0.897358 -0.407321 0.169819
0.524525 0.379843 0.030188 -0.990306 0.090182 -0.105644
0.787589 0.888195 0.123483 0.453569 -0.882995 -0.120811
0.448880 0.321524 0.105647 -0.093353 0.290518 -0.952305
0.457344 0.502480 0.041264 -0.544881 -0.377352 -0.748805
0.683953 0.840124 0.129814 0.117520 -0.212063 0.970164
0.463298 0.557671 0.095570 -0.478229 -0.092778 0.873321
0.541060 0.134052 0.058206 -0.994324 0.089384 -0.057708
0.514851 0.481191 0.035370 -0.876300 -0.319802 -0.360311
0.294291 0.866149 0.080431 0.491622 0.697982 0.520700
0.840475 0.926606 0.131101 -0.775343 0.429323 0.463168
0.501455 0.878647 0.055904 -0.273266 0.062531 -0.959904
0.491872 0.380649 0.030188 0.966266 0.254401 -0.040122
0.117127 0.912887 0.099750 -0.352142 -0.848569 0.394877
0.519469 0.409366 0.128935 -0.987553 -0.055040 0.147342
0.436008 0.195566 0.048577 -0.556594 -0.112150 -0.823180
0.426494 0.872814 0.087589 0.355185 0.540591 -0.762630
0.410898 0.124832 0.097336 0.963392 0.160729 -0.214574
0.377212 0.802481 0.112771 -0.070883 -0.633507 0.770483
0.407142 0.187953 0.044808 -0.705217 0.052453 0.707049
0.385484 0.292818 0.101897 0.767660 -0.088760 0.634681
0.511132 0.565332 0.129801 0.892672 0.029384 0.449748
0.468024 0.937776 0.041930 -0.604900 -0.650026 0.459960
0.398509 0.025000 0.132430 -0.654160 0.725541 -0.213695
0.392041 0.221711 0.108078 0.999538 0.013132 -0.027430
0.463246 0.531516 0.118570 0.890165 0.168951 -0.423157
0.394315 0.116035 0.096361 0.990946 0.064353 -0.117831
0.460003 0.429937 0.048270 -0.820535 0.016201 -0.571367
0.454780 0.822485 0.059343 0.929765 0.325983 -0.171089
0.454175 0.373097 0.071077 -0.775827 0.086942 -0.624927
0.451658 0.612389 0.136526 0.596833 0.090174 0.797282
0.463246 0.514511 0.100267 0.669497 -0.430331 0.605465
0.541060 0.288764 0.056172 0.908314 0.078038 -0.410944
0.460725 0.437397 0.131869 0.150381 0.054751 -0.987111
0.385484 0.255782 0.098250 0.887396 -0.067621 0.456021
0.485437 0.354575 0.122744 -0.945676 -0.066682 -0.318199
0.756150 0.892985 0.081767 0.396017 -0.915881 -0.065816
0.385484 0.169644 0.070234 0.905321 0.018872 -0.424309
0.432945 0.203497 0.106058 0.734239 0.504346 0.454455
0.483437 0.931705 0.037969 -0.981498 -0.170575 0.086979
0.617470 0.818806 0.037981 -0.246439 -0.192255 0.949898
0.488864 0.510513 0.133939 -0.292252 -0.123245 0.948367
0.552359 0.822828 0.085000 -0.170012 0.304335 -0.937271
0.413918 0.590051 0.097425 -0.605841 -0.052782 0.793833
0.403004 0.659236 0.105942 -0.869684 -0.152208 0.469555
0.646163 0.836648 0.043992 0.097093 -0.783025 0.614366
0.211203 0.894039 0.141480 0.016876 -0.333432 0.942623
0.510163 0.025000 0.132375 -0.759677 0.578990 -0.296077
0.401894 0.439502 0.132227 0.987498 -0.047836 -0.150199
0.512902 0.492452 0.133939 -0.744825 -0.069718 0.663608
0.493524 0.797453 0.120071 -0.667671 0.117638 -0.735103
0.483370 0.336055 0.033555 0.983457 0.179314 0.025671
0.483996 0.852331 0.064401 -0.755119 -0.451858 -0.474994
0.541060 0.447727 0.089961 0.966603 0.007655 -0.256163
0.421694 0.909588 0.118326 0.881674 0.053304 0.468838
0.474495 0.351912 0.039878 0.987460 0.132831 -0.085318
0.516643 0.072931 0.055095 0.745058 0.206172 -0.634336
0.400726 0.780282 0.127430 -0.762005 -0.334133 -0.554710
0.520679 0.071326 0.055226 0.446555 0.413970 -0.793232
0.408427 0.118599 0.096645 0.555319 0.158467 0.816400
0.497299 0.535850 0.133939 0.715062 -0.011714 0.698963
0.486894 0.230830 0.097373 -0.961894 -0.141077 0.234215
0.444014 0.696806 0.141643 0.333987 -0.178234 -0.925573
0.525648 0.724239 0.030188 0.314672 -0.018734 -0.949015
0.577213 0.796591 0.064852 0.079205 -0.584007 0.807875
0.420466 0.598949 0.051816 -0.888012 -0.020492 0.459364
0.450962 0.341647 0.058360 -0.967706 0.097547 -0.232444
0.888445 0.955462 0.169204 0.207978 -0.961860 0.177683
0.182476 0.915699 0.124392 -0.377593 -0.925274 -0.035928
0.229382 0.899158 0.071311 0.567845 0.672545 0.474590
0.390249 0.793699 0.082838 0.395147 0.901836 0.174789
0.437190 0.638179 0.138070 -0.836610 -0.259315 0.482534
0.394038 0.491763 0.080421 -0.835572 -0.146191 0.529573
0.491072 0.189972 0.091554 0.962767 0.049009 -0.265852
0.310394 0.814731 0.103167 -0.397259 -0.899851 -0.180150
0.385484 0.111576 0.056929 -0.923195 0.032802 0.382929
0.280043 0.830433 0.096944 0.462078 0.874124 0.149634
0.486767 0.569488 0.065533 -0.974027 -0.162542 -0.157645
0.501563 0.087609 0.073303 0.874453 0.026580 -0.484382
0.516315 0.101544 0.052753 0.694157 0.632325 -0.343964
0.541060 0.388617 0.032262 -0.992709 0.036846 -0.114768
0.463700 0.569695 0.089043 -0.785183 -0.222656 -0.577851
0.463298 0.473073 0.104304 0.762484 -0.203340 0.614223
0.080535 0.924733 0.127227 -0.116082 -0.576243 0.808992
0.385484 0.171894 0.054748 -0.939439 0.031121 0.341300
0.504695 0.938057 0.068097 -0.480504 0.308186 -0.821059
0.588457 0.807729 0.030334 -0.442946 0.431808 0.785710
0.421797 0.044563 0.114635 -0.986919 -0.159386 -0.024220
0.248592 0.890669 0.063587 0.576096 0.603781 0.550965
0.479701 0.301019 0.068375 0.970249 0.114872 -0.213124
0.473296 0.440767 0.030188 0.507885 0.067664 0.858764
0.457754 0.408313 0.121596 0.083809 0.076578 -0.993535
0.104291 0.934617 0.156948 -0.278416 -0.916049 0.288686
0.616409 0.839348 0.040304 -0.482310 0.483239 0.730656
0.385484 0.198692 0.080292 0.926702 0.007164 -0.375729
0.393650 0.490414 0.056054 -0.930601 -0.099390 0.352284
0.385484 0.376508 0.095372 0.992755 -0.031027 -0.116081
0.377814 0.829304 0.046370 0.021532 -0.714763 0.699035
0.493100 0.605887 0.049933 -0.301811 0.184715 -0.935302
0.524424 0.151421 0.099788 0.331683 0.078556 -0.940114
0.470373 0.957493 0.075223 0.181519 0.923804 -0.337100
0.471341 0.818692 0.048341 0.815089 -0.082870 -0.573378
0.540555 0.056540 0.082364 0.427446 0.130319 -0.894599
0.343851 0.806724 0.034586 -0.473816 -0.772139 -0.423437
0.706574 0.888995 0.136040 0.022686 -0.855301 0.517635
0.404496 0.649784 0.131174 -0.167837 0.058323 0.984088
0.531118 0.223046 0.107881 -0.996326 -0.077960 0.035465
0.506858 0.698180 0.141726 0.898686 -0.217805 -0.380690
0.408097 0.626949 0.123562 -0.391140 -0.000570 0.920331
0.503335 0.483407 0.036008 -0.860481 -0.484457 0.157717
0.370340 0.830927 0.062951 -0.298412 -0.913383 0.276913
0.526449 0.680442 0.074702 -0.437343 0.351686 -0.827676
0.532974 0.723503 0.030414 -0.568566 0.307480 0.763013
0.504695 0.924444 0.059947 0.211360 0.202309 -0.956241
0.494287 0.158632 0.065058 0.915395 0.101604 -0.389524
0.471111 0.538103 0.051757 -0.672682 -0.372284 0.639456
0.385484 0.445955 0.046083 -0.990588 0.028282 0.133926
0.504747 0.048805 0.072755 -0.546720 0.834862 0.064058
0.782735 0.915119 0.150180 0.032424 -0.717639 0.695660
0.346060 0.802020 0.063998 -0.427044 -0.852172 -0.302386
0.463246 0.535125 0.063446 -0.807149 -0.372764 0.457775
0.421613 0.674312 0.031361 0.936994 0.346329 -0.045806
0.504969 0.622713 0.137152 0.342751 -0.205157 -0.916751
0.403924 0.089269 0.052387 -0.753702 -0.130068 -0.644217
0.411736 0.139254 0.048548 0.041146 -0.158095 -0.986566
0.455917 0.568090 0.133939 -0.828866 0.177093 0.530677
0.470207 0.809947 0.114716 -0.968082 0.018727 -0.249935
0.385484 0.210330 0.097455 0.940820 -0.007517 -0.338823
0.554556 0.799256 0.029901 -0.478165 0.760363 0.439552
0.239182 0.894968 0.066212 0.566843 0.666337 0.484442
0.456664 0.777587 0.128585 0.040877 -0.530958 0.846412
0.541060 0.380591 0.072175 -0.993784 -0.001036 0.111325
0.324621 0.833017 0.036804 -0.243198 -0.965074 0.097397
0.389246 0.364799 0.123944 0.996053 -0.038692 0.079886
0.665343 0.875242 0.090220 -0.435639 0.894545 0.100042
0.422758 0.317213 0.034881 0.769760 -0.017882 0.638083
0.506503 0.795886 0.120731 -0.960772 0.155580 -0.229591
0.165048 0.888581 0.083491 -0.404538 -0.885538 0.228410
0.385484 0.356711 0.071103 0.984049 -0.009947 -0.177621
0.429482 0.925173 0.138328 0.763668 0.053970 0.643350
0.476390 0.333228 0.110479 0.965710 0.094542 -0.241799
0.394297 0.056800 0.065371 -0.747209 -0.055936 -0.662231
0.149812 0.893179 0.106919 -0.358075 -0.878624 0.315916
0.506540 0.569488 0.117670 0.949697 0.092971 0.299051
0.355497 0.806538 0.115224 -0.371085 -0.915958 -0.152699
0.421694 0.913369 0.118378 0.890767 0.066079 0.449631
0.826893 0.907552 0.116182 0.414678 -0.883874 -0.216354
0.116745 0.909999 0.102290 -0.333363 -0.823943 0.458243
0.413576 0.025000 0.093163 0.736177 0.152702 0.659338
0.087854 0.953781 0.145459 0.722270 -0.131745 0.678947
0.463246 0.468411 0.094518 0.868514 0.018851 -0.495305
0.448634 0.318986 0.078171 -0.906453 0.212960 -0.364679
0.541060 0.099612 0.074572 -0.994049 0.099194 0.045030
0.421797 0.029857 0.056682 0.492847 -0.856422 0.153764
0.464432 0.855011 0.099475 0.629021 -0.610527 0.481237
0.422989 0.497996 0.040036 -0.949051 -0.298986 -0.099548
0.397729 0.760997 0.135695 -0.132301 -0.228308 -0.964558
0.540435 0.073641 0.090999 0.568685 0.093834 -0.817186
0.439724 0.660774 0.035035 0.872723 0.381166 -0.305070
0.510898 0.025740 0.056074 0.625829 0.762664 -0.163343
0.421694 0.892758 0.109732 -0.200691 0.393912 -0.896971
0.471172 0.855026 0.131348 0.356055 -0.899800 0.252160
0.477206 0.814110 0.109596 -0.969462 -0.005487 -0.245180
0.638329 0.863257 0.084599 0.387195 -0.921658 -0.025056
0.376597 0.794253 0.037781 -0.138056 0.324217 -0.935855
0.871149 0.936727 0.147401 -0.541200 -0.812129 0.218057
0.498205 0.120371 0.053498 0.788941 0.068843 -0.610600
0.714517 0.897326 0.098544 0.270166 -0.848348 0.455319
0.481515 0.789004 0.033497 0.495941 -0.214908 -0.841342
0.389885 0.477339 0.065390 -0.956541 -0.040359 0.288792
0.463246 0.515714 0.067122 -0.832064 -0.385531 0.398794
0.515413 0.607567 0.111141 0.302648 -0.048196 -0.951883
0.285319 0.833219 0.053170 -0.543398 -0.711777 -0.445075
0.426218 0.762214 0.135173 0.248719 -0.534771 -0.807564
0.421694 0.898949 0.104316 -0.413102 0.377935 -0.828560
0.499530 0.569695 0.106496 -0.089407 -0.082916 -0.992538
0.503952 0.064301 0.063843 0.836887 0.056270 -0.544476
0.421797 0.031149 0.177774 0.167136 0.973838 0.153963
0.412707 0.688534 0.030188 0.915481 0.402083 0.014991
0.501617 0.454586 0.030188 0.790058 0.062547 0.609833
0.491350 0.569488 0.112797 0.878093 0.230551 -0.419283
0.459002 0.651236 0.037624 0.702040 0.386272 -0.598275
0.566534 0.787382 0.111484 0.380253 -0.842701 0.381134
0.541060 0.385121 0.118419 0.898347 -0.003303 -0.439275
0.414858 0.234445 0.041237 0.500356 -0.163057 -0.850327
0.439669 0.263413 0.112702 0.629852 0.357204 -0.689704
0.697568 0.891226 0.083363 0.112954 -0.523205 0.844688
0.385484 0.397269 0.113226 0.996953 -0.047350 -0.061985
0.703929 0.872105 0.136648 0.294761 -0.862365 0.411634
0.448654 0.855011 0.115103 -0.514712 0.583562 -0.628114
0.241757 0.845303 0.128972 0.246640 -0.591633 0.767554
0.463298 0.528000 0.059861 0.857611 -0.494729 -0.140523
0.474535 0.855011 0.060253 -0.497446 0.610441 -0.616368
0.385484 0.387757 0.050618 0.986334 0.000533 -0.164755
0.421694 0.921232 0.103570 0.946772 0.295937 -0.126666
0.385484 0.086042 0.084872 0.861320 0.020440 -0.507652
0.541060 0.318881 0.101713 0.868294 0.026843 -0.495324
0.637025 0.818952 0.111507 -0.083363 0.075882 0.993626
0.435246 0.188133 0.050419 -0.578297 -0.108755 -0.808545
0.520925 0.419510 0.030188 -0.692828 -0.254288 -0.674779
0.393409 0.292584 0.036772 0.875464 -0.032330 -0.482201
0.481850 0.420055 0.030188 0.220418 -0.282797 -0.933510
0.343212 0.840694 0.091998 -0.105868 -0.614055 0.782130
0.563043 0.788903 0.073278 -0.442156 0.650788 0.617230
0.529805 0.702566 0.110310 0.961282 -0.027628 -0.274177
0.549883 0.822887 0.075053 0.213755 -0.432727 -0.875817
0.434336 0.805498 0.041744 0.664855 0.070528 -0.743635
0.488192 0.564995 0.133939 0.990503 0.111454 0.080507
0.481067 0.569695 0.079654 -0.443244 -0.014219 -0.896288
0.387322 0.824347 0.048592 -0.247070 -0.912826 0.325123
0.476326 0.752865 0.139180 0.947728 -0.313776 -0.057938
0.421694 0.923760 0.116953 0.955621 0.292066 0.038535
0.474724 0.953674 0.124874 0.149157 -0.351663 0.924167
0.498141 0.535164 0.050911 -0.905400 0.099137 -0.412823
0.410390 0.700446 0.030188 0.651397 0.752723 -0.095345
0.540111 0.464775 0.032407 0.997197 0.056659 -0.048874
0.658513 0.870058 0.052087 -0.409083 0.900566 0.147079
0.493398 0.319102 0.118735 -0.971228 -0.107479 0.212522
0.552214 0.780468 0.100445 0.377852 -0.860578 0.341517
0.546091 0.822603 0.062862 0.385976 -0.753158 -0.532706
0.771770 0.893416 0.086125 0.301872 -0.916621 0.262067
0.410248 0.033874 0.056074 0.789611 -0.572288 0.221361
0.464498 0.449370 0.071786 -0.990383 -0.132846 -0.038642
0.503918 0.941383 0.057667 -0.603890 0.315833 -0.731824
0.496996 0.663078 0.034410 0.015555 0.281108 -0.959550
0.394258 0.038917 0.175428 0.914100 -0.404645 -0.026159
0.393524 0.341646 0.033005 0.999328 0.036638 0.001287
0.399564 0.681040 0.047006 -0.979170 -0.128549 0.157165
0.081719 0.937858 0.127134 -0.339007 -0.852470 0.397957
0.401240 0.670420 0.116757 -0.819286 -0.134870 0.557298
0.094777 0.918536 0.120707 -0.136342 -0.585879 0.798847
0.462970 0.459053 0.096304 -0.191445 -0.014987 -0.981389
0.433447 0.899912 0.037969 0.947342 0.040257 -0.317683
0.426870 0.106357 0.086080 -0.060330 0.185768 0.980740
0.447806 0.681404 0.030188 0.873613 0.405150 -0.269544
0.526748 0.079605 0.054549 -0.922206 0.174909 0.344880
0.501668 0.086583 0.070819 -0.944206 -0.329169 -0.011049
0.514488 0.197995 0.105051 0.051304 0.055467 -0.997142
0.436454 0.859860 0.132153 -0.401040 0.608897 -0.684406
0.460759 0.437662 0.118703 0.012631 0.052003 -0.998567
0.649051 0.868878 0.079706 -0.421575 0.905942 0.039284
0.408683 0.623278 0.056480 0.456983 0.283003 0.843253
0.462840 0.457751 0.065641 -0.610557 0.013240 -0.791862
0.463246 0.557888 0.072102 -0.550362 -0.404047 0.730649
0.427876 0.363008 0.031364 0.251960 0.065447 0.965522
0.494973 0.151909 0.051725 0.703306 0.045200 -0.709448
0.541060 0.438595 0.065711 0.980280 0.030994 -0.195169
0.609893 0.806981 0.105212 0.095932 -0.342208 0.934714
0.416920 0.091855 0.093680 0.173687 0.164079 0.971036
0.390672 0.743722 0.109847 -0.903433 -0.145191 0.403395
0.541060 0.084302 0.083255 0.504663 0.103282 -0.857116
0.257326 0.839764 0.111658 -0.381163 -0.924436 0.011512
