0.227967 0.104078 0.090169 0.993319 -0.040563 -0.108041
0.092656 0.259566 0.087721 -0.970499 0.181387 -0.158842
0.282980 0.685870 0.065030 0.456553 -0.114015 -0.882361
0.102912 0.602893 0.074818 -0.391475 0.919490 0.035847
0.126484 0.891078 0.110612 -0.980218 -0.120294 0.157167
0.188459 0.822774 0.075159 0.044640 0.941819 -0.333144
0.098294 0.637915 0.120761 -0.580853 -0.106794 0.806973
0.065032 0.800223 0.078821 -0.105846 -0.994318 -0.011298
0.132288 0.862240 0.094612 -0.792214 -0.607995 0.052336
0.064719 0.637433 0.103932 0.726108 0.147923 0.671480
0.198450 0.295758 0.118591 -0.360272 -0.197282 0.911748
0.239108 0.811499 0.111600 0.641010 0.752048 0.153393
0.194139 0.879691 0.112522 0.718395 -0.437207 0.541072
0.129364 0.602893 0.058427 -0.147834 0.892376 -0.426392
0.214280 0.281528 0.090176 0.274642 -0.887384 0.370300
0.207420 0.277199 0.067849 0.226918 0.181100 -0.956928
0.095475 0.059507 0.154941 -0.709308 0.701011 0.073932
0.236424 0.515944 0.116236 0.366957 -0.624926 0.689065
0.084199 0.342884 0.101185 -0.987250 -0.104357 0.120198
0.236424 0.294148 0.072707 0.749097 -0.093300 -0.655857
0.070560 0.700092 0.065030 0.618275 -0.018638 -0.785741
0.149036 0.217746 0.091422 0.965824 0.161429 -0.202792
0.140362 0.044733 0.100369 0.336224 -0.358770 0.870769
0.052184 0.537294 0.096039 0.213225 0.135104 0.967617
0.084199 0.566635 0.043648 -0.709688 0.285140 -0.644235
0.163131 0.380487 0.072645 -0.764622 -0.138044 -0.629521
0.221697 0.800223 0.096644 0.072680 -0.993575 0.086755
0.231025 0.822774 0.078697 0.102747 0.947758 -0.301989
0.256962 0.547406 0.096039 -0.023565 0.095067 0.995192
0.075742 0.789999 0.089332 0.932321 0.269336 -0.241322
0.096807 0.025000 0.113534 -0.412266 -0.908000 -0.074652
0.126484 0.890713 0.053372 -0.697851 -0.469074 -0.541271
0.167988 0.811499 0.115083 0.304074 0.817280 0.489482
0.069417 0.664911 0.072969 0.700423 -0.267960 -0.661518
0.236424 0.304414 0.098848 0.814589 -0.227485 0.533568
0.186609 0.817666 0.065030 0.086524 0.747694 -0.658382
0.171588 0.227393 0.112612 -0.493484 0.039933 0.868838
0.230881 0.323905 0.118591 0.289224 -0.160885 0.943645
0.174407 0.025105 0.192490 -0.771786 -0.626646 0.107986
0.262393 0.822774 0.104940 0.158421 0.987349 -0.006626
0.141926 0.925002 0.129866 -0.456358 -0.047805 0.888511
0.135465 0.819437 0.115772 -0.033626 0.781385 0.623143
0.114499 0.602893 0.123673 -0.558497 -0.573148 0.599652
0.087778 0.811499 0.068910 -0.440919 0.633554 -0.635766
0.209533 0.552151 0.064183 0.238439 0.215687 -0.946903
0.172979 0.676187 0.064677 0.110954 0.752227 -0.649495
0.170497 0.497625 0.062211 -0.478393 0.091506 -0.873365
0.244881 0.686997 0.109426 -0.942284 -0.124982 0.310612
0.190366 0.800223 0.093163 0.028989 -0.998699 0.041960
0.081380 0.701100 0.080610 -0.739267 -0.620433 -0.261817
0.178319 0.249355 0.067849 -0.463679 0.118986 -0.877977
0.084199 0.400772 0.078672 -0.848550 -0.074156 -0.523894
0.150611 0.681758 0.129866 -0.329395 -0.471922 0.817795
0.148110 0.782844 0.050935 -0.036912 0.376800 -0.925559
0.038220 0.664911 0.071360 -0.519113 -0.584498 -0.623606
0.225148 0.025276 0.222995 0.288973 -0.915511 0.279884
0.126484 0.963964 0.077288 -0.863556 0.437040 -0.251528
0.227967 0.056693 0.078317 0.805942 -0.098787 -0.583693
0.081380 0.715888 0.104799 -0.928105 -0.255392 0.270918
0.277699 0.597315 0.076869 0.306228 0.057708 -0.950207
0.102672 0.128410 0.112953 -0.552287 -0.068828 0.830808
0.098406 0.697264 0.050935 -0.307165 -0.585168 -0.750485
0.227967 0.198270 0.101594 0.970443 0.129809 0.203446
0.179565 0.549771 0.025000 0.231362 0.219197 -0.947852
0.191247 0.289002 0.118591 -0.512584 -0.192767 0.836719
0.125760 0.025000 0.155449 0.107891 -0.992474 0.057918
0.193180 0.265319 0.067849 -0.138333 0.162843 -0.976906
0.101489 0.675449 0.056573 -0.328013 0.633978 -0.700342
0.048113 0.664911 0.084998 0.083529 0.369270 -0.925561
0.199671 0.444536 0.062211 0.029797 0.086990 -0.995763
0.170579 0.676187 0.121589 0.214019 0.780724 0.587082
0.092656 0.233428 0.074185 -0.698357 0.087339 -0.710401
0.259167 0.585893 0.076869 -0.410357 -0.087304 -0.907736
0.236424 0.532393 0.085177 0.983779 -0.151019 -0.096812
0.221086 0.025000 0.096512 0.805546 -0.509869 -0.301876
0.135131 0.064466 0.099481 0.395685 0.885246 -0.244484
0.161017 0.713980 0.050935 0.060911 -0.148000 -0.987110
0.206752 0.676187 0.107310 0.429767 0.901051 0.058370
0.125602 0.064466 0.188790 0.165047 0.984125 0.065249
0.092656 0.130571 0.088001 -0.954631 -0.077583 -0.287507
0.214016 0.800872 0.065030 0.162976 -0.780716 -0.603260
0.289985 0.545087 0.088389 0.667881 0.319002 -0.672438
0.149036 0.241312 0.100055 0.978293 0.190687 0.081129
0.092656 0.152403 0.069662 -0.654785 -0.098586 -0.749358
0.084199 0.568626 0.118404 -0.570055 0.140053 0.809582
0.095785 0.045106 0.090401 -0.925267 -0.092033 -0.367983
0.197889 0.531776 0.118591 0.257220 0.164077 0.952322
0.095475 0.029838 0.144749 -0.725626 -0.687800 -0.019975
0.295623 0.745293 0.084478 0.920384 0.136003 -0.366601
0.078382 0.822774 0.105708 -0.124964 0.892426 0.433543
0.068412 0.572637 0.083831 0.806606 0.033738 -0.590126
0.095851 0.111326 0.112953 -0.719031 -0.070616 0.691381
0.118858 0.491233 0.062211 -0.006488 0.137314 -0.990506
0.157493 0.544933 0.114740 0.905843 0.237215 0.350967
0.171677 0.281528 0.074060 -0.672168 0.167205 -0.721271
0.208801 0.523002 0.025000 0.428100 -0.086599 -0.899573
0.130497 0.822774 0.082358 -0.045135 0.990095 -0.132947
0.131143 0.064466 0.196137 0.313337 0.947801 0.059113
0.075742 0.775934 0.078152 0.844687 0.207400 -0.493446
0.088900 0.501409 0.118800 -0.675331 -0.569403 0.468731
0.163131 0.315390 0.095486 -0.980309 -0.196422 -0.020299
0.157493 0.471527 0.091527 0.961867 0.174912 -0.210281
0.126484 0.968434 0.119231 -0.609323 0.300593 0.733736
0.118833 0.617059 0.056573 -0.218988 -0.643754 -0.733229
0.086521 0.552151 0.112946 -0.384773 0.124895 0.914522
0.208731 0.501409 0.108072 0.093139 -0.821086 0.563154
0.149036 0.126878 0.087212 0.947258 0.032138 -0.318857
0.114325 0.602893 0.101557 -0.506009 -0.805045 0.309609
0.244881 0.672310 0.110434 -0.930626 -0.178707 0.319372
0.084199 0.498096 0.093669 -0.981543 0.138739 0.131620
0.278345 0.800223 0.112093 0.123266 -0.941394 0.313978
0.025000 0.674136 0.092876 -0.948264 -0.311732 -0.060159
0.239243 0.750481 0.072063 0.641704 0.334561 -0.690135
0.295623 0.808882 0.101067 0.945485 0.322874 0.042546
0.175413 0.694043 0.050935 0.148961 -0.293761 -0.944201
0.151053 0.444041 0.118591 0.619139 0.051513 0.783590
0.163131 0.360451 0.089185 -0.965910 -0.125098 -0.226648
0.141481 0.804483 0.129866 0.072132 0.425326 0.902161
0.260782 0.599091 0.103932 -0.355533 -0.039455 0.933831
0.092656 0.135283 0.091106 -0.981754 -0.049320 -0.183646
0.171067 0.397683 0.062211 -0.511599 -0.103684 -0.852946
0.224021 0.457932 0.062211 0.455131 0.099997 -0.884792
0.106601 0.025000 0.109628 -0.172815 -0.980790 -0.090470
0.126484 0.913821 0.078526 -0.945681 -0.049536 -0.321299
0.233409 0.712733 0.129866 0.299064 -0.244486 0.922381
0.194069 0.602893 0.039303 0.238893 0.767771 -0.594523
0.200928 0.540142 0.062211 0.054291 0.191277 -0.980034
0.142270 0.501409 0.110063 -0.365382 -0.769672 0.523547
0.151792 0.602893 0.097440 -0.200338 -0.928326 0.313170
0.171355 0.934410 0.129866 0.318608 0.058928 0.946053
0.194139 0.957185 0.119448 0.891134 0.416753 0.179435
0.182419 0.049806 0.067849 -0.463489 -0.284628 -0.839145
0.225591 0.044733 0.088216 0.953532 -0.301196 -0.007548
0.096505 0.102712 0.112953 -0.727807 -0.079764 0.681127
0.270020 0.581623 0.103932 -0.109320 -0.092076 0.989733
0.140142 0.602893 0.029513 -0.100764 0.729474 -0.676545
0.032329 0.586516 0.083416 -0.803991 -0.094809 -0.587034
0.098061 0.025000 0.096310 -0.305101 -0.945790 -0.111334
0.157493 0.341100 0.114706 0.515084 -0.124408 0.848063
0.117623 0.064466 0.196872 -0.080009 0.978523 0.189978
0.236424 0.576227 0.085967 0.711013 0.678261 -0.185536
0.107267 0.086944 0.067849 -0.369340 -0.194664 -0.908677
0.081380 0.735640 0.086747 -0.958300 -0.116021 -0.261153
0.194139 0.868713 0.103518 0.743150 -0.540117 0.394970
0.101906 0.025000 0.184347 -0.628856 -0.769511 0.111323
0.222329 0.608845 0.065470 0.542284 -0.229324 -0.808293
0.110878 0.822774 0.115755 -0.052473 0.838411 0.542507
0.145610 0.676187 0.097881 -0.308084 -0.884845 0.349477
0.085747 0.489498 0.118591 -0.453030 0.040104 0.890593
0.084199 0.552741 0.050892 -0.836846 -0.015773 -0.547212
0.231483 0.496659 0.118591 0.760801 0.151638 0.631021
0.211654 0.800223 0.070459 0.136493 -0.877404 -0.459925
0.132391 0.537822 0.118591 0.557918 0.209443 0.803032
0.163131 0.289473 0.080923 -0.867691 -0.309402 -0.389079
0.256520 0.664911 0.082922 -0.559633 0.246643 -0.791188
0.233017 0.281528 0.097090 0.720248 -0.355723 0.595570
0.130946 0.475739 0.118591 0.335823 0.070859 0.939256
0.195044 0.654859 0.056573 0.277824 0.439039 -0.854435
0.208424 0.592062 0.126484 0.437998 0.717730 0.541314
0.041650 0.691422 0.115772 -0.513978 -0.211142 0.831412
0.098809 0.541532 0.025000 -0.407778 -0.337045 -0.848598
0.244881 0.680090 0.095771 -0.966024 -0.258445 0.001718
0.126484 0.965103 0.119908 -0.621745 0.279733 0.731562
0.029526 0.811499 0.085027 -0.864071 0.420379 -0.276882
0.098423 0.800223 0.108155 -0.164865 -0.920847 0.353355
0.178019 0.729586 0.129866 0.007908 -0.224988 0.974329
0.151032 0.561122 0.126484 -0.106623 -0.058083 0.992602
0.148929 0.776468 0.129866 0.009582 0.156270 0.987668
0.100424 0.044733 0.076373 -0.724526 -0.380901 -0.574436
0.194139 0.969632 0.087966 0.845606 0.486275 -0.220200
0.091237 0.602893 0.122551 -0.284867 0.452520 0.845030
0.217684 0.676187 0.085401 0.456036 0.834298 -0.309805
0.038063 0.501440 0.084763 -0.189827 -0.077112 -0.978785
0.201105 0.459741 0.118591 0.104014 0.015293 0.994458
0.295623 0.665238 0.101406 0.655710 -0.391164 0.645782
0.184947 0.676187 0.125964 -0.132907 -0.561353 0.816835
0.203073 0.138513 0.067849 0.113437 0.011505 -0.993479
0.139531 0.440010 0.118591 0.398545 0.017671 0.916978
0.111626 0.676187 0.065675 -0.307216 -0.872892 -0.379048
0.186385 0.562866 0.126484 0.179364 0.114832 0.977058
0.212806 0.321171 0.062211 0.266016 -0.096365 -0.959140
0.146217 0.056665 0.122557 0.752402 0.625423 -0.206730
0.227967 0.280372 0.087169 0.916129 0.224538 -0.332100
0.177523 0.552151 0.094980 -0.722474 0.571882 0.388564
0.195642 0.667226 0.124228 0.369972 0.696794 0.614491
0.166719 0.414366 0.118591 -0.597468 -0.027961 0.801405
0.208202 0.446147 0.118591 0.208316 0.005412 0.978047
0.236424 0.587550 0.090040 0.642704 0.759181 -0.102842
0.236424 0.570695 0.046404 0.604611 0.487086 -0.630233
0.081380 0.755738 0.057195 -0.526857 -0.014150 -0.849836
0.125693 0.676187 0.118593 -0.490923 -0.597309 0.634206
0.025000 0.810680 0.087309 -0.943041 0.331190 -0.031423
0.119775 0.256112 0.067849 0.003889 0.157137 -0.987569
0.093070 0.181186 0.112953 -0.599434 -0.002298 0.800421
0.186865 0.865712 0.129866 0.237968 -0.548183 0.801789
0.194332 0.552151 0.113178 0.275351 0.267771 0.923298
0.122060 0.209869 0.067849 0.063336 0.105385 -0.992413
0.146217 0.041355 0.114641 0.951150 0.110367 -0.288326
0.075742 0.754460 0.074337 0.809268 0.140219 -0.570459
0.138234 0.872547 0.050935 -0.439796 -0.642761 -0.627245
0.236424 0.577834 0.085896 0.700548 0.690255 -0.181057
0.081380 0.747223 0.101480 -0.952406 0.030065 0.303348
0.147417 0.520525 0.126484 -0.321232 -0.508730 0.798752
0.219617 0.281528 0.113708 0.041743 -0.276202 0.960193
0.146217 0.038479 0.204837 0.857849 -0.460862 0.227381
0.157493 0.478464 0.091629 0.961199 0.182766 -0.206623
0.157493 0.299235 0.099688 0.770111 -0.243173 0.589742
0.174407 0.055505 0.116210 -0.757485 0.628904 -0.175203
0.171588 0.066579 0.104867 -0.947894 -0.124711 0.293164
0.218308 0.156522 0.112953 0.417536 -0.029790 0.908172
0.149036 0.215831 0.110098 0.851231 0.121593 0.510510
0.128055 0.064466 0.201687 0.230384 0.965473 0.121595
0.081380 0.702942 0.051503 -0.404492 -0.586590 -0.701640
0.149036 0.113292 0.078786 0.808793 0.019739 -0.587762
0.051000 0.529599 0.082957 -0.150114 -0.504698 -0.850145
0.149036 0.262833 0.086445 0.911458 0.203580 -0.357491
0.209934 0.509192 0.126484 0.052265 -0.651230 0.757078
0.113576 0.025000 0.142341 -0.144204 -0.989026 0.032128
0.203252 0.064466 0.109442 0.127329 0.965617 -0.226650
0.252211 0.664209 0.101913 -0.387826 0.103550 0.915898
0.239920 0.805740 0.115772 0.126648 -0.768219 0.627535
0.091654 0.396039 0.118591 -0.583401 -0.050097 0.810638
0.155983 0.699973 0.129866 -0.235261 -0.384207 0.892769
0.075742 0.738131 0.101996 0.968039 0.068096 0.241377
0.068412 0.549759 0.080111 0.690363 -0.021891 -0.723132
0.106572 0.602893 0.109298 -0.581658 -0.703360 0.408606
0.112830 0.498641 0.118591 0.025889 0.070089 0.997205
0.117161 0.540456 0.118591 0.245421 0.179218 0.952706
0.126484 0.865148 0.104595 -0.891656 -0.436460 0.120219
0.149666 0.800223 0.108148 -0.066328 -0.940342 0.333702
0.038141 0.680367 0.115772 -0.652014 -0.221814 0.725035
0.092129 0.602893 0.116719 -0.307462 0.507654 0.804832
0.166172 0.800223 0.083267 0.011472 -0.992189 -0.124217
0.236424 0.366893 0.080899 0.870073 0.035685 -0.491630
0.062739 0.519036 0.096039 0.301450 0.094037 0.948833
0.123545 0.741520 0.129866 -0.274433 -0.130380 0.952726
0.172241 0.617983 0.056573 0.200141 -0.252494 -0.946673
0.126484 0.955581 0.089349 -0.928243 0.371846 0.009779
0.144687 0.676187 0.105367 -0.000791 0.937079 0.349116
0.186822 0.602893 0.117478 0.318501 0.854809 0.409705
0.200244 0.552151 0.102670 0.654025 0.543012 0.526677
0.168132 0.520114 0.062211 -0.500815 0.122603 -0.856827
0.149036 0.079038 0.094739 0.939332 -0.150884 0.308040
0.054276 0.611884 0.103932 0.197027 0.005155 0.980385
0.124386 0.345998 0.118591 -0.132889 -0.142320 0.980860
0.216948 0.195444 0.067849 0.439838 0.087292 -0.893825
0.157493 0.368851 0.078328 0.834069 0.037270 -0.550399
0.134941 0.855282 0.075054 -0.697341 0.549637 -0.460016
0.084199 0.599235 0.051059 -0.528665 0.760734 -0.376558
0.116984 0.529860 0.062211 -0.042362 0.178023 -0.983114
0.222329 0.637121 0.073359 0.622681 0.284091 -0.729082
0.236424 0.507950 0.095571 0.507530 -0.784392 0.356570
0.191377 0.515968 0.118591 0.066741 0.106664 0.992053
0.025000 0.697528 0.078665 -0.862916 -0.275498 -0.423648
0.286913 0.653617 0.103932 0.830717 0.202037 0.518739
0.122321 0.025000 0.186061 -0.124877 -0.977601 0.169416
0.095475 0.043742 0.179078 -0.983058 0.151585 0.103050
0.046081 0.674780 0.065030 -0.134133 -0.374232 -0.917583
0.042352 0.811499 0.087641 -0.280972 0.750210 -0.598531
0.208393 0.064466 0.218498 0.262666 0.941780 0.209899
0.202523 0.063941 0.112953 -0.242889 -0.177532 0.953671
0.098294 0.621190 0.064396 -0.491032 -0.671975 -0.554380
0.239243 0.744844 0.120194 0.688582 0.237831 0.685048
0.096933 0.429414 0.062211 -0.426894 -0.021420 -0.904048
0.025000 0.819574 0.083763 -0.370064 0.928855 0.016760
0.126484 0.934445 0.093254 -0.979659 0.200234 -0.013222
0.171588 0.053029 0.084945 -0.906580 -0.268779 -0.325377
0.081380 0.681626 0.091775 -0.702787 -0.709829 0.047259
0.075742 0.666334 0.106349 0.533013 -0.365291 0.763190
0.138261 0.341546 0.062211 0.347985 -0.030768 -0.936995
0.149036 0.141888 0.073166 0.711012 0.040345 -0.702021
0.171588 0.121191 0.092388 -0.988660 -0.076908 -0.128985
0.040205 0.638746 0.076869 -0.333866 0.125338 -0.934250
0.288356 0.765564 0.065030 0.567578 0.160703 -0.807484
0.088394 0.810107 0.050935 -0.334552 0.462162 -0.821268
0.220792 0.647831 0.056573 0.442427 0.325350 -0.835707
0.092656 0.157960 0.086231 -0.930565 -0.019270 -0.365619
0.084199 0.407313 0.117658 -0.678605 -0.028739 0.733941
0.279006 0.808054 0.115772 0.322430 -0.627766 0.708483
0.165636 0.525879 0.118591 -0.351813 0.068289 0.933576
0.200226 0.372270 0.118591 -0.125398 -0.110687 0.985913
0.172206 0.349392 0.062211 -0.508589 -0.197158 -0.838132
0.122547 0.025000 0.148883 0.053749 -0.997832 0.037980
0.209465 0.121790 0.112953 0.080359 -0.110088 0.990668
0.227967 0.142473 0.086668 0.928665 0.065660 -0.365062
0.255755 0.762352 0.065030 -0.446084 0.097414 -0.889674
0.084199 0.455009 0.068501 -0.682145 0.003966 -0.731206
0.157884 0.571383 0.126484 -0.012423 0.171275 0.985145
0.207563 0.042908 0.090401 0.741595 0.309638 -0.595115
0.217304 0.378976 0.118591 0.192040 -0.097509 0.976531
0.037512 0.811499 0.083735 -0.545664 0.556520 -0.626528
0.225148 0.062977 0.138703 0.635340 0.760799 -0.132392
0.151796 0.933347 0.050935 -0.188541 0.300610 -0.934926
0.072498 0.686523 0.065030 0.651358 -0.051985 -0.756988
0.126484 0.948433 0.101263 -0.915007 0.281805 0.288701
0.064767 0.664911 0.067955 0.524276 -0.261700 -0.810338
0.200658 0.676187 0.064978 0.282883 0.729959 -0.622204
0.194139 0.893748 0.097204 0.984907 -0.159100 0.068161
0.157493 0.346815 0.087908 0.975828 -0.038460 -0.215127
0.171698 0.459609 0.062211 -0.478635 0.022745 -0.877720
0.189741 0.766879 0.129866 0.250895 0.209344 0.945107
0.127088 0.602893 0.058440 -0.165698 0.892983 -0.418479
0.201933 0.325631 0.062211 0.047311 -0.141137 -0.988859
0.180542 0.552151 0.077796 -0.381618 0.325006 -0.865297
0.092656 0.071811 0.096031 -0.984915 -0.170989 0.026571
0.194139 0.892798 0.083864 0.964142 -0.067555 -0.256645
0.152086 0.862240 0.079535 -0.176480 0.854148 -0.489169
0.140416 0.501409 0.096095 -0.325286 -0.862519 0.387621
0.112117 0.476342 0.062211 -0.135377 0.117059 -0.983855
0.181301 0.041105 0.225712 -0.889168 -0.108269 0.444588
0.208493 0.025000 0.221545 -0.101346 -0.951344 0.290986
0.098294 0.634220 0.100576 -0.955072 -0.095196 0.280669
0.194139 0.972447 0.128028 0.838421 0.483380 0.251784
0.191081 0.602893 0.058623 0.317600 -0.496161 -0.808056
0.100645 0.822774 0.107411 -0.081633 0.909407 0.407818
0.095475 0.048459 0.152826 -0.925768 0.377016 -0.028512
0.158195 0.563377 0.126484 -0.048886 0.008918 0.998765
0.239243 0.789600 0.062555 0.501848 0.477490 -0.721216
0.239243 0.776117 0.100406 0.766399 0.636058 -0.089797
0.194139 0.892114 0.084914 0.969269 -0.084349 -0.231091
0.084241 0.353662 0.062211 -0.619172 -0.206273 -0.757679
0.288294 0.558679 0.090728 0.996567 -0.073767 -0.037591
0.160312 0.808083 0.084672 0.110217 -0.942624 -0.315137
0.206984 0.281174 0.112953 0.566761 0.212854 0.795912
0.295623 0.757301 0.104577 0.960281 0.151807 0.234125
0.204277 0.608031 0.124228 0.058232 -0.628741 0.775432
0.227967 0.056252 0.083981 0.926695 -0.154260 -0.342697
0.122046 0.811499 0.058826 -0.173927 0.572521 -0.801230
0.207735 0.811499 0.069432 0.367786 0.671597 -0.643188
0.143120 0.862240 0.129435 -0.709719 -0.423609 0.562898
0.174955 0.800223 0.092819 0.003949 -0.998998 0.044581
0.068412 0.612945 0.085959 0.864789 0.128356 -0.485453
0.177646 0.862240 0.117875 0.112837 -0.703809 0.701370
0.084199 0.447823 0.085030 -0.919328 0.061232 -0.388698
0.185682 0.853613 0.101362 0.794636 0.607029 -0.008369
0.084445 0.602893 0.086422 -0.511522 0.754484 0.411216
0.215949 0.151615 0.112953 0.340022 -0.045385 0.939322
0.212256 0.651580 0.124228 0.483952 0.437864 0.757671
0.163131 0.530108 0.076320 -0.778600 0.175714 -0.602417
0.084645 0.598380 0.126484 -0.322219 0.358955 0.875972
0.171060 0.393826 0.118591 -0.581531 -0.052840 0.811807
0.202426 0.217659 0.067849 0.100823 0.114712 -0.988269
0.112854 0.219646 0.067849 -0.174066 0.110275 -0.978540
0.234825 0.800223 0.109630 0.061741 -0.951742 0.300625
0.222024 0.344330 0.118591 0.184348 -0.144254 0.972217
0.126484 0.869542 0.072795 -0.763566 -0.589381 -0.263811
0.222545 0.760276 0.050935 0.363684 0.257384 -0.895258
0.118578 0.690909 0.129866 -0.480315 -0.395855 0.782685
0.168740 0.655335 0.056573 0.105078 0.459528 -0.881925
0.166637 0.551044 0.025000 0.142107 0.238510 -0.960686
0.284312 0.529599 0.092891 0.666273 -0.439597 0.602357
0.128163 0.281528 0.108282 0.670687 0.275325 0.688749
0.227967 0.137848 0.083372 0.883113 0.055156 -0.465907
0.236424 0.313094 0.068684 0.693632 -0.032069 -0.719615
0.126484 0.969900 0.051282 -0.667216 0.388360 -0.635609
0.088260 0.715884 0.129866 -0.561487 -0.237655 0.792624
0.138705 0.975000 0.118730 -0.380166 0.483984 0.788183
0.085167 0.676187 0.103265 -0.692018 -0.664383 0.282324
0.222329 0.602893 0.039073 0.390231 0.726897 -0.565102
0.081380 0.738993 0.084469 -0.938435 -0.077701 -0.336605
0.084199 0.436839 0.112875 -0.713413 0.004167 0.700731
0.102549 0.192799 0.112953 -0.371098 -0.006182 0.928573
0.075742 0.685633 0.099041 0.853812 -0.261094 0.450371
0.171588 0.201045 0.112185 -0.573756 0.017536 0.818839
0.134941 0.820837 0.112817 -0.847404 -0.280210 0.450986
0.126484 0.956434 0.127826 -0.583138 0.192818 0.789159
0.101445 0.033111 0.225712 -0.866684 -0.386959 0.314836
0.095475 0.056189 0.111713 -0.738681 0.646871 -0.189496
0.149036 0.076422 0.077588 0.789660 -0.042831 -0.612049
0.223949 0.093448 0.067849 0.560692 -0.015906 -0.827871
0.167754 0.975000 0.080513 0.372906 0.783953 -0.496345
0.169216 0.676187 0.099245 0.186873 0.981341 -0.045262
0.176281 0.862240 0.060782 0.538014 -0.554488 -0.634889
0.098294 0.647471 0.081742 -0.849813 0.326396 -0.413863
0.167336 0.382379 0.062211 -0.565538 -0.144308 -0.811999
0.214220 0.742507 0.129866 0.317210 0.015439 0.948230
0.098561 0.060169 0.112953 -0.784661 -0.121804 0.607841
0.084199 0.380512 0.072375 -0.760630 -0.138665 -0.634203
0.100776 0.811499 0.118561 -0.205802 0.464978 0.861070
0.029221 0.664911 0.096738 -0.918754 -0.382720 0.097035
0.198571 0.577097 0.126484 0.357431 0.481241 0.800406
0.144393 0.817060 0.065030 -0.290557 -0.745098 -0.600338
0.198443 0.552151 0.064408 0.020723 0.217913 -0.975748
0.167570 0.556767 0.126484 -0.012185 -0.088870 0.995969
0.225148 0.037865 0.106163 0.949480 -0.021319 -0.313104
0.025000 0.709146 0.087156 -0.955606 -0.158735 -0.248233
0.084199 0.601967 0.044013 -0.476717 0.746701 -0.463873
0.192158 0.110698 0.067849 -0.206162 -0.114002 -0.971854
0.274373 0.800223 0.103507 0.152256 -0.975902 0.156315
0.216279 0.158350 0.112953 0.372147 -0.031550 0.927637
0.194139 0.891037 0.081241 0.950432 -0.071163 -0.302679
0.114876 0.195596 0.112953 -0.083135 -0.015207 0.996422
0.025000 0.693140 0.093716 -0.977073 -0.203064 -0.063982
0.134054 0.262002 0.067849 0.356492 0.160642 -0.920384
0.202503 0.676187 0.058308 0.307037 -0.439514 -0.844130
0.149036 0.103485 0.089723 0.990298 -0.039775 -0.133147
0.141447 0.676187 0.077119 -0.074406 0.868190 -0.490622
0.278455 0.610558 0.076869 0.331878 0.084510 -0.939529
0.187236 0.809094 0.065030 0.157589 -0.246334 -0.956287
0.221869 0.281528 0.097797 0.366481 -0.515223 0.774749
0.071618 0.749432 0.065030 0.631450 0.111788 -0.767317
0.081380 0.767012 0.075508 -0.755352 0.279277 -0.592831
0.215798 0.025000 0.124019 0.608996 -0.776013 -0.164095
0.092656 0.113147 0.106728 -0.896035 -0.060451 0.439848
0.259298 0.517218 0.084763 -0.149982 0.016372 -0.988553
0.167253 0.374194 0.062211 -0.568492 -0.160197 -0.806941
0.244881 0.691525 0.101681 -0.980556 -0.149499 0.127126
0.194139 0.921519 0.088662 0.946456 0.208145 -0.246772
0.253725 0.808286 0.115772 0.233372 -0.571843 0.786469
0.132762 0.093874 0.112953 0.064804 -0.143152 0.987577
0.149036 0.213562 0.084134 0.889155 0.142940 -0.434708
0.184874 0.817285 0.115772 0.069439 0.751193 0.656420
0.177131 0.292033 0.062211 -0.446587 -0.301426 -0.842438
0.135030 0.281528 0.109958 0.777922 0.248672 0.577061
0.206682 0.544311 0.126484 0.239959 -0.215680 0.946521
0.236424 0.494536 0.107799 0.953314 0.197800 0.228183
0.167642 0.800223 0.100080 -0.025049 -0.983489 0.179224
0.145277 0.975000 0.107709 -0.323542 0.764591 0.557424
0.176609 0.602893 0.091888 0.035606 -0.981904 0.186001
0.118735 0.602893 0.027766 -0.222554 0.704908 -0.673479
0.203201 0.320758 0.062211 0.072616 -0.146198 -0.986587
0.106720 0.621897 0.056573 -0.332329 -0.607292 -0.721633
0.227541 0.754607 0.050935 0.389546 0.226697 -0.892671
0.239243 0.732844 0.106960 0.915114 0.201280 0.349361
0.191556 0.602893 0.026484 0.193798 0.702114 -0.685185
0.126657 0.909650 0.129866 -0.776073 -0.057195 0.628044
0.122109 0.064466 0.108661 0.066294 0.971286 -0.228490
0.215648 0.064466 0.164765 0.440849 0.895324 -0.063617
0.236424 0.368851 0.091018 0.992233 0.007480 -0.124172
0.148368 0.905562 0.050935 -0.283777 -0.159154 -0.945590
0.137751 0.540506 0.062211 0.340505 0.187601 -0.921337
0.125792 0.602893 0.103351 -0.136531 0.834222 0.534259
0.124021 0.281528 0.117122 -0.314744 -0.235351 0.919536
0.055484 0.800223 0.096096 -0.204734 -0.955519 0.212292
0.193657 0.676187 0.117188 -0.040908 -0.668049 0.742992
0.282272 0.538338 0.096039 0.422893 0.203176 0.883108
0.084199 0.542116 0.068283 -0.636079 0.163701 -0.754059
0.288294 0.545002 0.088117 0.959441 -0.130356 -0.249961
0.186046 0.602893 0.065415 0.249865 0.899398 -0.358679
0.216948 0.218642 0.067849 0.439638 0.111571 -0.891219
0.151122 0.735227 0.050935 -0.004670 0.042969 -0.999066
0.236745 0.822774 0.105324 0.126804 0.989891 0.063536
0.157493 0.433238 0.075754 0.796963 0.101488 -0.595442
0.127523 0.095955 0.067849 0.191568 -0.070014 -0.978979
0.052421 0.611050 0.076869 0.110307 0.084913 -0.990264
0.295623 0.804507 0.073346 0.776065 0.266836 -0.571420
0.108645 0.064466 0.155420 -0.318215 0.947978 0.008803
0.239243 0.772302 0.093389 0.761169 0.598033 -0.250956
0.051369 0.550870 0.103932 -0.217703 -0.160958 0.962651
0.216428 0.822774 0.073113 0.079618 0.930274 -0.358121
0.171588 0.163098 0.076065 -0.764202 -0.055180 -0.642612
0.253458 0.595300 0.103932 -0.608814 -0.027762 0.792827
0.091920 0.559951 0.126484 -0.504109 0.001611 0.863639
0.032329 0.611240 0.092909 -0.996410 0.044960 0.071731
0.213445 0.623635 0.124228 0.255259 -0.386446 0.886286
0.236424 0.520114 0.062276 0.605221 0.149130 -0.781964
0.273210 0.657098 0.076869 0.144977 0.181095 -0.972721
0.163276 0.281528 0.098375 -0.964840 -0.251753 0.075520
0.163614 0.493116 0.062211 -0.573045 0.052737 -0.817825
0.180039 0.062053 0.090401 -0.467994 0.844874 -0.259169
0.194750 0.431660 0.118591 -0.083533 -0.045703 0.995456
0.163790 0.811499 0.072827 0.217123 -0.836946 -0.502373
0.180009 0.785041 0.050935 0.134401 0.392014 -0.910089
0.162334 0.964380 0.129866 0.257799 0.423561 0.868410
0.073115 0.782018 0.065030 0.647362 0.191815 -0.737651
0.139820 0.933278 0.129866 -0.452635 0.011042 0.891627
0.217198 0.064466 0.114063 0.465146 0.862270 -0.200326
0.168344 0.940116 0.050935 0.274634 0.346775 -0.896841
0.172045 0.286186 0.118591 -0.783168 -0.148958 0.603705
0.147901 0.657644 0.056573 -0.041501 0.489641 -0.870936
0.138085 0.682860 0.129866 -0.397500 -0.455101 0.796791
0.188677 0.676187 0.091089 0.298915 0.924883 -0.235033
0.154133 0.518586 0.118591 0.814304 0.188845 0.548859
0.084199 0.468669 0.102923 -0.870522 0.063927 0.487960
0.175023 0.676187 0.098664 0.222974 0.969966 -0.097207
0.285560 0.517274 0.096039 0.348002 0.101914 0.931938
0.218974 0.062663 0.225712 0.529717 0.831625 0.166735
0.260849 0.810346 0.065030 0.317566 0.142420 -0.937480
0.198487 0.519930 0.025000 0.380753 -0.172723 -0.908402
0.234189 0.589616 0.126484 0.571886 0.715930 0.400489
0.236424 0.299186 0.075611 0.798750 -0.099479 -0.593382
0.229734 0.301853 0.062211 0.527170 -0.055284 -0.847960
0.219100 0.552151 0.118238 0.722971 0.246632 0.645356
0.129743 0.650191 0.124228 -0.228857 0.017999 0.973294
0.221498 0.044733 0.070476 0.552278 -0.115291 -0.825649
0.212980 0.299310 0.118591 -0.066999 -0.202857 0.976914
0.150380 0.693411 0.050935 -0.001383 -0.421859 -0.906660
0.151155 0.719704 0.050935 -0.001588 -0.131401 -0.991328
0.092656 0.111558 0.083391 -0.895993 -0.144245 -0.419988
0.201424 0.811499 0.090430 0.454970 0.845208 -0.280403
0.216241 0.064466 0.147214 0.451607 0.885171 -0.111907
0.172469 0.071486 0.112953 -0.824938 -0.098416 0.556590
0.098294 0.501409 0.119048 -0.634319 -0.594201 0.494536
0.236424 0.367364 0.076275 0.805458 0.032379 -0.591768
0.054101 0.811499 0.090696 0.560764 0.678349 -0.474749
0.169014 0.410897 0.118591 -0.572263 -0.034242 0.819355
0.104639 0.439052 0.062211 -0.286937 0.032119 -0.957411
0.193850 0.975000 0.111804 0.852330 0.517504 0.075647
0.102219 0.501409 0.079259 -0.501232 -0.854475 0.136525
0.163131 0.358444 0.065370 -0.662253 -0.194859 -0.723500
0.117504 0.501409 0.120624 -0.540385 -0.634144 0.553033
0.158485 0.949772 0.129866 0.053033 0.198076 0.978751
0.089719 0.676187 0.126390 -0.654121 -0.449376 0.608430
0.098294 0.666269 0.077026 -0.589763 0.694892 -0.411465
0.129468 0.025000 0.189372 0.041096 -0.981707 0.185910
0.200494 0.281528 0.085961 -0.472095 -0.878279 -0.075843
0.295623 0.685239 0.111964 0.518472 -0.263194 0.813582
0.222329 0.671769 0.099296 0.538819 0.837704 -0.089027
0.145756 0.064466 0.168188 0.603460 0.795626 -0.053068
0.244881 0.736892 0.095713 -0.999667 0.024519 0.008030
0.157493 0.294775 0.077738 0.836540 -0.128430 -0.532641
0.183481 0.340952 0.062211 -0.327154 -0.183525 -0.926978
0.154711 0.586918 0.025000 0.000887 0.599796 -0.800152
0.115499 0.064466 0.205238 -0.148361 0.954153 0.259965
0.163131 0.520288 0.068780 -0.653947 0.135851 -0.744243
0.095515 0.025000 0.151484 -0.613719 -0.789442 0.011419
0.194139 0.966387 0.051412 0.689638 0.391488 -0.609210
0.105154 0.818067 0.115772 -0.115309 0.614244 0.780646
0.171588 0.251711 0.102805 -0.683546 0.105098 0.722301
0.222733 0.808246 0.115772 0.129823 -0.558125 0.819538
0.149036 0.129154 0.095493 0.991655 0.003351 0.128879
0.185682 0.833304 0.113423 0.724105 -0.119558 0.679248
0.084199 0.337210 0.070193 -0.732370 -0.230638 -0.640656
0.117386 0.801534 0.065030 -0.019345 -0.921672 -0.387488
0.064225 0.682233 0.065030 0.485166 -0.123398 -0.865671
0.169396 0.501409 0.120655 -0.219213 -0.730361 0.646930
0.145414 0.379629 0.118591 0.328885 -0.082869 0.940727
0.210696 0.487384 0.062211 0.238496 0.134907 -0.961728
0.252694 0.757864 0.115772 -0.449941 0.002528 0.893055
0.157493 0.437722 0.090415 0.960055 0.135334 -0.244908
0.181012 0.344569 0.118591 -0.545091 -0.116212 0.830283
0.060114 0.811499 0.095120 0.805413 0.560711 -0.192126
0.192627 0.025000 0.127686 -0.077414 -0.996495 -0.031683
0.107228 0.025000 0.201042 -0.590321 -0.788295 0.173528
0.086540 0.676187 0.051860 -0.328869 -0.752162 -0.571050
0.201787 0.547014 0.062211 0.070787 0.198808 -0.977479
0.086410 0.602893 0.068512 -0.529899 0.847991 -0.010865
0.084199 0.403200 0.070810 -0.733048 -0.095186 -0.673483
0.132467 0.064466 0.196137 0.345917 0.937071 0.047318
0.115416 0.078843 0.112953 -0.407123 -0.147089 0.901452
0.230751 0.439300 0.062211 0.543393 0.079248 -0.835729
0.192407 0.862240 0.065557 0.813509 -0.329854 -0.478957
0.081380 0.797483 0.123495 -0.342982 0.239441 0.908312
0.223367 0.048661 0.225712 0.900629 0.213241 0.378676
0.087428 0.501409 0.092710 -0.634165 -0.733010 0.246030
0.204364 0.125946 0.067849 0.144586 -0.010924 -0.989432
0.025000 0.666624 0.069922 -0.722214 -0.450958 -0.524446
0.097592 0.701480 0.050935 -0.317846 -0.553334 -0.769932
0.125115 0.676187 0.126491 -0.488886 -0.505343 0.711069
0.174641 0.676187 0.081414 0.174989 0.893181 -0.414254
0.075742 0.745164 0.074801 0.817401 0.116350 -0.564198
0.222329 0.673187 0.075820 0.463985 0.749818 -0.471689
0.084199 0.582068 0.059663 -0.717382 0.611885 -0.333106
0.036951 0.822774 0.107925 -0.194886 0.787329 0.584921
0.052858 0.508357 0.084763 0.054766 0.044649 -0.997500
0.194139 0.972646 0.070367 0.774331 0.471375 -0.422158
0.227967 0.145855 0.099866 0.949040 0.025927 0.314086
0.083480 0.811499 0.058026 -0.393188 0.516746 -0.760511
0.198682 0.501409 0.104624 0.045371 -0.846384 0.530637
0.098744 0.602893 0.102183 -0.603166 -0.745856 0.282649
0.200475 0.822774 0.078798 0.062749 0.952883 -0.296777
0.129835 0.886036 0.129866 -0.816101 -0.197675 0.543050
0.116740 0.281528 0.088273 0.201102 0.552182 -0.809106
0.084199 0.303134 0.083781 -0.903288 -0.274018 -0.330130
0.180205 0.281528 0.068812 -0.431235 0.164169 -0.887178
0.228745 0.510088 0.118591 0.754657 0.173134 0.632864
0.163131 0.508981 0.097172 -0.918563 0.147893 0.366564
0.163131 0.466885 0.090675 -0.988915 0.087079 -0.120265
0.236424 0.363144 0.093411 0.999784 -0.018230 0.009994
0.227967 0.094322 0.096201 0.938449 -0.104586 0.329204
0.289985 0.537299 0.090191 0.883821 0.382602 -0.269214
0.173723 0.281528 0.077378 -0.700054 0.197222 -0.686315
0.255389 0.800223 0.071921 0.235108 -0.790419 -0.565651
0.159354 0.811499 0.101197 -0.245656 -0.874934 0.417305
0.157493 0.424904 0.073710 0.768336 0.088191 -0.633942
0.201308 0.151615 0.067849 0.069281 0.032593 -0.997065
0.128390 0.064466 0.180738 0.243948 0.969754 -0.008147
0.098294 0.659239 0.113836 -0.505461 0.288840 0.813069
0.168090 0.676187 0.068560 0.040247 -0.819631 -0.571477
0.288294 0.539274 0.089771 0.979406 -0.201193 -0.016914
0.177272 0.764460 0.129866 0.149696 0.131462 0.979954
0.167464 0.822774 0.087730 0.025535 0.996877 -0.074727
0.236424 0.334105 0.073737 0.768267 -0.008728 -0.640070
0.118531 0.263909 0.112953 0.233751 0.145279 0.961382
0.231302 0.433899 0.062211 0.549975 0.073973 -0.831898
0.227967 0.063204 0.090462 0.979340 -0.188051 0.074358
0.141184 0.800223 0.075339 -0.004490 -0.975384 -0.220468
0.054392 0.664911 0.083212 -0.012099 -0.966443 -0.256594
0.044252 0.632920 0.076869 -0.197866 0.121967 -0.972611
0.236424 0.524455 0.120327 0.411451 -0.497181 0.763884
0.204023 0.064466 0.168869 0.155301 0.986616 -0.049697
0.221024 0.025000 0.136994 0.663926 -0.739343 -0.112134
0.119455 0.065936 0.067849 -0.048839 -0.190573 -0.980457
0.123024 0.602893 0.083427 -0.324050 -0.946032 0.003824
0.081380 0.710966 0.066308 -0.604585 -0.542069 -0.583642
0.146217 0.043677 0.168209 0.982736 0.159675 -0.093451
0.086906 0.793564 0.129866 -0.274056 0.169712 0.946621
0.095475 0.062900 0.090867 -0.575450 0.786128 -0.225521
0.173400 0.330537 0.118591 -0.687371 -0.114787 0.717178
0.236083 0.676187 0.056596 0.465727 -0.234069 -0.853411
0.194139 0.960010 0.069249 0.796715 0.404372 -0.449141
0.196131 0.025000 0.093122 0.216318 -0.941507 -0.258401
0.137571 0.822774 0.077429 -0.033800 0.974014 -0.223950
0.185740 0.627388 0.056573 0.270886 0.049365 -0.961345
0.171588 0.099887 0.091698 -0.981523 -0.132016 -0.138509
0.152295 0.602893 0.077692 0.042503 0.982308 -0.182385
0.171588 0.230269 0.083964 -0.896309 0.114598 -0.428366
0.149036 0.228304 0.102690 0.971667 0.175118 0.158738
0.193639 0.491257 0.118591 0.042956 0.059910 0.997279
0.052087 0.715190 0.115772 -0.086765 -0.174343 0.980855
0.211017 0.569565 0.025000 0.381628 0.410484 -0.828169
0.271123 0.549802 0.084763 0.041126 0.149855 -0.987852
0.056597 0.800534 0.115772 0.499264 0.272375 0.822525
0.068412 0.609084 0.095510 0.983271 0.129999 0.127590
0.144656 0.718610 0.050935 -0.042958 -0.175917 -0.983467
0.139516 0.025000 0.156704 0.494261 -0.869302 0.004548
0.220809 0.199448 0.067849 0.511174 0.089305 -0.854825
0.098294 0.654197 0.067869 -0.602709 0.380334 -0.701489
0.230116 0.452110 0.062211 0.535594 0.091612 -0.839491
0.163131 0.306181 0.082063 -0.885930 -0.272664 -0.375210
0.153327 0.581938 0.025000 -0.000711 0.559624 -0.828747
0.270289 0.822774 0.104204 0.168022 0.985448 -0.025701
0.060192 0.800223 0.083769 -0.136864 -0.988966 0.056692
0.118834 0.222559 0.067849 -0.021087 0.118421 -0.992740
0.138203 0.975000 0.053967 -0.494115 0.510927 -0.703424
0.186811 0.971283 0.129866 0.770952 0.496191 0.399283
0.165940 0.534617 0.025000 0.169187 -0.070784 -0.983039
0.236424 0.341943 0.085247 0.946317 -0.038703 -0.320915
0.094889 0.566245 0.126484 -0.452069 0.063021 0.889754
0.045107 0.785337 0.115772 0.005961 0.118735 0.992908
0.125560 0.457172 0.118591 0.165249 0.018424 0.986080
0.119281 0.811499 0.109504 -0.121402 0.747341 0.653256
0.182725 0.416133 0.118591 -0.333131 -0.047497 0.941684
0.126484 0.873262 0.098731 -0.916018 -0.399303 0.038305
0.051480 0.484831 0.096039 -0.132320 -0.107375 0.985374
0.295623 0.683418 0.086389 0.968476 -0.182084 -0.170001
0.222329 0.654436 0.101278 0.690880 0.712538 -0.122372
0.192124 0.919455 0.129866 0.717955 -0.036761 0.695118
0.084199 0.507678 0.082594 -0.675777 -0.725464 0.130486
0.054661 0.664911 0.101891 -0.205274 -0.624238 0.753784
0.166711 0.607597 0.124228 -0.207299 -0.618559 0.757899
0.168925 0.930264 0.050935 0.304025 0.273926 -0.912433
0.082632 0.811499 0.069124 -0.487814 0.621547 -0.612957
0.108676 0.429174 0.118591 -0.213565 -0.040656 0.976082
0.131219 0.375557 0.062211 0.227644 0.011298 -0.973679
0.149036 0.154173 0.097214 0.989478 0.057713 0.132671
0.160312 0.805247 0.093311 -0.056184 -0.992922 0.104639
0.182991 0.384427 0.118591 -0.410070 -0.079218 0.908607
0.233225 0.552151 0.071026 0.691751 0.215197 -0.689326
0.103033 0.518504 0.118591 -0.108503 0.082481 0.990668
0.180996 0.227697 0.067849 -0.420795 0.090715 -0.902609
0.052241 0.737796 0.065030 0.106425 0.091753 -0.990078
0.086026 0.498790 0.062211 -0.553700 0.068896 -0.829861
0.225148 0.031549 0.220319 0.468689 -0.827178 0.310011
0.068412 0.601325 0.078433 0.642683 0.069112 -0.763009
0.149036 0.147199 0.075459 0.751285 0.050162 -0.658068
0.143910 0.602893 0.029940 -0.078274 0.733443 -0.675229
0.084199 0.516783 0.092725 -0.801772 -0.550027 0.233735
0.138416 0.079840 0.067849 0.444059 -0.044203 -0.894907
0.177237 0.127861 0.067849 -0.541394 -0.134692 -0.829910
0.062271 0.673335 0.065030 0.433337 -0.199710 -0.878826
0.192033 0.880771 0.129866 0.426864 -0.435712 0.792428
0.113436 0.552151 0.091732 0.219855 0.835740 -0.503192
0.185886 0.058218 0.112953 -0.655463 -0.148712 0.740441
0.120254 0.310245 0.062211 -0.016839 -0.190292 -0.981583
0.244886 0.783592 0.115772 -0.528148 0.084768 0.844911
0.028170 0.781740 0.115772 -0.461919 0.071654 0.884023
0.084199 0.506181 0.062400 -0.575467 0.075347 -0.814347
0.084199 0.580519 0.047210 -0.634497 0.545130 -0.547948
0.190935 0.676187 0.081053 0.185647 -0.950631 -0.248667
0.197631 0.482387 0.118591 0.098568 0.052370 0.993751
0.224831 0.461318 0.118591 0.581331 0.075114 0.810192
0.239243 0.757254 0.119053 0.728398 0.408900 0.549762
0.194950 0.822774 0.074564 0.052702 0.938858 -0.340247
0.222329 0.663106 0.082198 0.555056 0.705838 -0.440120
0.157493 0.402184 0.079350 0.847407 0.075590 -0.525536
0.129803 0.811499 0.066111 -0.119731 0.659300 -0.742285
0.158049 0.811499 0.078535 0.112448 0.814947 -0.568522
0.081380 0.803401 0.110176 -0.467151 0.425349 0.775144
0.221651 0.822774 0.078185 0.090098 0.947696 -0.306193
0.109544 0.822774 0.083696 -0.084842 0.991933 -0.094185
0.025603 0.803133 0.115772 -0.373423 -0.745373 0.552244
0.189480 0.368735 0.062211 -0.200315 -0.098172 -0.974801
0.097500 0.717808 0.129866 -0.509670 -0.237946 0.826812
0.193041 0.025000 0.114975 -0.004298 -0.994605 -0.103644
0.201869 0.602893 0.026567 0.250230 0.693389 -0.675719
0.135290 0.802381 0.129866 0.025038 0.378654 0.925200
0.082637 0.783096 0.129866 -0.340399 0.121807 0.932358
0.163131 0.487012 0.115327 -0.542162 0.047744 0.838916
0.129566 0.401028 0.118591 0.086135 -0.076077 0.993375
0.194825 0.625199 0.056573 0.329498 0.016624 -0.944010
0.222329 0.621257 0.084465 0.804030 -0.105045 -0.585236
0.205609 0.602893 0.027211 0.271759 0.692823 -0.667940
0.098294 0.670387 0.098918 -0.548548 0.688639 0.474206
0.180410 0.602893 0.067706 0.231010 -0.747923 -0.622290
0.140412 0.828678 0.065030 -0.513195 -0.435649 -0.739487
0.174704 0.302275 0.118591 -0.726559 -0.142366 0.672194
0.105563 0.303786 0.118591 -0.588373 -0.163470 0.791894
0.239243 0.773198 0.079882 0.673648 0.524996 -0.520171
0.084333 0.676187 0.063550 -0.434535 -0.793345 -0.426360
0.149314 0.863541 0.129866 -0.599180 -0.466196 0.650880
0.157493 0.314407 0.072206 0.744308 -0.043407 -0.666425
0.279284 0.587111 0.076869 0.358303 0.037362 -0.932858
0.061673 0.551791 0.103932 0.149651 -0.161815 0.975408
0.117666 0.398922 0.118591 -0.126761 -0.079573 0.988736
0.236424 0.443182 0.108336 0.907582 0.107553 0.405865
0.117972 0.095399 0.112953 -0.290766 -0.131655 0.947693
0.123629 0.646878 0.124228 -0.298148 -0.021892 0.954269
0.144735 0.822774 0.088266 -0.014404 0.999256 -0.035765
0.217951 0.044733 0.101006 0.264450 -0.362544 0.893660
0.185326 0.501409 0.073393 0.117877 -0.990157 0.075466
0.140103 0.778653 0.129866 -0.036336 0.146157 0.988594
0.152179 0.501409 0.056300 -0.053244 -0.987225 -0.150175
0.130363 0.602893 0.071850 -0.142096 0.970721 -0.193674
0.173199 0.966947 0.050935 0.347077 0.499955 -0.793463
0.227967 0.234136 0.106942 0.930858 0.168135 0.324398
0.224048 0.811499 0.077276 0.499133 0.710143 -0.496551
0.174407 0.031794 0.178338 -0.898239 -0.433992 0.069417
0.085939 0.404133 0.062211 -0.589883 -0.109369 -0.800048
0.106210 0.509325 0.126484 -0.595942 -0.511081 0.619394
0.183523 0.025000 0.138939 -0.351636 -0.936133 0.002699
0.236424 0.457618 0.112925 0.849775 0.114292 0.514606
0.081380 0.693547 0.104710 -0.810447 -0.507384 0.292808
0.295623 0.701130 0.081375 0.907690 -0.021218 -0.419105
0.109993 0.025000 0.194939 -0.497065 -0.851520 0.166852
0.171588 0.118394 0.080146 -0.844919 -0.140466 -0.516122
0.098294 0.611959 0.064693 -0.408090 -0.809065 -0.422938
0.178474 0.270406 0.067849 -0.457948 0.143941 -0.877249
0.236424 0.466984 0.088352 0.940506 0.165209 -0.296908
0.194139 0.967994 0.103812 0.873995 0.485383 -0.023146
0.126484 0.911271 0.129360 -0.777692 -0.046917 0.626892
0.160312 0.805142 0.073469 0.024140 -0.879787 -0.474756
0.043851 0.811499 0.104466 0.053506 0.561220 0.825935
0.174658 0.862240 0.074081 0.469702 -0.821853 -0.322394
0.286435 0.664601 0.103932 0.850196 0.233202 0.471999
0.208418 0.642576 0.124228 0.398780 0.137918 0.906616
0.163131 0.443595 0.096281 -0.994173 0.044109 0.098364
0.221393 0.069159 0.067849 0.517695 -0.044884 -0.854387
0.221615 0.778801 0.050935 0.346811 0.351044 -0.869765
0.084199 0.544181 0.044602 -0.752673 -0.288456 -0.591841
0.218245 0.501409 0.039557 0.497987 -0.520918 -0.693291
0.194139 0.911099 0.083531 0.938369 0.134907 -0.318218
0.092656 0.208394 0.074635 -0.719714 0.036828 -0.693293
0.173057 0.572999 0.126484 0.118627 0.278113 0.953195
0.084199 0.511688 0.117589 -0.760462 -0.449245 0.468910
0.270926 0.761604 0.065030 0.058635 0.169359 -0.983809
0.126484 0.959487 0.069170 -0.815042 0.384371 -0.433550
0.232676 0.739600 0.129866 0.441576 0.050331 0.895811
0.092656 0.064852 0.072256 -0.713341 -0.266000 -0.648373
0.119155 0.602893 0.107836 -0.500284 -0.757436 0.419531
0.038883 0.745540 0.115772 -0.340493 -0.049441 0.938946
0.081380 0.679486 0.099721 -0.719884 -0.662742 0.206255
0.278292 0.529599 0.093714 0.138978 -0.581258 0.801763
0.288294 0.574722 0.085206 0.847055 0.042930 -0.529768
0.105955 0.766206 0.050935 -0.283983 0.177268 -0.942300
0.155153 0.862240 0.089799 -0.314169 -0.929503 0.193189
0.167970 0.558028 0.025000 0.138999 0.318553 -0.937658
0.220724 0.025000 0.123499 0.716825 -0.673487 -0.180495
0.143117 0.217457 0.112953 0.697374 0.101637 0.709464
0.202418 0.283973 0.062211 0.043390 -0.235499 -0.970906
0.266151 0.800223 0.091800 0.192594 -0.974745 -0.113046
0.096309 0.064466 0.109124 -0.555379 0.820255 -0.136880
0.175913 0.802855 0.065030 0.084687 -0.818662 -0.567997
0.098294 0.616641 0.060151 -0.394970 -0.739666 -0.544879
0.171588 0.099973 0.068578 -0.648828 -0.201461 -0.733782
0.189238 0.212637 0.067849 -0.235895 0.099792 -0.966641
0.239243 0.787110 0.103135 0.729228 0.684023 -0.018409
0.171588 0.071096 0.071345 -0.697948 -0.254446 -0.669422
0.288709 0.484276 0.096039 0.181824 -0.067300 0.981025
0.181099 0.670971 0.124228 0.272024 0.704505 0.655496
0.058648 0.650119 0.076869 0.333782 0.163591 -0.928347
0.111173 0.200980 0.112953 -0.151635 -0.011453 0.988370
0.270004 0.499004 0.096039 -0.074888 -0.066670 0.994961
0.131764 0.676187 0.103752 -0.126985 0.907306 0.400837
0.095475 0.059767 0.090772 -0.636422 0.729993 -0.249153
0.214473 0.602893 0.106972 0.456253 0.883455 0.106495
0.216957 0.243769 0.112953 0.673005 0.146580 0.724968
0.239243 0.701592 0.101559 0.844207 -0.396390 0.360819
0.064806 0.520756 0.084763 0.226387 0.084452 -0.970369
0.254120 0.532481 0.076869 -0.575986 -0.310814 -0.756065
0.084199 0.574405 0.039693 -0.627889 0.408630 -0.662402
0.120640 0.735280 0.129866 -0.316577 -0.163502 0.934369
0.190763 0.676187 0.100110 0.330227 0.941396 -0.068726
0.288294 0.561999 0.078622 0.646609 -0.002083 -0.762818
0.290085 0.753740 0.115772 0.652931 0.046267 0.756003
0.185682 0.852315 0.096680 0.803967 0.585437 -0.104404
0.035303 0.468709 0.095698 -0.516055 -0.165150 0.840483
0.149767 0.523963 0.062211 0.515943 0.160534 -0.841446
0.252211 0.630566 0.087170 -0.906655 0.110284 -0.407203
0.183389 0.615522 0.056573 0.274031 -0.233920 -0.932839
0.141993 0.836187 0.115772 -0.585057 -0.080536 0.806984
0.131208 0.602893 0.059321 -0.100933 -0.834948 -0.540993
0.236424 0.347542 0.064435 0.635348 -0.003110 -0.772220
0.103734 0.779751 0.129866 -0.236102 0.090950 0.967463
0.118149 0.064466 0.142160 -0.041040 0.991117 -0.126506
0.084199 0.321667 0.070654 -0.738770 -0.260408 -0.621615
0.289985 0.537322 0.091720 0.904168 0.392466 0.168674
0.084199 0.383642 0.105313 -0.945160 -0.041483 0.323961
0.093672 0.369396 0.062211 -0.497987 -0.156121 -0.853016
0.037674 0.490362 0.096039 -0.345557 -0.095013 0.933576
0.225512 0.767115 0.050935 0.372903 0.291448 -0.880910
0.218377 0.785388 0.129866 0.502681 0.503723 0.702548
0.133962 0.933581 0.050935 -0.628694 0.094067 -0.771943
0.279216 0.716004 0.115772 0.118980 -0.178762 0.976672
0.209294 0.059764 0.090401 0.367018 0.869424 -0.330756
0.160393 0.663032 0.056573 0.033505 0.553034 -0.832485
0.133534 0.552151 0.098411 0.887506 0.457287 -0.056764
0.218998 0.501409 0.108614 0.160882 -0.810227 0.563603
0.211700 0.736482 0.050935 0.323757 0.132143 -0.936867
0.089726 0.800223 0.084367 -0.089075 -0.995288 0.038298
0.084199 0.510663 0.046268 -0.491351 -0.823271 -0.284252
0.032329 0.653059 0.103665 -0.386246 0.072189 0.919567
0.220963 0.501409 0.038928 0.511389 -0.494973 -0.702484
0.094774 0.259855 0.067849 -0.543245 0.112742 -0.831970
0.058302 0.738596 0.065030 0.310403 0.094002 -0.945946
0.199803 0.321576 0.062211 0.000378 -0.160948 -0.986963
0.095475 0.032270 0.153099 -0.835011 -0.550221 -0.003572
0.098294 0.652792 0.101549 -0.796301 0.338679 0.501200
0.201188 0.328563 0.118591 -0.218034 -0.161227 0.962532
0.236424 0.395924 0.109933 0.788730 -0.000120 0.614740
0.084199 0.508873 0.100583 -0.737460 -0.596716 0.316358
0.084199 0.341472 0.104005 -0.976967 -0.092292 0.192398
0.025000 0.814561 0.066344 -0.499611 0.563119 -0.658244
0.070189 0.689583 0.065030 0.611307 -0.046975 -0.789999
0.254976 0.757202 0.115772 -0.392427 -0.006983 0.919757
0.234454 0.602893 0.096755 0.546257 0.837615 0.002061
0.235514 0.792425 0.050935 0.396787 0.408067 -0.822217
0.217201 0.323632 0.062211 0.345285 -0.069114 -0.935950
0.088910 0.501409 0.061825 -0.487568 -0.870336 -0.069234
0.111266 0.675104 0.124228 -0.191368 0.418842 0.887665
0.163131 0.320040 0.064435 -0.652517 -0.265870 -0.709602
0.030638 0.528122 0.085447 -0.319618 0.028552 -0.947116
0.182128 0.281528 0.092971 -0.878529 -0.463006 0.117528
0.049094 0.546058 0.096039 0.210759 0.167495 0.963082
0.108944 0.025000 0.173705 -0.416932 -0.902879 0.104774
0.229824 0.818712 0.065030 0.143397 0.778921 -0.610508
0.227967 0.188622 0.068394 0.629620 0.075737 -0.773203
0.155010 0.498401 0.118591 0.790631 0.156344 0.591995
0.144590 0.811499 0.096810 -0.586519 -0.781798 0.211631
0.252211 0.585331 0.095585 -0.981869 -0.026799 0.187659
0.236424 0.407544 0.107543 0.866851 0.035581 0.497296
0.146349 0.472476 0.062211 0.472501 0.113730 -0.873962
0.132657 0.676187 0.106378 -0.109822 0.871434 0.478060
0.131534 0.501409 0.068549 -0.251034 -0.965667 0.066854
0.190758 0.532148 0.062211 -0.139923 0.176466 -0.974311
0.102809 0.053528 0.067849 -0.476336 -0.278013 -0.834154
0.181438 0.602893 0.057802 0.204573 0.874105 -0.440557
0.230957 0.514903 0.118591 0.787841 0.182399 0.588249
0.171588 0.245951 0.103473 -0.680955 0.094301 0.726228
