0.535096 0.377183 0.093104 -0.953552 -0.292494 -0.072015
0.478804 0.599734 0.047616 -0.115038 -0.176097 -0.977628
0.468886 0.551743 0.043816 -0.167945 0.191957 -0.966927
0.331443 0.219179 0.075789 -0.960197 0.177954 -0.215299
0.180493 0.786640 0.065325 -0.153687 -0.534202 -0.831269
0.449499 0.783524 0.045877 -0.179564 0.334213 -0.925234
0.394502 0.192257 0.068862 0.824992 -0.249020 -0.507323
0.273227 0.075024 0.153915 -0.747621 0.640108 0.176988
0.419530 0.409067 0.150429 0.006302 -0.069444 0.997566
0.546663 0.550859 0.092417 0.500072 -0.850930 -0.160769
0.496447 0.858484 0.186119 0.031202 -0.295081 0.954963
0.366685 0.284178 0.066691 -0.613605 -0.496837 -0.613712
0.514542 0.582499 0.048526 0.104171 -0.204039 -0.973405
0.800029 0.785884 0.116278 -0.068112 -0.546995 0.834360
0.555749 0.719705 0.044070 0.324997 0.000322 -0.945715
0.642321 0.117789 0.047251 -0.435016 -0.333844 -0.836247
0.629431 0.327577 0.109807 0.727713 0.536049 0.427884
0.400867 0.367782 0.048147 -0.067321 -0.027277 -0.997358
0.392373 0.757782 0.087616 0.138692 -0.867399 -0.477895
0.558839 0.772151 0.082393 -0.594228 -0.678159 -0.432428
0.341027 0.269060 0.091933 -0.968580 0.243604 0.050090
0.820916 0.811978 0.115849 0.042339 0.801987 0.595840
0.605885 0.273527 0.124259 0.047388 -0.785519 0.617020
0.606822 0.795858 0.142088 0.139542 0.174736 0.974677
0.628602 0.310039 0.127854 0.588830 0.149491 0.794312
0.135816 0.782291 0.122633 -0.117056 -0.779625 0.615209
0.623702 0.369229 0.102342 0.977157 0.204253 0.058690
0.435537 0.314795 0.088793 0.965128 0.261206 -0.017306
0.316393 0.034025 0.124619 -0.222155 -0.968116 0.115751
0.633670 0.288542 0.083333 0.937844 -0.317890 -0.139265
0.355657 0.041086 0.091357 0.813005 -0.581893 0.020574
0.545056 0.940699 0.110094 0.908709 0.370240 -0.192796
0.772774 0.790526 0.116027 -0.141505 -0.405326 0.903154
0.422062 0.273982 0.074397 0.888190 -0.213615 -0.406801
0.430955 0.536837 0.142789 -0.775350 0.055839 0.629059
0.540742 0.378961 0.124322 -0.812646 -0.294303 0.502983
0.489016 0.617258 0.173893 -0.002763 -0.245556 0.969378
0.218733 0.819861 0.072565 -0.049328 0.949527 -0.309782
0.591843 0.728750 0.101087 0.997049 -0.074290 -0.019333
0.401408 0.310843 0.052140 0.191422 -0.167973 -0.967028
0.556043 0.579764 0.068714 0.719146 0.396882 -0.570363
0.265927 0.775639 0.102755 -0.285224 -0.764441 0.578167
0.356831 0.298109 0.104533 -0.963641 -0.172953 0.203673
0.667063 0.190109 0.067742 0.895690 0.174331 -0.409082
0.418885 0.643293 0.069379 -0.824803 -0.188766 -0.532980
0.373224 0.159501 0.115756 0.579047 -0.433899 0.690244
0.397760 0.817412 0.089370 0.231089 0.959979 -0.158235
0.572627 0.725840 0.175402 0.699154 -0.038565 0.713930
0.448405 0.361615 0.075043 0.836661 -0.277443 -0.472254
0.304967 0.036859 0.114899 -0.372238 -0.926982 0.046296
0.426455 0.280233 0.081117 0.943920 -0.240811 -0.225886
0.528186 0.827284 0.100398 0.939794 -0.240344 -0.242943
0.638159 0.314877 0.091159 0.948499 0.310202 0.064224
0.515973 0.608161 0.127434 0.221820 0.953646 0.203362
0.502903 0.921767 0.067749 0.231111 0.039014 -0.972145
0.345703 0.818794 0.099649 0.023498 0.988465 0.149613
0.568012 0.707115 0.051720 0.519740 -0.062875 -0.852008
0.370892 0.353968 0.078257 -0.953179 0.189412 -0.235739
0.459583 0.782451 0.045391 -0.137383 0.339458 -0.930534
0.469779 0.829475 0.087390 -0.695707 -0.334260 -0.635816
0.462887 0.560282 0.046314 -0.231930 0.224226 -0.946536
0.393134 0.240548 0.054943 0.518459 -0.120262 -0.846603
0.700375 0.040066 0.191244 0.384690 -0.825754 0.412486
0.582622 0.661186 0.090074 0.982334 -0.159642 -0.097643
0.418556 0.807119 0.129577 0.246216 0.739261 0.626794
0.392514 0.793126 0.106614 -0.997096 0.012314 0.075153
0.434362 0.632106 0.056621 -0.523178 -0.172239 -0.834637
0.446101 0.552167 0.131348 -0.408573 -0.872258 0.268763
0.480827 0.798495 0.158163 -0.049886 0.657999 0.751365
0.388040 0.769812 0.074635 0.151360 -0.538539 -0.828894
0.519401 0.518498 0.077007 -0.686842 0.652992 -0.319141
0.276609 0.043857 0.173697 -0.387765 -0.851096 0.353940
0.904330 0.804339 0.095636 0.130867 0.989443 -0.062261
0.808239 0.774508 0.076200 0.090106 -0.946697 -0.309267
0.680139 0.102340 0.114431 0.725555 -0.014278 0.688016
0.402464 0.789336 0.146728 0.009280 -0.056721 0.998347
0.504445 0.732758 0.189030 0.000008 0.139453 0.990229
0.474985 0.440394 0.068853 -0.105307 -0.979208 -0.173384
0.356799 0.068699 0.059251 0.941224 0.077177 -0.328848
0.423169 0.554212 0.099825 -0.954881 0.294535 0.038084
0.617483 0.161350 0.053890 -0.615434 -0.311241 -0.724134
0.320415 0.079915 0.035924 -0.038315 0.407751 -0.912289
0.513243 0.478864 0.159332 0.147764 -0.374203 0.915499
0.501244 0.551768 0.067200 0.009541 -0.742634 -0.669630
0.513040 0.735541 0.189077 0.024884 0.153806 0.987788
0.470215 0.424950 0.093871 0.966004 -0.249902 -0.066221
0.359797 0.281682 0.055905 -0.578499 0.196854 -0.791573
0.263985 0.050036 0.133950 -0.784522 -0.614295 0.084657
0.455098 0.807679 0.065042 -0.214000 0.650064 -0.729124
0.703300 0.779126 0.060844 0.063965 -0.668019 -0.741390
0.410888 0.475840 0.146315 -0.612818 0.162427 0.773351
0.356367 0.776588 0.064429 0.075296 -0.456868 -0.886342
0.321028 0.170667 0.063821 -0.918532 0.106389 -0.380762
0.600120 0.307973 0.048875 -0.116031 -0.152413 -0.981482
0.430550 0.502303 0.049017 -0.522855 0.028665 -0.851939
0.653499 0.079791 0.128771 -0.685751 0.535223 0.493236
0.659550 0.071465 0.143167 -0.607244 0.581212 0.541709
0.359870 0.274042 0.121441 -0.622200 0.083358 0.778407
0.629355 0.278707 0.090981 0.890120 -0.454769 -0.029506
0.442152 0.823139 0.120516 -0.306148 0.929138 0.207308
0.573699 0.604112 0.128523 0.949922 -0.249571 0.188050
0.462872 0.566769 0.047400 -0.241804 0.246928 -0.938380
0.793466 0.806999 0.116393 -0.052479 0.542947 0.838126
0.656019 0.235022 0.073310 0.925523 0.246175 -0.287759
0.280768 0.820547 0.087342 -0.089214 0.984655 0.149984
0.464545 0.857263 0.146692 -0.866940 -0.492544 0.076254
0.539146 0.610113 0.050239 0.350224 -0.188797 -0.917441
0.897958 0.785145 0.106673 0.023000 -0.998679 -0.045944
0.569238 0.462154 0.050740 0.162169 0.104849 -0.981177
0.371604 0.793521 0.143084 -0.147619 -0.008504 0.989008
0.421273 0.623247 0.149954 -0.903003 -0.203951 0.378140
0.461791 0.472716 0.150844 0.412820 -0.076411 0.907602
0.403427 0.232473 0.115860 0.692002 -0.369073 0.620417
0.579170 0.647247 0.112169 0.983178 -0.174999 0.052316
0.284819 0.771198 0.072468 -0.171830 -0.937139 -0.303719
0.354860 0.089140 0.063747 0.631615 -0.438754 -0.639185
0.376805 0.265496 0.089978 -0.339842 -0.936259 -0.089026
0.590507 0.490998 0.091180 0.948364 0.311788 -0.058259
0.413855 0.520333 0.077622 -0.735474 0.647983 -0.197981
0.340257 0.764417 0.112447 -0.184894 -0.916531 0.354662
0.671953 0.805249 0.055695 -0.059037 0.280714 -0.957974
0.408238 0.418584 0.148534 -0.279317 0.006469 0.960177
0.326749 0.084135 0.142478 0.453611 0.715220 0.531693
0.511507 0.639342 0.178898 0.088454 -0.191379 0.977522
0.664083 0.116318 0.119552 0.480862 -0.267058 0.835136
0.649478 0.818532 0.105073 0.044977 0.932298 0.358885
0.885038 0.783146 0.100275 -0.077151 -0.991984 -0.100079
0.448017 0.904853 0.120310 -0.983316 -0.126397 0.130819
0.509247 0.492207 0.134906 -0.888208 -0.145532 0.435784
0.462111 0.821071 0.123471 -0.879397 -0.377339 0.290303
0.596562 0.335038 0.143177 0.221592 -0.106770 0.969277
0.553624 0.771160 0.125841 -0.764921 -0.639685 0.075486
0.521276 0.434858 0.124467 -0.906864 -0.243519 0.343943
0.431804 0.370687 0.138345 0.498235 -0.244278 0.831920
0.730616 0.796119 0.112293 -0.428806 -0.234400 0.872457
0.494107 0.539378 0.120098 0.088500 -0.988191 0.125084
0.368105 0.761672 0.078790 0.026623 -0.815986 -0.577458
0.415456 0.613037 0.098642 -0.967399 -0.241158 -0.077346
0.655424 0.123509 0.122336 0.322725 -0.386179 0.864126
0.579024 0.713129 0.157476 0.888070 -0.091082 0.450596
0.615936 0.384876 0.072957 0.917374 0.194553 -0.347238
0.433282 0.811271 0.072208 -0.337079 0.670252 -0.661166
0.327377 0.191292 0.107818 -0.774307 0.052214 0.630652
0.596694 0.221057 0.118692 -0.628440 -0.253169 0.735505
0.292271 0.779970 0.113907 -0.280091 -0.594349 0.753856
0.731600 0.783596 0.058721 -0.235025 -0.526313 -0.817165
0.523496 0.423514 0.119867 -0.927452 -0.255832 0.272734
0.523045 0.600016 0.067358 0.126075 0.831929 -0.540369
0.565238 0.294027 0.111778 -0.875641 -0.231244 0.424003
0.690674 0.821250 0.070358 -0.000535 0.948189 -0.317707
0.123184 0.778661 0.078653 -0.406365 -0.675413 -0.615374
0.655901 0.107315 0.083340 -0.269735 0.962041 0.041478
0.344975 0.091588 0.063006 0.395432 -0.516117 -0.759774
0.578607 0.347747 0.052274 -0.274136 -0.143883 -0.950866
0.428637 0.311677 0.063385 0.617682 -0.272162 -0.737833
0.266149 0.818217 0.069447 0.468633 0.807022 -0.359303
0.115655 0.783335 0.108824 0.143476 -0.988690 0.043658
0.480106 0.958592 0.087183 -0.179822 0.747136 -0.639884
0.434570 0.696378 0.048658 -0.448330 -0.062252 -0.891698
0.423092 0.661230 0.166138 -0.793788 -0.154215 0.588319
0.476902 0.572288 0.052380 -0.165733 -0.377061 -0.911239
0.469578 0.436400 0.127247 0.824074 -0.248316 0.509157
0.465254 0.522615 0.139128 0.517652 0.708142 0.480178
0.532088 0.869379 0.120502 0.808641 -0.563196 -0.170027
0.394438 0.367707 0.048175 -0.187178 0.004901 -0.982314
0.509858 0.543831 0.131706 0.026451 -0.823043 0.567363
0.613947 0.404008 0.104226 0.969483 0.234279 0.072221
0.413891 0.662179 0.141917 -0.973360 -0.142065 0.179967
0.674238 0.179340 0.093262 0.970782 0.195287 0.139447
0.490833 0.847283 0.124562 -0.048837 -0.939999 -0.337663
0.433672 0.810350 0.143059 -0.269453 0.712793 0.647550
0.700415 0.087883 0.090432 0.736362 0.660624 -0.146108
0.671222 0.088623 0.040832 0.229278 0.574217 -0.785943
0.710002 0.047975 0.194080 0.674543 -0.463812 0.574343
0.493303 0.474761 0.155922 0.007820 -0.416793 0.908968
0.506278 0.970560 0.103726 0.209355 0.901808 -0.378039
0.553163 0.541626 0.053359 0.575659 0.179682 -0.797703
0.561433 0.630750 0.167186 0.593683 -0.243105 0.767099
0.774263 0.773528 0.083034 -0.010183 -0.994207 -0.107000
0.686378 0.102298 0.104128 0.444316 0.882632 0.153441
0.537025 0.439206 0.081977 0.272115 -0.947379 -0.168600
0.355586 0.803486 0.057798 0.171213 0.434721 -0.884140
0.809758 0.799210 0.124366 -0.039465 0.197810 0.979446
0.612407 0.410981 0.096913 0.970302 0.241861 0.004117
0.392558 0.448899 0.072604 -0.914487 0.282750 -0.289425
0.274976 0.052634 0.188629 -0.347840 -0.574835 0.740657
0.263190 0.776036 0.067620 0.334906 -0.897372 -0.287333
0.738107 0.772040 0.097554 -0.128200 -0.948055 0.291131
0.572565 0.593082 0.130489 0.939251 -0.271061 0.210557
0.697483 0.039382 0.104137 0.377588 -0.925902 -0.011527
0.524871 0.841580 0.090916 0.108578 0.966509 0.232532
0.489698 0.539383 0.114690 0.029828 -0.997984 0.056028
0.442342 0.657326 0.177307 -0.406356 -0.188364 0.894088
0.709145 0.785368 0.113579 0.297504 -0.360021 0.884238
0.660096 0.094744 0.089262 0.202895 -0.940100 0.273946
0.099489 0.784868 0.136791 0.093224 -0.883422 0.459211
0.237349 0.802110 0.114620 0.185142 0.345754 0.919878
0.753447 0.803715 0.054739 0.681150 0.284337 -0.674675
0.664490 0.097848 0.043615 0.124378 0.682633 -0.720099
0.512718 0.464416 0.147323 0.124502 -0.596012 0.793265
0.277347 0.798833 0.120809 -0.305382 0.007502 0.952200
0.629849 0.329270 0.105323 0.745614 0.581178 0.326025
0.430896 0.533141 0.121405 -0.434710 0.858833 0.270986
0.400542 0.741204 0.085920 -0.991672 -0.068775 -0.108891
0.617985 0.268437 0.079935 0.596605 -0.761633 -0.252936
0.494104 0.556645 0.060792 -0.028775 -0.656528 -0.753753
0.592025 0.306366 0.052255 -0.256546 -0.192518 -0.947165
0.316119 0.034092 0.126116 -0.217625 -0.968024 0.124772
0.566279 0.281491 0.102402 -0.939315 -0.255594 0.228819
0.508273 0.882196 0.128589 0.379298 0.815221 0.437662
0.481620 0.476478 0.130004 0.833783 -0.202240 0.513717
0.432304 0.592914 0.158299 -0.547453 -0.311078 0.776869
0.591177 0.717899 0.094105 0.993717 -0.092081 -0.063613
0.566536 0.524287 0.058064 0.712916 0.112055 -0.692239
0.415331 0.757756 0.054794 -0.520894 0.102362 -0.847462
0.330319 0.095222 0.054586 -0.186364 -0.347763 -0.918874
0.651035 0.056356 0.037259 -0.570187 -0.028832 -0.821009
0.580131 0.248737 0.108901 -0.844146 -0.268371 0.464106
0.269856 0.793465 0.057865 0.690686 -0.336252 -0.640225
0.460803 0.909652 0.084053 -0.645578 -0.143303 -0.750129
0.546713 0.923538 0.138012 0.933336 -0.161505 0.320623
0.509162 0.603492 0.072735 0.021124 0.877407 -0.479281
0.351474 0.086969 0.101857 0.840105 0.345617 0.418058
0.412493 0.760581 0.096030 0.280543 -0.958815 -0.044367
0.526761 0.842084 0.085336 0.126709 0.982314 0.137858
0.330790 0.182185 0.054219 -0.742434 0.085572 -0.664431
0.305789 0.098500 0.069396 -0.625814 0.689247 -0.365097
0.698949 0.039717 0.178216 0.334661 -0.876614 0.345760
0.441760 0.787769 0.084474 0.779567 0.094924 -0.619084
0.629212 0.325755 0.113847 0.706464 0.483452 0.516897
0.407805 0.700388 0.133875 -0.982958 -0.107624 0.149034
0.576192 0.325417 0.065854 -0.463944 0.583764 -0.666315
0.612647 0.133459 0.086562 -0.895108 -0.387018 0.221359
0.444729 0.711347 0.041653 -0.333795 -0.021148 -0.942408
0.852142 0.778101 0.117782 0.076350 -0.730941 0.678157
0.432534 0.306088 0.075808 0.818944 -0.344057 -0.459299
0.652503 0.056105 0.036635 -0.543963 -0.043639 -0.837974
0.567380 0.670228 0.057260 0.691531 -0.132245 -0.710138
0.530112 0.568833 0.048277 0.212164 0.258255 -0.942492
0.418949 0.816187 0.123566 -0.325022 0.892305 0.313292
0.230488 0.774194 0.072183 0.024015 -0.950171 -0.310801
0.342897 0.027490 0.062325 0.165892 -0.927794 -0.334182
0.548120 0.452816 0.051582 -0.257650 -0.010611 -0.966180
0.608568 0.762740 0.117322 0.123384 -0.858565 0.497637
0.645168 0.255681 0.058677 0.772290 0.210757 -0.599292
0.443444 0.804950 0.064529 -0.264932 0.613336 -0.744064
0.612635 0.407125 0.112480 0.960986 0.234082 0.147346
0.489232 0.973618 0.128622 -0.125872 0.984816 0.119552
0.440531 0.727787 0.184568 -0.360695 0.105330 0.926717
0.510490 0.893993 0.177681 0.604382 0.023349 0.796353
0.334398 0.075183 0.037668 0.382315 0.291955 -0.876697
0.118274 0.802826 0.074271 -0.778037 0.489133 -0.394218
0.610735 0.135693 0.082498 -0.914148 -0.388112 0.117061
0.657890 0.143247 0.044364 0.140386 -0.131648 -0.981306
0.498042 0.847075 0.079563 0.076667 0.076028 -0.994154
0.679871 0.766907 0.089549 0.151297 -0.988409 0.012560
0.375206 0.176236 0.052923 0.505613 -0.179256 -0.843933
0.572452 0.540704 0.098204 0.962043 0.271458 -0.028009
0.522789 0.958350 0.094561 0.511658 0.679321 -0.526051
0.430778 0.560846 0.112349 -0.746063 -0.661540 0.075857
0.335224 0.074410 0.137386 0.723456 0.463718 0.511446
0.549274 0.587283 0.056603 0.482007 -0.234916 -0.844088
0.415608 0.457143 0.068506 -0.573373 -0.715044 -0.399944
0.713040 0.804674 0.114058 0.260946 0.325308 0.908891
0.499844 0.855168 0.082848 0.111876 0.208388 -0.971627
0.402722 0.294918 0.137063 0.324217 -0.341176 0.882316
0.428656 0.303470 0.067152 0.683789 -0.303132 -0.663735
0.303141 0.819596 0.097460 -0.059857 0.961616 0.267790
0.611881 0.410915 0.106966 0.966066 0.239528 0.096664
0.420093 0.585524 0.126298 -0.956482 -0.259225 0.133957
0.526127 0.462655 0.142551 -0.702022 -0.175505 0.690191
0.442504 0.586154 0.064780 -0.626424 0.576312 -0.524840
0.533503 0.802082 0.060055 0.199944 0.538322 -0.818677
0.438897 0.607896 0.164697 -0.430500 -0.287756 0.855492
0.345261 0.267836 0.104157 -0.905205 0.189384 0.380444
0.566622 0.559269 0.124440 0.938473 0.276006 0.207579
0.384276 0.301388 0.136192 -0.236622 0.062932 0.969562
0.177949 0.796401 0.058332 -0.193283 -0.025017 -0.980824
0.465759 0.834103 0.128333 -0.886949 -0.233134 0.398710
0.599963 0.265659 0.079148 0.001092 -0.889138 -0.457638
0.527533 0.908731 0.163427 0.824004 -0.017965 0.566299
0.673160 0.100937 0.115963 0.016175 0.919261 0.393317
0.384314 0.373320 0.055029 -0.648483 0.141104 -0.748037
0.424763 0.267470 0.092191 0.948324 -0.310298 0.066312
0.621775 0.360118 0.071609 0.907399 0.165954 -0.386118
0.349424 0.101414 0.087336 0.581915 0.793051 0.180126
0.520528 0.788858 0.047922 0.128640 0.389403 -0.912040
0.704414 0.041079 0.154504 0.420125 -0.881749 0.214506
0.323454 0.045026 0.166497 0.703335 -0.405152 0.584100
0.543194 0.534396 0.099389 -0.183443 0.980697 -0.067693
0.577041 0.614197 0.093740 0.972414 -0.211062 -0.099315
0.432704 0.395853 0.053644 0.351793 -0.103451 -0.930344
0.398844 0.775916 0.140456 -0.955805 -0.052215 0.289328
0.569034 0.808528 0.072456 0.399615 0.625040 -0.670547
0.422755 0.332214 0.084445 0.776482 0.606536 -0.170850
0.757587 0.773992 0.071552 -0.022714 -0.916797 -0.398706
0.622192 0.376893 0.090941 0.976045 0.212594 -0.046266
0.697237 0.777814 0.110898 0.275982 -0.617746 0.736359
0.312768 0.129343 0.055103 -0.864406 0.040431 -0.501167
0.293550 0.046139 0.041126 -0.638240 -0.515320 -0.571922
0.284200 0.042006 0.104062 -0.585372 -0.809930 -0.036788
0.221512 0.801134 0.117380 0.150962 0.284327 0.946768
0.587201 0.327182 0.136210 -0.364663 0.599503 0.712472
0.861900 0.790448 0.067208 0.311662 -0.457575 -0.832762
0.515142 0.521211 0.121518 -0.688826 0.667056 0.283822
0.247421 0.809804 0.107666 0.165996 0.690476 0.704052
0.553354 0.375175 0.136571 -0.575774 -0.252715 0.777573
0.905614 0.785599 0.098463 0.076908 -0.985128 -0.153648
0.591160 0.766975 0.094157 0.998006 -0.015421 -0.061199
0.521528 0.539353 0.096675 0.218425 -0.973673 -0.065200
0.379459 0.346760 0.054516 -0.628649 0.099253 -0.771330
0.498152 0.843184 0.086780 -0.055913 0.997527 -0.042586
0.437718 0.781069 0.139052 0.684409 -0.188802 0.704229
0.735648 0.787007 0.055109 -0.043236 -0.388157 -0.920578
0.794862 0.776254 0.068932 0.080203 -0.856762 -0.509437
0.478785 0.455831 0.107953 0.960117 -0.230864 0.157724
0.041800 0.791194 0.092568 -0.509337 0.842157 -0.177054
0.451215 0.465517 0.154805 0.240323 -0.041082 0.969823
0.426856 0.272975 0.091728 0.953535 -0.296234 0.054931
0.506607 0.910447 0.181496 0.310704 0.104799 0.944712
0.449106 0.534392 0.122092 0.217100 0.958449 0.185049
0.475091 0.850943 0.122063 -0.380620 -0.855563 -0.350914
0.374285 0.217034 0.131393 -0.030380 -0.112376 0.993201
0.488312 0.439031 0.072180 -0.038232 -0.989931 -0.136292
0.115302 0.796045 0.074027 -0.985158 0.077025 -0.153395
0.402507 0.709099 0.096489 -0.992929 -0.112294 -0.038491
0.350297 0.177415 0.042505 -0.067855 -0.073723 -0.994968
0.312282 0.035027 0.169545 0.156417 -0.890934 0.426346
0.716447 0.075930 0.143409 0.563697 0.777866 0.277795
0.297787 0.038670 0.040036 -0.458527 -0.732864 -0.502656
0.587408 0.722416 0.135370 0.982840 -0.118527 0.141338
0.409074 0.817159 0.086442 0.270840 0.935964 -0.224983
0.515488 0.610124 0.093846 0.160948 0.971302 -0.175125
0.580208 0.391038 0.049057 -0.031947 -0.031106 -0.999005
0.546047 0.515337 0.152996 0.507784 -0.175242 0.843472
0.315594 0.034212 0.153729 -0.005021 -0.950507 0.310662
0.561323 0.794703 0.157859 0.292008 0.575520 0.763877
0.461563 0.609764 0.046844 -0.225421 -0.167951 -0.959676
0.528445 0.801525 0.153719 0.112463 0.695772 0.709403
0.511451 0.594110 0.047609 0.089340 -0.186371 -0.978409
0.408583 0.770093 0.144452 0.036045 -0.550291 0.834195
0.406454 0.693017 0.111419 -0.992066 -0.122157 0.029718
0.324701 0.063757 0.166029 0.563825 0.472108 0.677654
0.372842 0.157308 0.053507 0.542043 -0.207826 -0.814247
0.413801 0.645516 0.077390 -0.938460 -0.188453 -0.289445
0.651183 0.818877 0.099756 0.026675 0.969956 0.241812
0.447493 0.761598 0.043473 -0.233509 0.210683 -0.949256
0.302954 0.108011 0.100939 -0.766164 -0.023923 0.642200
0.648879 0.173122 0.044835 0.137357 -0.083416 -0.987003
0.719934 0.813907 0.076749 -0.676100 0.736358 0.025819
0.334495 0.029562 0.084976 0.101840 -0.991388 -0.082331
0.590863 0.207266 0.073952 -0.894830 -0.336117 -0.293776
0.668549 0.776164 0.117482 0.248454 -0.539886 0.804235
0.573853 0.461579 0.050513 0.239322 0.121847 -0.963264
0.662969 0.121530 0.043080 0.084516 -0.180459 -0.979945
0.579975 0.647787 0.103465 0.984539 -0.174869 -0.010225
0.576467 0.391037 0.149395 0.047201 -0.085325 0.995234
0.539272 0.547097 0.119960 0.502852 -0.858347 0.101878
0.526614 0.817663 0.113718 0.656380 -0.754113 0.021884
0.720773 0.779017 0.075429 -0.701171 -0.650032 -0.292945
0.376846 0.131914 0.072332 0.864755 -0.314095 -0.391846
0.456349 0.886361 0.096628 -0.726942 -0.383364 -0.569727
0.488294 0.613934 0.116569 -0.062547 0.991320 0.115636
0.402934 0.754057 0.118235 -0.995711 -0.047473 0.079405
0.419703 0.594431 0.084453 -0.917587 -0.282360 -0.279835
0.372823 0.818098 0.093758 0.137378 0.990072 -0.029737
0.574806 0.446491 0.050221 0.174941 0.087780 -0.980658
0.257074 0.772967 0.094939 -0.276970 -0.863928 0.420614
0.279903 0.079871 0.154868 -0.505380 0.807432 0.304375
0.690351 0.096297 0.110396 0.456011 0.864410 0.211775
0.138536 0.806446 0.111028 0.894080 0.324689 0.308540
0.460260 0.870182 0.143597 -0.926242 -0.300800 0.227147
0.552933 0.536294 0.119032 0.151294 0.986393 0.064334
0.593963 0.812709 0.113558 0.704999 0.679944 0.201626
0.585812 0.716498 0.142711 0.973224 -0.123727 0.193718
0.615410 0.398342 0.106261 0.969188 0.228697 0.091501
0.903737 0.805089 0.091260 0.108945 0.986122 -0.125280
0.638599 0.035166 0.060740 -0.828073 -0.522840 -0.202321
0.651494 0.095870 0.045298 -0.408907 -0.362146 -0.837643
0.512605 0.605798 0.079016 0.062954 0.915362 -0.397680
0.291607 0.075727 0.066311 -0.791019 0.468662 -0.393248
0.635988 0.099392 0.051468 -0.680864 -0.420007 -0.600015
0.486495 0.930153 0.068355 -0.211070 0.139354 -0.967486
0.279717 0.771729 0.073633 -0.185481 -0.947420 -0.260752
0.675710 0.142489 0.113081 0.764914 0.102842 0.635870
0.551187 0.784686 0.081283 -0.782442 -0.001651 -0.622721
0.392555 0.363180 0.141792 -0.329743 -0.047374 0.942881
0.695993 0.039007 0.117098 0.364209 -0.929884 0.051649
0.072980 0.785564 0.106525 -0.181360 -0.959091 -0.217378
0.551870 0.794997 0.100035 -0.847965 0.487957 -0.207012
0.355453 0.761535 0.097319 -0.119196 -0.991340 -0.055103
0.454554 0.593594 0.149689 -0.422708 0.694520 0.582203
0.612720 0.187905 0.120966 -0.446811 -0.259099 0.856287
0.524806 0.600170 0.147474 0.288971 0.844724 0.450485
0.317064 0.110196 0.081985 -0.242238 0.955382 -0.169014
0.561104 0.775839 0.075645 -0.532090 -0.404149 -0.744005
0.543236 0.782965 0.105756 -0.939838 -0.307328 -0.149177
0.277213 0.075556 0.128397 -0.768242 0.637730 0.055720
0.457221 0.532489 0.114246 0.318026 0.942864 0.099336
0.548329 0.558190 0.146866 0.460473 -0.721665 0.516879
0.465661 0.896796 0.164270 -0.812423 -0.020450 0.582710
0.157338 0.774801 0.080758 -0.162715 -0.887869 -0.430363
0.421647 0.284898 0.071426 0.673793 -0.471269 -0.569130
0.446283 0.919222 0.136254 -0.896870 -0.232517 0.376244
0.572994 0.248601 0.088784 -0.958016 -0.285862 -0.022104
0.292483 0.815870 0.062768 0.004869 0.801610 -0.597828
0.416311 0.495155 0.051499 -0.380066 0.208905 -0.901060
0.494013 0.609578 0.086799 -0.036873 0.960345 -0.276364
0.312053 0.133661 0.058652 -0.905551 0.055436 -0.420599
0.534596 0.632848 0.046277 0.293147 -0.149091 -0.944371
0.282618 0.042403 0.092797 -0.590394 -0.803138 -0.080028
0.715033 0.802268 0.116047 0.271104 0.212180 0.938873
0.526221 0.427021 0.127761 -0.860503 -0.246997 0.445563
0.414348 0.321843 0.060787 0.588861 0.453043 -0.669325
0.568304 0.552801 0.121988 0.945190 0.260485 0.196885
0.409739 0.514634 0.084086 -0.851122 0.505114 -0.143008
0.355244 0.111617 0.114418 0.521587 -0.508387 0.685193
0.536488 0.635898 0.046819 0.320628 -0.147597 -0.935635
0.656955 0.107576 0.083709 -0.248102 0.967578 0.047299
0.596800 0.343433 0.092833 -0.134800 0.988729 0.065150
0.577326 0.740153 0.054165 0.567019 0.026988 -0.823263
0.463124 0.708723 0.038836 -0.181195 -0.005607 -0.983431
0.667040 0.813443 0.063701 -0.070495 0.684445 -0.725649
0.671024 0.190042 0.094591 0.964382 0.204015 0.168359
0.455793 0.915291 0.090778 -0.747143 -0.093830 -0.658007
0.428715 0.315724 0.068755 0.797497 0.322760 -0.509730
0.130839 0.816865 0.094303 -0.200024 0.974272 0.103849
0.392638 0.444196 0.098955 -0.959587 0.266953 -0.089043
0.470231 0.730789 0.188970 -0.103344 0.127968 0.986379
0.321549 0.097373 0.093694 -0.621962 -0.538709 0.568292
0.476161 0.446858 0.091298 0.967856 -0.221128 -0.119822
0.531827 0.452518 0.128396 0.377762 -0.747908 0.545830
0.282017 0.076576 0.097492 -0.832601 0.529735 -0.161728
0.158590 0.812316 0.116901 -0.053760 0.719723 0.692176
0.426385 0.482585 0.047148 -0.517384 -0.048056 -0.854403
0.516114 0.507670 0.037221 0.133402 0.066425 -0.988834
0.128234 0.781581 0.108881 0.469223 -0.807419 0.357636
0.442548 0.384960 0.059204 0.548942 -0.167783 -0.818847
0.399147 0.742282 0.069583 -0.978365 -0.069557 -0.194845
0.659165 0.213417 0.062823 0.842147 0.180730 -0.508060
0.683848 0.106306 0.092327 0.425413 0.904955 0.009011
0.563008 0.299776 0.073841 -0.815962 -0.089601 -0.571120
0.590653 0.732167 0.067152 0.944719 -0.021648 -0.327165
0.598245 0.799006 0.108977 0.981251 0.171858 0.087243
0.427495 0.569004 0.118004 -0.930065 0.340558 0.137839
0.573969 0.803003 0.069168 0.433284 0.574306 -0.694577
0.368129 0.112545 0.063918 0.756581 -0.308039 -0.576798
0.110396 0.806705 0.112628 0.001587 0.991928 0.126795
0.449154 0.809474 0.067029 -0.240483 0.672262 -0.700166
0.629264 0.294739 0.125228 0.533048 0.089850 0.841301
0.251991 0.814574 0.058544 -0.174783 0.606117 -0.775933
0.475571 0.519906 0.083608 0.604497 0.720589 -0.339610
0.638253 0.777758 0.128287 0.222247 -0.444991 0.867519
0.691302 0.813356 0.110075 0.169411 0.734383 0.657253
0.356911 0.077448 0.064363 0.958893 0.175481 -0.223003
0.394540 0.347451 0.047515 -0.084315 -0.046765 -0.995341
0.250310 0.819791 0.089835 -0.260479 0.947218 0.186891
0.479167 0.550978 0.043701 -0.107711 0.188178 -0.976211
0.119466 0.790341 0.097187 -0.991326 -0.091462 0.094379
0.346667 0.217784 0.120224 -0.521051 0.014920 0.853395
0.805291 0.818840 0.080061 0.098536 0.968974 -0.226670
0.654214 0.028673 0.095992 -0.110679 -0.993087 0.039103
0.561732 0.299980 0.109125 -0.835361 -0.384022 0.393318
0.042378 0.783111 0.123553 -0.160144 -0.975181 0.152891
0.339823 0.257317 0.097803 -0.951498 0.205695 0.228782
0.566995 0.482291 0.136636 0.606110 -0.319378 0.728443
0.755244 0.808519 0.061817 0.749717 0.493183 -0.441242
0.420793 0.317108 0.130402 0.585152 -0.334547 0.738698
0.616313 0.329136 0.054340 0.512545 0.023160 -0.858348
0.407668 0.680877 0.075928 -0.955323 -0.143907 -0.258163
0.494985 0.704534 0.188170 -0.014596 -0.004631 0.999883
0.139344 0.800745 0.110500 0.938598 0.010812 0.344843
0.587596 0.216499 0.075100 -0.900228 -0.324870 -0.289911
0.335377 0.029324 0.126048 -0.013256 -0.988983 0.147435
0.544101 0.759749 0.178939 0.168317 0.321841 0.931712
0.295312 0.797374 0.125899 -0.276847 0.014615 0.960803
0.490040 0.809383 0.058992 -0.060234 0.559578 -0.826586
0.428814 0.562314 0.072675 -0.861518 0.328216 -0.387378
0.427886 0.455263 0.153013 -0.100720 0.013023 0.994830
0.530301 0.879259 0.155179 0.906844 -0.134122 0.399556
0.720248 0.772498 0.074653 0.158850 -0.920128 -0.357955
0.607642 0.422282 0.077050 0.937613 0.240192 -0.251374
0.498392 0.797876 0.161056 0.003343 0.640359 0.768069
0.476777 0.508470 0.037341 -0.062181 0.033175 -0.997513
0.662918 0.096150 0.040142 0.060457 0.629551 -0.774604
0.525632 0.472621 0.153268 0.261227 -0.480864 0.836977
0.441879 0.414789 0.054844 0.419910 -0.098203 -0.902237
0.618332 0.388761 0.101395 0.973964 0.221591 0.047868
0.416846 0.632046 0.140789 -0.961090 -0.183564 0.206421
0.413609 0.326039 0.126473 0.421618 0.605634 0.674867
0.680716 0.035249 0.066623 0.179811 -0.969998 -0.163623
0.724827 0.802406 0.047844 0.056006 0.194621 -0.979278
0.319161 0.033360 0.080760 -0.138665 -0.986326 -0.089072
0.376812 0.309445 0.135024 -0.393668 -0.098850 0.913922
0.486978 0.501661 0.163073 -0.040643 -0.208582 0.977160
0.647075 0.096055 0.116958 -0.148714 -0.461434 0.874622
0.478397 0.497010 0.035626 -0.038399 -0.006626 -0.999241
0.280708 0.076607 0.108444 -0.802704 0.594175 -0.051201
0.128832 0.781473 0.104743 0.440803 -0.862833 0.247411
0.822572 0.804340 0.122163 0.015851 0.501961 0.864745
0.470148 0.862634 0.131131 -0.903143 0.226842 0.364520
0.555571 0.483284 0.154793 0.006363 0.020826 0.999763
0.625782 0.761605 0.081814 -0.009893 -0.949262 -0.314332
0.478932 0.841652 0.153847 -0.434461 -0.897679 -0.073597
0.533022 0.502205 0.160431 0.342587 -0.247585 0.906276
0.337303 0.239575 0.075128 -0.942663 0.204739 -0.263568
0.509323 0.879998 0.179666 0.648559 -0.017868 0.760955
0.409290 0.816142 0.104254 0.221202 0.965250 0.139145
0.396116 0.398741 0.143308 -0.455059 0.030523 0.889938
0.499298 0.546348 0.074772 0.005036 -0.830752 -0.556620
0.584627 0.687612 0.074553 0.945724 -0.122271 -0.301090
0.620540 0.267453 0.091150 0.678578 -0.734527 0.001012
0.503300 0.715126 0.037849 0.008539 0.035680 -0.999327
0.627489 0.175386 0.127618 -0.017179 -0.331764 0.943206
0.546375 0.935456 0.110028 0.939767 0.286658 -0.186187
0.919433 0.785474 0.115542 0.072768 -0.993127 0.091671
0.681192 0.043856 0.191312 -0.129976 -0.730683 0.670231
0.584767 0.676353 0.089151 0.983122 -0.145813 -0.110494
0.139390 0.809422 0.121734 -0.101232 0.573830 0.812694
0.462434 0.495550 0.035707 -0.131443 -0.010996 -0.991263
0.347916 0.104457 0.079710 0.460499 0.887648 0.004693
0.517322 0.901513 0.172434 0.583959 0.008753 0.811736
0.377945 0.392888 0.119307 -0.941833 0.179382 0.284204
0.684957 0.799610 0.125120 0.246703 0.170722 0.953935
0.535301 0.382281 0.113605 -0.920580 -0.298904 0.251373
0.427973 0.620882 0.161274 -0.686630 -0.244585 0.684630
0.661293 0.030409 0.132225 -0.030728 -0.973401 0.227037
0.653931 0.257197 0.089286 0.964442 0.262087 0.034086
0.391892 0.283491 0.059655 0.118175 -0.550552 -0.826394
0.802431 0.818673 0.085568 0.076593 0.992142 -0.098928
0.378656 0.149628 0.105721 0.706836 -0.586629 0.395284
0.583435 0.784191 0.153318 0.719739 0.310659 0.620860
0.508384 0.954990 0.180433 0.246512 0.645136 0.723209
0.424172 0.727702 0.179413 -0.575203 0.080344 0.814056
0.501287 0.529878 0.164855 0.015936 -0.093300 0.995510
0.619481 0.333912 0.133272 0.668650 0.029650 0.742985
0.410324 0.447371 0.049898 -0.260364 0.120425 -0.957971
0.603640 0.757602 0.103635 -0.059263 -0.992337 0.108425
0.517696 0.849117 0.168165 0.796770 -0.370015 0.477751
0.675860 0.034041 0.077153 0.129028 -0.987361 -0.092036
0.754115 0.813645 0.106150 -0.130212 0.713160 0.688802
0.529594 0.714832 0.037873 0.105059 0.027571 -0.994084
0.416774 0.337474 0.081146 0.668269 0.702148 -0.245773
0.641898 0.212883 0.121717 0.430892 -0.154587 0.889064
0.615712 0.349645 0.134890 0.655395 0.044818 0.753956
0.233831 0.773790 0.078012 0.053828 -0.986764 -0.152969
0.413067 0.276407 0.060090 0.657867 -0.127973 -0.742181
0.619476 0.280032 0.048259 0.223454 0.108643 -0.968641
0.633401 0.321668 0.083127 0.906993 0.410769 -0.092916
0.436114 0.824494 0.114520 -0.345174 0.934635 0.085516
0.471373 0.470196 0.068121 0.764737 -0.121193 -0.632842
0.516978 0.456025 0.129286 -0.892263 -0.218270 0.395254
0.329876 0.211116 0.073170 -0.952097 0.166020 -0.256805
0.318043 0.767401 0.070868 -0.101102 -0.884039 -0.456349
0.591502 0.716244 0.088608 0.991763 -0.089728 -0.091402
0.579275 0.642799 0.105110 0.983596 -0.180381 -0.001377
0.442476 0.773619 0.119719 0.769676 -0.610466 0.186896
0.468759 0.419107 0.106771 0.950314 -0.270471 0.154105
0.466912 0.946579 0.084606 -0.557079 0.463269 -0.689234
0.346060 0.043797 0.040004 0.457931 -0.420100 -0.783464
0.543401 0.599945 0.121474 0.541854 0.837204 0.074046
0.486014 0.832259 0.071586 -0.079474 0.700162 -0.709547
0.533972 0.537031 0.161381 0.350695 -0.078288 0.933212
0.473611 0.910381 0.074058 -0.405450 -0.135590 -0.904005
0.499280 0.915451 0.183237 0.051871 0.139849 0.988813
0.213588 0.808917 0.059917 -0.110738 0.525967 -0.843265
0.629132 0.340822 0.081480 0.959959 0.165484 -0.226040
0.544865 0.786412 0.168114 0.179738 0.537066 0.824169
0.611911 0.318950 0.136554 0.480008 -0.054519 0.875568
0.940420 0.784631 0.104585 0.110967 -0.993681 0.016884
0.523449 0.473680 0.144089 -0.700788 -0.161860 0.694764
0.138081 0.782574 0.122611 -0.109044 -0.766126 0.633372
0.457736 0.556772 0.063221 -0.374836 -0.699302 -0.608666
0.465759 0.542284 0.122746 -0.190388 -0.975408 0.111047
0.497421 0.656533 0.042648 0.026227 -0.091782 -0.995434
0.570608 0.608270 0.077528 0.884857 -0.224621 -0.408135
0.545123 0.744003 0.184395 0.163252 0.190303 0.968057
0.453726 0.948048 0.103384 -0.767439 0.565157 -0.302713
0.263982 0.821822 0.070485 -0.073268 0.945727 -0.316594
0.481310 0.804115 0.154106 -0.051690 0.700097 0.712174
0.467116 0.964920 0.112245 -0.546968 0.816365 -0.185405
0.373112 0.791726 0.144492 -0.153704 -0.085388 0.984421
0.216430 0.774259 0.075273 -0.008028 -0.952776 -0.303567
0.629304 0.176326 0.129149 0.064323 -0.337212 0.939229
0.537325 0.496042 0.156411 -0.310057 -0.045201 0.949643
0.463940 0.530901 0.101948 0.362353 0.931041 -0.043160
0.598813 0.816341 0.111545 -0.153913 0.976123 0.153279
0.493844 0.861209 0.186779 -0.135910 -0.232355 0.963089
0.459473 0.385370 0.098540 0.953577 -0.299503 0.031460
0.393422 0.757993 0.084923 0.135302 -0.828966 -0.542686
0.121821 0.808625 0.081169 0.056323 0.696179 -0.715655
0.346568 0.131915 0.125768 0.171072 -0.204170 0.963872
0.305761 0.136394 0.083914 -0.988591 0.066925 0.134939
0.472070 0.560310 0.045098 -0.161070 0.222104 -0.961627
0.534941 0.523354 0.141083 -0.209158 0.786799 0.580689
0.476572 0.459755 0.076541 0.891959 -0.172515 -0.417908
0.251435 0.772828 0.086450 0.142225 -0.973010 0.181723
0.546561 0.732390 0.186581 0.248335 0.103468 0.963132
0.432783 0.469448 0.042930 -0.431930 -0.111278 -0.895016
0.537038 0.436819 0.144263 -0.597530 -0.185005 0.780212
0.588287 0.291780 0.133478 -0.223174 -0.401400 0.888297
0.567246 0.638692 0.060076 0.698905 -0.176980 -0.692972
0.417425 0.808742 0.142772 -0.394680 0.640336 0.658936
0.586521 0.339728 0.073933 -0.256935 0.911246 -0.321893
0.510845 0.883838 0.111337 0.571920 0.819574 -0.034734
0.228469 0.772538 0.099697 0.103976 -0.917574 0.383728
0.869655 0.804538 0.118517 0.870381 0.406288 0.278149
0.468773 0.547733 0.074822 -0.271786 -0.794167 -0.543536
0.515178 0.547991 0.137841 0.064367 -0.783692 0.617806
0.393599 0.267982 0.052898 0.413647 -0.061720 -0.908343
0.451382 0.434482 0.145218 0.468559 -0.145345 0.871394
0.544529 0.531804 0.155306 0.532874 -0.091119 0.841274
0.516545 0.440219 0.077679 0.112852 -0.974852 -0.192166
0.536576 0.881589 0.109858 0.784516 -0.479617 -0.393069
0.199645 0.790806 0.060320 -0.114475 -0.407566 -0.905972
0.631632 0.311524 0.124998 0.650023 0.172618 0.740049
0.328559 0.222714 0.089657 -0.978869 0.182885 0.091484
0.523473 0.731102 0.038466 0.078281 0.090931 -0.992776
0.584267 0.488488 0.100620 0.986618 0.085169 0.139036
0.388943 0.180251 0.106935 0.739283 -0.522215 0.425149
0.540334 0.419940 0.060213 -0.563693 -0.126838 -0.816188
0.539628 0.536863 0.158612 0.476643 -0.070066 0.876300
0.564677 0.547204 0.134589 0.858842 0.160853 0.486330
0.515600 0.447819 0.115221 -0.962042 -0.229387 0.147843
0.547403 0.410250 0.056596 -0.469059 -0.113711 -0.875816
0.612848 0.317121 0.136150 0.491771 -0.053246 0.869095
0.480632 0.861059 0.176193 -0.604781 -0.153890 0.781382
0.439018 0.578793 0.059942 -0.609664 -0.300366 -0.733546
0.318916 0.041198 0.028338 -0.198312 -0.321406 -0.925943
0.246690 0.774250 0.064956 0.050817 -0.917508 -0.394457
0.455329 0.885539 0.102569 -0.781682 -0.436912 -0.445063
0.539555 0.792125 0.052202 0.237270 0.427917 -0.872118
0.412383 0.415605 0.049474 -0.085031 0.035941 -0.995730
0.538227 0.897940 0.094022 0.744375 -0.248151 -0.619942
0.570170 0.577939 0.125490 0.926598 -0.338787 0.163217
0.482439 0.441346 0.060977 -0.067481 -0.937033 -0.342659
0.714424 0.053508 0.079693 0.805240 -0.504702 -0.311230
0.530702 0.924225 0.157152 0.827393 -0.051870 0.559222
0.416716 0.616922 0.124751 -0.969864 -0.210096 0.123384
0.341415 0.173188 0.045718 -0.339891 -0.019815 -0.940256
0.614746 0.167803 0.054481 -0.622221 -0.302790 -0.721914
0.458769 0.552458 0.046565 -0.267586 0.198627 -0.942839
0.512086 0.500905 0.036209 0.119410 0.042699 -0.991926
0.449493 0.360547 0.113833 0.877857 -0.336935 0.340357
0.332742 0.763688 0.105759 -0.179060 -0.957695 0.225293
0.462454 0.442145 0.065171 -0.182579 -0.947198 -0.263593
0.493283 0.615808 0.113674 -0.011431 0.996665 0.080795
0.327387 0.062057 0.031212 0.198665 0.142382 -0.969670
0.519024 0.872853 0.099706 0.762738 0.476843 -0.436867
0.425216 0.764841 0.050958 -0.410892 0.150787 -0.899128
0.107700 0.807419 0.090870 -0.014054 0.942349 -0.334337
0.075125 0.785750 0.082057 -0.095426 -0.792607 -0.602219
0.611031 0.136907 0.080375 -0.916899 -0.394375 0.061364
0.466366 0.529905 0.040548 -0.152794 0.113458 -0.981724
0.644350 0.763033 0.086027 0.087310 -0.987299 -0.132735
0.533736 0.802210 0.060181 0.201231 0.539687 -0.817462
0.337050 0.089737 0.042263 0.449986 0.458003 -0.766646
0.538725 0.814194 0.070626 0.221686 0.659451 -0.718317
0.484265 0.968519 0.150550 -0.203066 0.902328 0.380223
0.430910 0.762444 0.172474 -0.445277 0.295752 0.845139
0.646198 0.780902 0.129072 0.234409 -0.359653 0.903163
0.428731 0.554994 0.133980 -0.893552 0.244209 0.376731
0.606959 0.412891 0.067607 0.868259 0.210635 -0.449177
0.592990 0.293564 0.053098 -0.236367 0.000904 -0.971663
0.469555 0.528563 0.089009 0.412262 0.877676 -0.244386
0.397489 0.264864 0.082126 0.306814 -0.907036 -0.288359
0.396908 0.441205 0.060011 -0.723961 0.240423 -0.646589
0.325292 0.206700 0.085176 -0.986356 0.163026 0.022892
0.793786 0.816016 0.109271 -0.013679 0.864760 0.501999
0.484198 0.853754 0.177553 -0.522354 -0.186442 0.832097
0.432010 0.457288 0.120900 -0.570667 -0.641453 0.512716
0.415679 0.331810 0.055082 0.343537 -0.181483 -0.921437
0.466688 0.523738 0.039625 -0.142368 0.090923 -0.985629
0.684213 0.100483 0.066335 0.637356 0.715600 -0.285821
0.688320 0.129160 0.082744 0.984787 0.154435 -0.079646
0.479339 0.866452 0.139144 -0.611655 0.387030 0.689990
0.622429 0.260950 0.046246 0.128709 0.053041 -0.990263
0.198746 0.818389 0.089799 -0.049032 0.996159 0.072553
0.555749 0.309072 0.084492 -0.915582 -0.360273 -0.178643
0.584589 0.340339 0.103267 -0.412025 0.909852 0.049034
0.568377 0.291523 0.064139 -0.641695 -0.122904 -0.757049
0.692698 0.056239 0.192706 -0.167813 -0.117173 0.978830
0.102396 0.802872 0.128086 0.034912 0.828972 0.558200
0.531303 0.935278 0.084509 0.665092 0.214462 -0.715304
0.327728 0.089425 0.134423 0.355037 0.773120 0.525580
0.470166 0.850550 0.146000 -0.776754 -0.629800 -0.002448
0.579087 0.670996 0.142719 0.948659 -0.141446 0.282911
0.637693 0.306696 0.098998 0.995280 0.021265 0.094688
0.357698 0.776520 0.064928 0.084010 -0.445159 -0.891502
0.409191 0.476455 0.066262 -0.901215 -0.013447 -0.433163
0.457353 0.958468 0.124964 -0.664230 0.747332 0.017124
0.516658 0.599428 0.063342 0.045174 0.802975 -0.594298
0.479084 0.842107 0.141594 -0.516330 -0.242991 0.821194
0.261184 0.813854 0.061080 0.307312 0.650369 -0.694679
0.640420 0.098763 0.075437 -0.857644 0.483562 -0.174970
0.366634 0.351429 0.113897 -0.939768 0.135887 0.313641
0.606875 0.279617 0.048582 -0.074905 0.023700 -0.996909
0.406286 0.817218 0.087217 0.261184 0.942662 -0.207776
0.473615 0.964308 0.148239 -0.403128 0.853803 0.329405
0.340999 0.164440 0.121817 -0.296694 -0.081895 0.951454
0.665975 0.109809 0.074581 0.082545 0.991172 -0.103752
0.853920 0.811444 0.074075 0.278526 0.667135 -0.690908
0.668574 0.121349 0.117539 0.593066 -0.149224 0.791205
0.500562 0.881463 0.188931 0.598367 0.044229 0.800000
0.892265 0.785381 0.121502 -0.011564 -0.992656 0.120417
0.327958 0.163532 0.052266 -0.702971 0.046728 -0.709681
0.685239 0.790338 0.125467 0.266052 -0.133290 0.954699
0.448209 0.928859 0.099977 -0.917807 0.105348 -0.382795
0.843695 0.816817 0.106064 0.138710 0.977655 0.157959
0.545095 0.915471 0.134653 0.924725 -0.207759 0.318936
0.620154 0.794074 0.063172 -0.154869 -0.166709 -0.973768
0.472768 0.474895 0.139351 0.676923 -0.153053 0.719966
0.488726 0.587842 0.162645 -0.093165 0.436356 0.894938
0.444636 0.684860 0.046084 -0.324259 -0.071776 -0.943241
0.381933 0.148543 0.072067 0.862921 -0.298229 -0.407955
0.457209 0.590328 0.050290 -0.322446 -0.203874 -0.924372
0.663152 0.042973 0.154053 -0.481024 -0.661167 0.575738
0.537283 0.623276 0.048276 0.328053 -0.166959 -0.929788
0.514149 0.565880 0.157877 0.080554 -0.547894 0.832660
0.310669 0.121555 0.111884 -0.540938 -0.042999 0.839963
0.723536 0.045828 0.114620 0.621673 -0.781902 -0.046394
0.091082 0.801433 0.121327 -0.229444 0.954739 0.189285
0.591412 0.377852 0.145375 0.292733 -0.033486 0.955608
0.485059 0.818548 0.144133 -0.048521 0.794589 0.605206
0.676689 0.802527 0.123420 0.225392 0.311867 0.923005
0.631840 0.314492 0.122519 0.697332 0.197395 0.689031
0.630334 0.240173 0.046967 0.193649 0.039768 -0.980265
0.587996 0.720732 0.127443 0.988110 -0.115004 0.102046
0.658262 0.136027 0.043095 0.070526 -0.160185 -0.984564
0.580892 0.387520 0.048967 -0.038747 -0.036992 -0.998564
0.621306 0.797126 0.062034 -0.159462 -0.086633 -0.983395
0.261349 0.805770 0.050352 -0.084085 0.103737 -0.991044
0.460585 0.633638 0.045503 -0.191001 -0.134953 -0.972269
0.630094 0.320856 0.069865 0.834077 0.412101 -0.366726
0.430877 0.469259 0.131512 -0.523041 -0.434321 0.733344
0.383742 0.324971 0.132026 -0.236648 0.580774 0.778909
0.375412 0.343612 0.134396 -0.611654 0.012131 0.791033
0.458237 0.601490 0.048859 -0.282933 -0.184372 -0.941252
0.377120 0.185414 0.120510 0.512987 -0.275534 0.812973
0.480536 0.463065 0.087092 0.961086 -0.195383 -0.195291
0.709021 0.079042 0.106909 0.760857 0.648755 -0.014603
0.595193 0.309662 0.050594 -0.188067 -0.170078 -0.967318
0.464463 0.580395 0.165095 -0.387363 0.175034 0.905159
0.378917 0.204437 0.052129 0.449994 -0.135499 -0.882692
0.511208 0.957357 0.179415 0.275241 0.769634 0.576112
0.522740 0.770966 0.176321 0.077565 0.435194 0.896990
0.091950 0.802753 0.114020 -0.216037 0.971215 0.100342
0.782918 0.772704 0.104337 -0.047782 -0.918656 0.392158
0.423342 0.802806 0.149346 -0.367428 0.597876 0.712419
0.554606 0.519955 0.049936 0.550477 0.088217 -0.830176
0.234436 0.794552 0.053632 -0.031741 -0.318803 -0.947289
0.645371 0.091117 0.049351 -0.575554 -0.423147 -0.699774
0.391313 0.431575 0.065826 -0.850921 0.256261 -0.458545
0.559655 0.306861 0.075433 -0.838328 -0.341860 -0.424663
0.879472 0.782637 0.097645 -0.101728 -0.968930 -0.225448
0.353441 0.817032 0.113655 0.016921 0.933374 0.358505
0.664378 0.793432 0.135036 0.239655 -0.014107 0.970756
0.424136 0.723437 0.049195 -0.525692 -0.028096 -0.850211
0.612204 0.411363 0.098712 0.970071 0.241942 0.020630
0.361989 0.331288 0.100168 -0.761348 0.643922 0.075588
0.285711 0.810901 0.113874 -0.192950 0.665059 0.721434
0.617518 0.341232 0.134115 0.659227 0.035508 0.751105
0.561246 0.820877 0.095736 0.404964 0.857645 -0.316936
0.405639 0.691944 0.100397 -0.991427 -0.126777 -0.031621
0.867254 0.786780 0.080816 -0.146353 -0.359201 -0.921713
0.352520 0.307934 0.089914 -0.952850 0.296449 -0.064771
0.317471 0.098403 0.055196 -0.683658 -0.157853 -0.712527
0.513841 0.518262 0.164121 0.112813 -0.163301 0.980105
0.428226 0.664455 0.174181 -0.647837 -0.160177 0.744749
0.614775 0.393169 0.117352 0.940759 0.203186 0.271456
0.391698 0.438226 0.106215 -0.966064 0.255923 -0.034987
0.396242 0.462577 0.089833 -0.944343 0.289962 -0.155363
0.405617 0.479533 0.063369 -0.729039 0.281922 -0.623716
0.592098 0.723013 0.093507 0.994398 -0.084354 -0.063696
0.868188 0.789699 0.122048 0.888409 -0.127047 0.441122
0.932043 0.785828 0.129550 0.125429 -0.886532 0.445340
0.279404 0.807197 0.115165 -0.252719 0.463194 0.849461
0.523608 0.842279 0.128927 0.860733 -0.120081 0.494691
0.306511 0.095319 0.060500 -0.608407 0.650816 -0.454180
0.757833 0.805892 0.096282 0.856454 0.201646 0.475211
0.238303 0.799463 0.108535 -0.700434 0.151029 0.697554
0.062438 0.785204 0.088039 -0.188852 -0.844890 -0.500495
0.629720 0.277814 0.122453 0.460252 0.020243 0.887558
0.754565 0.816796 0.073364 0.646498 0.761845 -0.040409
0.811202 0.797961 0.056658 0.182738 -0.047232 -0.982027
0.418698 0.253953 0.082512 0.948231 -0.263747 -0.176906
0.570474 0.548497 0.101275 0.956676 0.291060 -0.007366
0.591146 0.805779 0.077330 0.562019 0.591745 -0.577904
0.135183 0.783975 0.124290 -0.112323 -0.720659 0.684131
0.411215 0.466090 0.107568 -0.936719 -0.289341 0.197079
0.440259 0.353849 0.125617 0.739463 -0.326981 0.588454
0.548425 0.781508 0.134816 -0.885427 -0.264067 0.382475
0.477335 0.959857 0.166951 -0.394943 0.770190 0.500826
0.627793 0.337812 0.095269 0.652852 0.752590 0.085978
0.646358 0.145273 0.124540 0.247152 -0.369911 0.895590
0.451374 0.475105 0.155252 0.195710 -0.019800 0.980462
0.466938 0.874916 0.163465 -0.851756 -0.151417 0.501581
0.395223 0.438114 0.061662 -0.765374 0.246074 -0.594686
0.440653 0.456048 0.048685 -0.405980 -0.550951 -0.729131
0.437212 0.769732 0.138424 0.587712 -0.713613 0.381249
0.624605 0.308816 0.131074 0.675501 -0.000129 0.737359
0.507709 0.916008 0.181427 0.311803 0.117340 0.942873
0.361154 0.283264 0.083344 -0.863338 -0.419650 -0.280253
0.215396 0.778925 0.065264 -0.040887 -0.803233 -0.594260
0.467047 0.542998 0.165683 -0.266527 -0.029778 0.963367
0.441579 0.320901 0.098195 0.928583 -0.366253 0.059935
0.639365 0.312937 0.096020 0.939559 0.301327 0.162578
0.638860 0.089495 0.070741 -0.764110 -0.616302 -0.190546
0.495233 0.916795 0.068392 -0.030908 -0.022044 -0.999279
0.632868 0.088007 0.084157 -0.815411 -0.518556 0.257302
0.417154 0.644770 0.145409 -0.948637 -0.170130 0.266727
0.415328 0.247752 0.099280 0.894527 -0.378094 0.238466
0.636990 0.322619 0.095867 0.986277 0.165028 0.004918
0.451705 0.952670 0.127543 -0.818547 0.561284 0.122234
0.470885 0.427308 0.096431 0.967663 -0.251047 -0.024556
0.499846 0.608427 0.084139 -0.010986 0.947322 -0.320095
0.540212 0.599933 0.166283 0.318752 -0.266618 0.909567
0.423375 0.282347 0.081482 0.773422 -0.560073 -0.296878
0.476920 0.484615 0.070359 0.809692 -0.115525 -0.575372
0.604017 0.336988 0.065672 0.113432 0.891170 -0.439259
0.808342 0.818895 0.077099 0.113578 0.947581 -0.298647
0.382367 0.157444 0.064777 0.768636 -0.268327 -0.580688
0.650244 0.268608 0.087480 0.961731 0.273975 -0.003377
0.260552 0.803703 0.048360 -0.084666 -0.017288 -0.996259
0.349820 0.198241 0.122989 -0.367541 -0.041908 0.929063
0.539928 0.890919 0.106179 0.792749 -0.450111 -0.411033
0.677553 0.150931 0.066106 0.886400 0.115014 -0.448404
0.423954 0.469665 0.050907 -0.130802 0.116342 -0.984559
0.578321 0.481927 0.148837 0.487296 0.151039 0.860075
0.245609 0.772328 0.096508 0.147601 -0.905310 0.398281
0.383570 0.303683 0.137949 -0.171903 -0.163333 0.971479
0.569613 0.319037 0.122019 -0.761324 0.362148 0.537805
0.394389 0.428702 0.137831 -0.741994 0.144920 0.654555
0.295895 0.039126 0.069082 -0.437310 -0.888519 -0.138907
0.402420 0.708222 0.094495 -0.992302 -0.113625 -0.049249
0.637658 0.035700 0.079880 -0.728850 -0.682606 -0.053174
0.338647 0.762878 0.107969 -0.173565 -0.954386 0.242944
0.406391 0.503329 0.109795 -0.948918 0.315462 -0.006216
0.403938 0.711048 0.112383 -0.993383 -0.105707 0.044903
0.629093 0.089012 0.089107 -0.838304 -0.407932 0.361715
0.489779 0.687249 0.187643 -0.007998 -0.090690 0.995847
0.417314 0.509660 0.125064 -0.917214 0.101777 0.385174
0.396935 0.781813 0.143012 -0.053483 -0.362281 0.930533
0.528168 0.949840 0.167421 0.600630 0.600026 0.528405
0.518279 0.438125 0.111879 -0.964397 -0.238652 0.113948
0.570964 0.577790 0.108567 0.946458 -0.322758 0.006623
0.365365 0.192784 0.129404 0.002541 -0.134087 0.990966
0.549302 0.552098 0.053813 0.558178 0.233941 -0.796059
0.688673 0.037222 0.060107 0.263976 -0.941602 -0.209051
