0.441725 0.314943 0.147532 0.035309 0.056028 -0.997805
0.436121 0.845306 0.313169 0.665713 0.368318 -0.648974
0.441306 0.175253 0.124023 -0.059846 0.079392 0.995045
0.466298 0.753702 0.194933 -0.032782 0.667808 0.743611
0.389791 0.558829 0.312690 -0.810670 -0.249900 0.529495
0.504900 0.377731 0.127509 0.190118 0.080844 -0.978427
0.545212 0.341106 0.106823 0.017136 -0.141586 0.989778
0.312166 0.528770 0.137284 -0.585184 0.233090 -0.776678
0.244640 0.762858 0.202474 -0.098546 -0.751347 0.652507
0.465424 0.329529 0.144219 -0.016419 0.042416 -0.998965
0.374791 0.320999 0.122645 -0.249038 0.021835 0.968248
0.767745 0.177378 0.143562 -0.922120 -0.369152 -0.115852
0.680523 0.284113 0.095027 0.935721 0.197334 -0.292378
0.775420 0.156990 0.136381 -0.864572 -0.436619 -0.248754
0.524210 0.395023 0.234035 -0.054163 0.163673 0.985027
0.454675 0.725441 0.176238 0.237158 -0.109793 0.965247
0.377499 0.493986 0.132337 -0.046662 -0.130551 0.990343
0.391588 0.174542 0.243703 -0.761471 0.300354 0.574412
0.288064 0.366573 0.146111 0.669025 -0.144749 0.729009
0.451134 0.739807 0.197750 0.073979 0.970723 -0.228526
0.445926 0.846417 0.232606 0.353866 0.026255 0.934928
0.528647 0.733254 0.166410 -0.090282 -0.123593 0.988218
0.504552 0.857938 0.261830 -0.996263 -0.008882 0.085917
0.289707 0.183857 0.104596 -0.402007 0.111945 -0.908768
0.375554 0.742642 0.198888 0.640203 0.146331 0.754140
0.508430 0.524216 0.138706 0.126327 0.104802 -0.986437
0.305570 0.287765 0.084895 -0.328696 0.056732 0.942730
0.667747 0.458979 0.151055 -0.915997 -0.376265 -0.139191
0.280448 0.396755 0.162447 0.651781 -0.125344 0.747978
0.274395 0.222313 0.153431 0.151482 0.047349 0.987325
0.533178 0.645578 0.232819 -0.758217 0.403938 0.511802
0.362465 0.378994 0.115712 -0.266186 -0.002229 0.963919
0.268407 0.719545 0.239486 0.150924 0.963430 -0.221414
0.279501 0.187252 0.110818 -0.393470 0.113589 -0.912293
0.549216 0.248045 0.098375 0.514408 -0.003348 0.857539
0.477656 0.494728 0.299986 -0.424694 0.260071 -0.867178
0.388256 0.566593 0.284077 0.191159 0.113304 -0.974998
0.509407 0.333183 0.137966 0.619211 0.041491 0.784127
0.731769 0.250082 0.162446 0.673725 0.093823 -0.733002
0.244512 0.239478 0.142255 -0.192905 0.113623 0.974617
0.463704 0.912820 0.261192 0.051733 -0.985533 0.161397
0.408357 0.337105 0.145573 0.170252 0.021994 -0.985155
0.448425 0.166308 0.123911 -0.041801 0.081370 0.995807
0.369701 0.344184 0.138874 0.283706 -0.017028 -0.958760
0.332594 0.158266 0.123076 0.375999 -0.067988 -0.924123
0.472018 0.501905 0.200904 0.327200 0.006238 0.944935
0.548648 0.534060 0.142605 0.259672 0.297977 -0.918575
0.697751 0.374407 0.135059 -0.929136 -0.367241 -0.042906
0.366645 0.144542 0.237663 0.237546 0.122994 0.963558
0.581038 0.513500 0.148651 -0.090232 -0.004667 0.995910
0.735953 0.171295 0.151934 0.148057 -0.023482 0.988700
0.467097 0.463678 0.220748 0.603488 0.731536 0.317267
0.342839 0.438441 0.132709 0.106145 0.069594 -0.991912
0.566189 0.276224 0.289754 -0.951597 -0.105631 -0.288627
0.525920 0.198272 0.129222 0.645798 0.078912 0.759419
0.364804 0.405944 0.278267 0.994979 -0.068887 0.072603
0.392029 0.773263 0.208136 0.118823 -0.751933 0.648442
0.283090 0.316346 0.132852 -0.329228 0.113496 -0.937405
0.627372 0.370990 0.151188 -0.126807 -0.003833 0.991920
0.598805 0.323819 0.097887 -0.208028 0.165242 -0.964064
0.562731 0.097212 0.121493 0.045352 -0.919261 0.391028
0.379287 0.658798 0.155949 -0.155904 0.299313 -0.941332
0.716957 0.319109 0.150274 0.735891 -0.646640 0.200800
0.449731 0.621978 0.225515 -0.222056 0.366529 0.903520
0.694095 0.226811 0.111563 0.955241 0.125888 -0.267706
0.476981 0.347888 0.144455 0.005508 0.033592 -0.999420
0.559194 0.269475 0.108007 -0.321046 0.118956 -0.939563
0.466688 0.777389 0.215389 0.000627 -0.896250 0.443548
0.373183 0.320154 0.266309 0.834332 0.010217 0.551168
0.575117 0.046032 0.303522 -0.416254 -0.786416 -0.456380
0.345501 0.766310 0.234567 0.117416 -0.927274 0.355495
0.568107 0.683741 0.164422 0.892104 0.263787 0.366834
0.446427 0.387824 0.145796 0.007438 0.054820 -0.998469
0.289312 0.178892 0.094400 0.417639 -0.115553 -0.901236
0.450377 0.411789 0.274464 -0.890813 0.384350 -0.242338
0.433247 0.461068 0.146668 0.039143 0.054159 -0.997765
0.502469 0.628735 0.160602 -0.080321 -0.136615 0.987363
0.570187 0.077069 0.242443 -0.875493 -0.222338 0.429044
0.509230 0.178328 0.144842 -0.008459 -0.002284 -0.999962
0.675118 0.334816 0.142894 0.568284 0.168780 -0.805337
0.317563 0.715166 0.249014 0.024054 0.979089 -0.202005
0.520008 0.473350 0.303616 0.249391 -0.218873 -0.943344
0.544306 0.685001 0.215376 -0.686727 0.450969 0.570117
0.392943 0.197264 0.278334 -0.727828 0.208760 -0.653211
0.413283 0.164767 0.146535 0.159368 0.024410 -0.986917
0.631247 0.548109 0.141412 -0.034594 -0.122828 0.991825
0.601477 0.516271 0.148051 0.198977 0.062497 0.978009
0.750471 0.757865 0.239216 -0.187363 -0.632383 -0.751656
0.397875 0.423286 0.134058 -0.212968 -0.033193 0.976495
0.573112 0.220740 0.237370 -0.669407 -0.238765 0.703481
0.761071 0.198183 0.143500 0.957915 0.285385 0.030875
0.501882 0.434747 0.138861 0.578087 0.002143 0.815972
0.652726 0.752299 0.243596 -0.157969 -0.802815 -0.574921
0.426709 0.584474 0.235319 0.258190 -0.536840 0.803206
0.394530 0.707209 0.174917 0.250075 0.229380 0.940663
0.315739 0.310297 0.113091 0.038111 0.042181 -0.998383
0.274899 0.319348 0.137897 -0.322039 0.114751 -0.939746
0.560959 0.752242 0.201460 0.549215 -0.376025 0.746303
0.576988 0.219076 0.101699 -0.021595 -0.165385 0.985993
0.351538 0.601503 0.143162 -0.287419 0.243189 -0.926418
0.886596 0.714916 0.198444 -0.766549 -0.337672 -0.546242
0.484219 0.768245 0.317174 0.402641 0.425617 0.810389
0.546743 0.772470 0.207009 0.076632 0.717496 -0.692335
0.394431 0.772110 0.194753 0.364784 -0.487527 -0.793253
0.594522 0.099015 0.076763 -0.293687 0.430409 -0.853520
0.738653 0.116366 0.157866 0.172045 -0.976111 -0.132696
0.610747 0.094302 0.068091 -0.187739 0.632695 -0.751300
0.469099 0.814325 0.302574 -0.119482 0.986522 0.111799
0.611170 0.118768 0.147076 -0.856563 0.177572 0.484529
0.288195 0.262400 0.079326 -0.264481 0.046398 0.963274
0.531638 0.399501 0.319563 -0.015127 -0.037812 -0.999170
0.574506 0.387659 0.142290 -0.871301 -0.121131 0.475565
0.525984 0.738503 0.167411 -0.056144 -0.113283 0.991975
0.419608 0.089955 0.145748 0.310894 0.879944 0.359225
0.403749 0.368083 0.242233 0.026304 0.304432 0.952171
0.287126 0.407527 0.158258 0.647453 -0.140610 0.749022
0.425704 0.643759 0.166335 0.045394 -0.128280 0.990699
0.522019 0.478898 0.303290 0.174592 -0.197200 -0.964692
0.452669 0.265594 0.129244 -0.027119 0.037484 0.998929
0.259329 0.260307 0.147827 0.716361 -0.081196 0.692989
0.622967 0.155761 0.099955 -0.944435 0.015657 0.328325
0.448615 0.218405 0.147808 0.029192 0.056628 -0.997968
0.381229 0.479121 0.285788 0.861062 -0.310524 -0.402674
0.472324 0.761083 0.194048 -0.091578 -0.745588 -0.660084
0.416656 0.761807 0.168250 0.411212 0.033908 0.910909
0.590946 0.066278 0.058599 0.731574 -0.266672 0.627444
0.676294 0.748723 0.197765 0.322322 -0.538182 0.778761
0.392764 0.032992 0.273208 0.651950 -0.754961 -0.070669
0.731064 0.194157 0.134429 0.630626 0.113459 -0.767749
0.371545 0.435991 0.293387 0.905902 -0.205309 -0.370392
0.324053 0.575996 0.168665 -0.819695 0.386492 -0.422757
0.165296 0.759257 0.214477 0.149937 -0.988604 -0.013471
0.468187 0.447481 0.144958 -0.036846 0.048933 -0.998122
0.745977 0.150658 0.039059 0.578448 0.196100 -0.791797
0.427912 0.106519 0.141757 -0.031813 0.288800 -0.956861
0.511700 0.584623 0.307518 -0.306269 -0.057285 -0.950220
0.525435 0.422267 0.137191 -0.250903 0.081081 -0.964611
0.472589 0.611981 0.230417 0.125799 0.290396 0.948601
0.516882 0.636712 0.316078 -0.548648 0.349823 -0.759348
0.561400 0.135480 0.102162 -0.301562 0.127463 -0.944888
0.263881 0.164604 0.061560 -0.388118 0.132266 0.912069
0.514489 0.773568 0.300307 0.223619 0.791628 0.568612
0.367856 0.453215 0.122815 -0.162714 -0.073430 0.983937
0.544517 0.119045 0.264362 0.963083 -0.001120 -0.269203
0.545220 0.388629 0.241218 -0.653839 0.063540 0.753961
0.327308 0.376415 0.107166 0.381196 -0.220518 0.897809
0.376032 0.658418 0.162548 0.056620 0.065300 -0.996258
0.375262 0.766034 0.167032 -0.962950 -0.230212 -0.140465
0.541403 0.084058 0.122094 0.772219 -0.091132 0.628787
0.067691 0.720529 0.240508 0.368476 -0.629407 0.684159
0.277292 0.291054 0.146859 -0.674147 0.100583 -0.731716
0.440618 0.424236 0.136841 -0.052060 -0.027923 0.998253
0.366247 0.156042 0.144264 0.309138 -0.016992 -0.950865
0.407815 0.578793 0.151117 0.048409 0.079965 -0.995622
0.539676 0.583182 0.153699 0.001684 -0.140047 0.990143
0.591599 0.352627 0.152441 -0.350497 -0.011561 0.936493
0.569079 0.683986 0.160759 -0.699699 -0.625464 0.345276
0.606598 0.431749 0.115497 0.651700 0.309813 -0.692317
0.634465 0.295383 0.152621 -0.241279 -0.008349 0.970420
0.487810 0.557785 0.323666 -0.295277 -0.088407 -0.951312
0.411479 0.721696 0.177175 -0.069617 0.194955 0.978338
0.263015 0.109376 0.084174 0.553722 -0.793877 -0.251299
0.448860 0.170457 0.148309 0.037408 0.056458 -0.997704
0.451986 0.578027 0.151203 -0.049768 0.059024 -0.997015
0.399151 0.625372 0.244564 0.871970 0.351673 0.340580
0.496868 0.631036 0.321350 -0.173482 0.296224 -0.939231
0.718048 0.114353 0.146301 0.182035 -0.945128 -0.271286
0.384477 0.035943 0.295846 -0.814879 0.483781 0.319263
0.551240 0.171911 0.279558 0.438053 0.223043 -0.870839
0.507668 0.668830 0.206766 -0.052634 0.390833 0.918955
0.699706 0.256836 0.135530 0.684620 0.131308 -0.716976
0.709079 0.184975 0.153163 -0.070657 -0.003485 0.997495
0.626706 0.129563 0.102956 -0.925482 0.024483 0.378000
0.355059 0.034642 0.271471 0.033034 0.997308 0.065462
0.286860 0.208696 0.104418 0.746093 -0.148214 0.649136
0.524239 0.333348 0.120757 0.558207 0.006935 0.829672
0.432747 0.760103 0.168438 0.314291 0.132205 0.940076
0.352756 0.028282 0.300611 -0.269178 -0.961091 -0.062029
0.499056 0.547105 0.312755 -0.342652 0.085654 -0.935550
0.345996 0.452284 0.126164 0.557012 -0.291085 0.777822
0.560379 0.314832 0.108431 -0.329772 0.118035 -0.936653
0.530308 0.512744 0.297066 -0.626195 -0.088389 -0.774640
0.380641 0.491383 0.131612 -0.102664 -0.110387 0.988572
0.218833 0.708807 0.228922 -0.087768 0.871687 -0.482140
0.423631 0.732675 0.171816 0.162500 0.056140 -0.985110
0.593858 0.631630 0.149614 -0.879234 -0.471663 0.066950
0.435888 0.871749 0.235487 0.617229 0.092379 0.781341
0.567769 0.425824 0.119827 -0.181872 0.158494 -0.970465
0.447551 0.425136 0.137228 -0.034164 -0.029965 0.998967
0.272702 0.101043 0.097508 -0.566587 -0.117781 -0.815541
0.387020 0.134002 0.145375 0.244863 0.000910 -0.969557
0.480056 0.755768 0.166027 -0.048278 -0.311803 0.948919
0.274732 0.201524 0.156089 0.851796 -0.106352 0.512965
0.424537 0.555461 0.311722 -0.332909 -0.176740 0.926247
0.269191 0.099727 0.063240 -0.304937 -0.936285 -0.174310
0.699755 0.369387 0.130831 -0.918865 -0.389054 -0.065762
0.359341 0.714148 0.229169 0.357512 0.924486 0.132332
0.412313 0.549620 0.304223 0.477243 0.141454 -0.867312
0.417808 0.238342 0.126126 -0.118297 0.058129 0.991275
0.504471 0.858187 0.260848 -0.995614 -0.004448 0.093445
0.516500 0.456872 0.306851 0.218920 -0.286272 -0.932804
0.408033 0.695526 0.180160 0.229439 -0.148332 0.961954
0.530799 0.760099 0.174420 -0.295333 -0.855360 0.425602
0.601664 0.251698 0.086890 -0.253509 0.169275 -0.952407
0.582760 0.047711 0.250631 0.151306 0.988123 -0.026819
0.410147 0.616197 0.306960 0.564960 0.187626 -0.803503
0.576257 0.400387 0.149757 -0.688504 -0.093033 0.719240
0.396270 0.219846 0.124114 -0.174407 0.071398 0.982082
0.438904 0.541329 0.317428 0.643160 -0.561551 -0.520582
0.543201 0.032054 0.246666 -0.258855 -0.954828 -0.145933
0.508148 0.572616 0.144117 0.234489 0.190898 -0.953191
0.624205 0.111719 0.061526 -0.316647 0.177011 -0.931881
0.500972 0.755509 0.208531 -0.157120 -0.472339 0.867300
0.372902 0.041652 0.337269 0.161407 0.939426 0.302369
0.286165 0.101301 0.105042 0.302071 0.890869 -0.339272
0.528099 0.166809 0.117304 -0.049975 0.101668 -0.993562
0.306647 0.213047 0.086014 0.743215 -0.197296 0.639301
0.446762 0.537695 0.144754 -0.015509 0.053668 -0.998438
0.563014 0.588713 0.150032 0.041238 -0.090838 0.995012
0.433594 0.814985 0.246356 0.936741 -0.032835 0.348480
0.647462 0.758082 0.215428 -0.047408 -0.943930 0.326724
0.450500 0.680472 0.329809 -0.064299 0.026475 -0.997579
0.717843 0.765973 0.201748 -0.024573 -0.860351 0.509109
0.589191 0.031794 0.303028 -0.650175 0.755463 -0.080924
0.636075 0.174990 0.067772 -0.257364 0.174587 -0.950412
0.223104 0.116511 0.151033 0.620893 -0.561216 -0.547292
0.612047 0.173119 0.135826 -0.796507 -0.026254 0.604059
0.646571 0.100534 0.086336 0.224852 -0.972934 -0.053303
0.542745 0.041794 0.335250 -0.441449 0.810072 0.385883
0.265987 0.155594 0.057050 0.086856 0.070421 0.993729
0.257450 0.191429 0.131081 0.748751 -0.079445 0.658074
0.788489 0.747139 0.238045 -0.139185 -0.543196 -0.827989
0.454663 0.597238 0.234128 -0.058521 0.178389 0.982218
0.371409 0.638467 0.161479 -0.209960 -0.085669 0.973949
0.712036 0.333081 0.150553 -0.917770 -0.394265 -0.047480
0.461857 0.607722 0.318658 -0.119868 -0.119783 -0.985537
0.761896 0.122301 0.133165 0.669178 0.079269 -0.738862
0.471089 0.575648 0.235824 0.341702 -0.240453 0.908527
0.391187 0.168597 0.270194 -0.843262 0.238200 -0.481839
0.580365 0.096282 0.077591 -0.210710 0.752273 -0.624249
0.322320 0.322043 0.115535 0.319603 -0.048320 -0.946319
0.430643 0.808237 0.262996 0.993401 -0.003046 0.114653
0.428435 0.251104 0.127306 -0.090313 0.049932 0.994661
0.242619 0.176788 0.129076 -0.374042 0.119350 -0.919700
0.340240 0.615227 0.166362 -0.723868 0.395780 -0.565131
0.454274 0.684542 0.203513 -0.255745 0.219824 0.941420
0.592041 0.765708 0.243572 -0.239623 -0.970673 0.019344
0.692008 0.389590 0.148762 -0.919056 -0.391992 -0.040955
0.484040 0.693016 0.164834 -0.131167 -0.159948 0.978372
0.763635 0.191261 0.146394 0.948170 0.307417 0.080428
0.557474 0.467018 0.274161 -0.970132 -0.230541 -0.075465
0.375103 0.554579 0.150100 0.131850 -0.150820 0.979729
0.498166 0.918225 0.263594 -0.118595 -0.267825 -0.956141
0.462065 0.488732 0.300714 0.083378 0.388152 -0.917816
0.284564 0.100487 0.048647 0.793566 -0.097166 -0.600676
0.360733 0.182746 0.141693 0.321199 -0.023874 -0.946711
0.601742 0.187099 0.077627 -0.297218 0.172445 -0.939108
0.346744 0.238119 0.128590 0.340129 -0.049035 -0.939100
0.670013 0.119442 0.051794 -0.247415 0.178785 -0.952272
0.038587 0.737575 0.215099 0.691452 -0.722325 -0.011852
0.670168 0.176103 0.059866 -0.208215 0.175671 -0.962178
0.301774 0.272826 0.082325 -0.343504 0.068596 0.936643
0.456469 0.424612 0.274581 -0.919599 0.324852 -0.220929
0.596921 0.291717 0.114169 -0.942288 -0.056249 0.330044
0.350898 0.042686 0.321370 -0.303746 0.917600 0.256416
0.324460 0.337203 0.116645 0.107568 0.049342 -0.992973
0.490483 0.809297 0.249083 -0.966067 -0.095260 0.240085
0.415303 0.222470 0.125184 -0.125357 0.065621 0.989939
0.466488 0.473682 0.279526 -0.065542 0.962849 -0.261965
0.439640 0.718826 0.174819 0.243452 -0.086041 0.966089
0.383993 0.087504 0.273556 -0.743315 -0.180095 -0.644243
0.391770 0.648301 0.279761 0.984700 0.168701 0.043661
0.307496 0.440572 0.142577 -0.280620 0.109795 -0.953518
0.259596 0.211276 0.166006 -0.769063 0.104956 -0.630496
0.639736 0.392943 0.148451 -0.033763 -0.010600 0.999374
0.267200 0.181731 0.142308 -0.727300 0.024651 -0.685877
0.681369 0.242082 0.152620 -0.101522 -0.004056 0.994825
0.359588 0.737924 0.211121 -0.351497 -0.125032 0.927802
0.539896 0.187651 0.121054 -0.285794 0.102987 -0.952741
0.449023 0.826162 0.231013 0.302393 -0.042312 0.952244
0.458880 0.152700 0.147282 0.022323 0.049902 -0.998505
0.328458 0.581883 0.159440 -0.723946 0.355111 -0.591437
0.517797 0.556785 0.148506 0.032421 -0.134983 0.990317
0.714079 0.182455 0.103753 0.969999 0.087651 -0.226757
0.631326 0.112507 0.095105 -0.945056 0.039682 0.324490
0.374087 0.033863 0.283898 -0.212411 0.968257 0.131757
0.696801 0.702750 0.203529 0.241364 0.642080 0.727651
0.198723 0.719351 0.236811 0.147913 0.426042 -0.892530
0.646483 0.363951 0.137755 0.779312 0.183654 -0.599120
0.507716 0.547137 0.213401 -0.293742 -0.333086 0.895974
0.324453 0.442024 0.133046 0.623978 -0.236403 0.744826
0.533445 0.632084 0.296190 -0.914941 0.118075 -0.385928
0.724294 0.295675 0.152700 -0.459028 -0.036792 0.887660
0.520450 0.575584 0.304107 -0.601784 -0.104741 -0.791761
0.696811 0.217342 0.113268 0.958069 0.114970 -0.262460
0.510778 0.286911 0.122065 0.174690 0.085933 -0.980866
0.462314 0.093418 0.142703 0.027288 0.133349 -0.990693
0.350041 0.642006 0.170399 -0.707566 0.421154 -0.567432
0.564182 0.422354 0.123106 0.100078 -0.127414 0.986788
0.545775 0.738809 0.297582 -0.306531 -0.304525 -0.901833
0.571518 0.034126 0.249883 -0.060060 0.994929 0.080679
0.386672 0.276988 0.312187 0.002651 0.344753 -0.938690
0.355986 0.113381 0.124263 -0.002555 -0.755324 -0.655347
0.593291 0.633928 0.184271 -0.721686 -0.256045 -0.643125
0.305139 0.243963 0.078750 0.916332 -0.249744 0.312992
0.447253 0.176847 0.124397 -0.044430 0.077145 0.996029
0.595346 0.093406 0.155520 -0.709363 -0.607256 -0.357833
0.609203 0.518068 0.142581 0.407341 0.131725 0.903727
0.294980 0.402664 0.148559 0.651399 -0.159351 0.741813
0.538888 0.664227 0.174326 0.451177 0.235078 -0.860917
0.398513 0.464737 0.135499 -0.219491 -0.054710 0.974079
0.381713 0.566432 0.259854 -0.959183 -0.047454 -0.278777
0.658898 0.478236 0.144321 0.831811 0.286824 0.475208
0.560811 0.317112 0.287895 -0.998104 -0.018752 0.058620
0.533452 0.572713 0.257010 -0.934752 -0.016604 0.354913
0.373427 0.696753 0.163606 -0.506008 0.392705 -0.767945
0.451513 0.662768 0.329809 -0.057322 -0.225533 -0.972548
0.322306 0.321280 0.093596 -0.317973 0.038573 0.947315
0.580344 0.743425 0.277885 -0.554230 -0.068229 -0.829563
0.658492 0.107713 0.125726 0.190991 -0.948147 -0.254047
0.511643 0.699729 0.198646 0.040097 0.032487 0.998667
0.506919 0.353009 0.254793 0.788557 0.396236 0.470292
0.451765 0.526037 0.142788 -0.031408 0.051006 -0.998204
0.658441 0.480625 0.180502 -0.605626 -0.288885 -0.741460
0.454915 0.576511 0.151580 -0.057568 0.060700 -0.996495
0.358368 0.288422 0.113618 -0.270046 0.042813 0.961895
0.323490 0.134835 0.094608 -0.311355 0.127473 0.941705
0.724004 0.298822 0.166353 -0.905468 -0.412904 -0.098170
0.456020 0.896007 0.236038 0.019106 -0.466035 0.884560
0.724679 0.129568 0.040311 -0.162456 0.179625 -0.970228
0.502500 0.384997 0.239906 0.485578 0.298136 0.821784
0.531591 0.103182 0.140186 0.641902 0.566759 0.516474
0.575162 0.156371 0.075359 0.469905 -0.012290 0.882632
0.572878 0.035079 0.240743 -0.101887 0.988037 0.115766
0.654165 0.232912 0.153471 -0.263781 -0.009652 0.964534
0.545640 0.052658 0.111897 0.769148 -0.090526 0.632627
0.455368 0.611153 0.153103 0.209855 -0.132714 0.968684
0.394139 0.418663 0.144534 0.213447 0.010454 -0.976899
0.775244 0.112814 0.144990 -0.286132 0.440919 0.850717
0.493404 0.887220 0.307963 -0.851751 -0.275548 -0.445639
0.386448 0.699885 0.295700 0.872202 0.301861 -0.384893
0.536862 0.632380 0.282100 -0.995480 0.077869 -0.054375
0.196528 0.708356 0.209354 0.191185 0.729655 0.656546
0.328064 0.330427 0.096765 -0.310629 0.032290 0.949983
0.515195 0.697038 0.178102 0.330155 0.228202 -0.915927
0.740025 0.711868 0.195650 -0.141798 0.585610 0.798094
0.509668 0.765624 0.266324 -0.979228 -0.159891 0.124691
0.568170 0.257086 0.260963 -0.864860 -0.367602 0.341886
0.595433 0.604066 0.177089 0.342444 0.182567 -0.921630
0.654645 0.330948 0.151380 -0.065197 -0.002081 0.997870
0.436586 0.133935 0.121658 -0.073558 0.098402 0.992424
0.326278 0.524352 0.134186 0.207357 0.027489 -0.977879
0.663009 0.325279 0.100027 0.915502 0.234515 -0.326891
0.559767 0.752240 0.200249 0.965531 -0.178291 -0.189636
0.232048 0.691440 0.206674 -0.052914 0.812768 0.580180
0.457618 0.424248 0.259824 -0.929612 0.366962 0.034058
0.428497 0.623991 0.225934 0.186252 0.373958 0.908551
0.737594 0.684697 0.232028 -0.036578 0.814200 -0.579431
0.542013 0.080759 0.120911 0.774403 -0.079769 0.627643
0.341523 0.443268 0.125070 0.610066 -0.292555 0.736363
0.474353 0.772280 0.295588 -0.293730 -0.025777 -0.955541
0.743104 0.245739 0.152963 -0.916113 -0.392666 -0.080934
0.534283 0.292780 0.128764 -0.296693 0.092346 -0.950498
0.391718 0.377381 0.131458 -0.224878 -0.010103 0.974335
0.604983 0.074025 0.147273 -0.020115 -0.281317 0.959404
0.398707 0.768268 0.205051 -0.020068 0.056217 -0.998217
0.363890 0.516765 0.144838 0.145148 0.063037 -0.987400
0.409760 0.618985 0.307444 0.589653 0.257089 -0.765647
0.343296 0.275286 0.124020 0.341803 -0.056416 -0.938077
0.262092 0.139591 0.053480 0.077793 0.103064 0.991628
0.442198 0.830400 0.303814 0.878906 0.188772 -0.438052
0.594239 0.288308 0.095817 0.145894 -0.104607 0.983754
0.512083 0.648315 0.160356 0.257014 0.153721 -0.954104
0.382193 0.142639 0.145102 0.259885 -0.003233 -0.965634
0.529926 0.703761 0.178770 -0.081705 -0.053739 -0.995207
0.244578 0.758523 0.198246 -0.068135 -0.545614 0.835262
0.472469 0.680685 0.205603 0.262136 0.232281 0.936659
0.343225 0.185838 0.129065 0.353176 -0.052190 -0.934100
0.553443 0.157545 0.276710 0.429416 0.214067 -0.877369
0.389332 0.767493 0.280763 0.091289 -0.824451 -0.558522
0.766830 0.718028 0.201503 -0.317254 0.577792 0.752001
0.367551 0.171912 0.234585 0.232762 0.108727 0.966437
0.843363 0.729207 0.217953 -0.150140 0.982464 -0.110556
0.547081 0.563514 0.277787 0.433761 -0.038263 -0.900215
0.444518 0.861785 0.231646 0.393008 0.126016 0.910859
0.432508 0.139153 0.121728 -0.083907 0.097217 0.991720
0.448001 0.144742 0.122777 -0.043695 0.090751 0.994915
0.266133 0.080090 0.080077 0.936674 0.338218 0.090830
0.400481 0.586745 0.254141 0.875595 -0.133091 0.464349
0.552703 0.238959 0.112305 -0.308746 0.113742 -0.944319
0.709945 0.339322 0.185063 -0.838394 -0.397189 -0.373278
0.370030 0.582161 0.146309 0.203180 0.134922 -0.969801
0.257588 0.189461 0.062707 -0.300648 0.092330 0.949255
0.525847 0.755550 0.197059 0.228096 -0.866786 -0.443458
0.462616 0.758715 0.318955 0.509589 0.093773 0.855293
0.617968 0.127792 0.143477 -0.725249 -0.013734 0.688350
0.481753 0.796883 0.232936 -0.297856 -0.369225 0.880315
0.339268 0.365078 0.102900 -0.296548 0.011899 0.954944
0.285903 0.318502 0.154088 0.361782 0.004781 0.932251
0.520773 0.697050 0.199712 -0.336070 0.031582 0.941307
0.500434 0.918225 0.263158 -0.222482 -0.245957 -0.943402
0.684245 0.336709 0.148203 0.573189 0.165850 -0.802464
0.732039 0.695137 0.210699 -0.170741 0.798196 0.577695
0.402216 0.576068 0.225308 -0.993083 0.115626 -0.020412
0.755557 0.143517 0.044850 0.985989 0.095515 -0.136757
0.499161 0.768505 0.184000 -0.263005 -0.776938 -0.572010
0.567696 0.458937 0.124582 -0.159091 0.156465 -0.974787
0.574712 0.160112 0.075593 0.469031 -0.013326 0.883081
0.641047 0.341278 0.151489 -0.114651 -0.003669 0.993399
0.480435 0.573593 0.317375 -0.078571 -0.097162 -0.992162
0.409526 0.510940 0.223034 0.752597 -0.229928 0.617034
0.366080 0.353323 0.117762 -0.261038 0.009028 0.965286
0.441443 0.317626 0.131379 -0.054097 0.017864 0.998376
0.432415 0.377643 0.282611 -0.917513 0.331578 -0.219603
0.309793 0.510550 0.145910 -0.583979 0.118780 0.803032
0.455402 0.676559 0.331512 -0.006675 0.006083 0.999959
0.690265 0.737727 0.246532 0.065446 0.036829 -0.997176
0.873298 0.732111 0.236860 0.099510 0.835820 -0.539910
0.605680 0.267309 0.093307 -0.984409 -0.025526 0.174032
0.230614 0.751180 0.194709 0.010294 -0.451924 0.891997
0.375354 0.218866 0.122822 -0.244340 0.071090 0.967080
0.584665 0.641577 0.153121 -0.153187 -0.184381 0.970844
0.627410 0.098785 0.059499 -0.416616 0.900633 0.123655
0.474316 0.757977 0.295701 0.403621 -0.738475 -0.540133
0.333869 0.395041 0.111549 0.441400 -0.248432 0.862234
0.644148 0.110772 0.147834 0.193751 -0.916116 -0.350988
0.455956 0.691727 0.327850 -0.310910 -0.067171 -0.948063
0.539460 0.030814 0.264412 -0.457957 -0.886538 -0.065772
0.360046 0.033948 0.278198 0.014307 0.995573 0.092896
0.229063 0.162490 0.153476 0.753596 -0.013501 0.657199
0.400973 0.648193 0.307075 0.764322 0.132299 -0.631117
0.368523 0.041717 0.336350 -0.001989 0.953209 0.302305
0.493153 0.757077 0.311788 0.296675 0.149816 0.943154
0.497805 0.960856 0.253199 -0.473754 -0.253885 -0.843267
0.597561 0.285175 0.092651 -0.236387 0.167354 -0.957138
0.509226 0.765904 0.264805 -0.972054 -0.182595 0.147543
0.586392 0.305371 0.098184 -0.238355 0.165879 -0.956907
0.262185 0.187242 0.124892 0.751782 -0.090805 0.653129
0.325870 0.286103 0.095636 -0.312554 0.054434 0.948339
0.275004 0.217879 0.119562 0.740098 -0.119977 0.661711
0.548622 0.706766 0.165683 -0.032503 -0.135836 0.990198
0.175589 0.760720 0.219643 0.157819 -0.976531 -0.146560
0.727060 0.293154 0.138143 0.306757 -0.767888 -0.562360
0.689195 0.395212 0.147554 0.839744 0.307071 0.447814
0.622141 0.277149 0.085688 -0.206965 0.168558 -0.963719
0.373650 0.307422 0.266265 0.798249 -0.025825 0.601774
0.774049 0.740371 0.241002 -0.163208 -0.067129 -0.984305
0.724648 0.167406 0.045733 -0.136302 0.177169 -0.974696
0.317350 0.113043 0.123344 0.166390 -0.662495 -0.730353
0.391254 0.752252 0.177431 0.901398 -0.372196 0.221249
0.255562 0.171522 0.127675 0.757444 -0.075728 0.648493
0.541558 0.210503 0.120411 -0.291447 0.103635 -0.950957
0.499117 0.894773 0.240291 -0.753291 -0.140062 0.642600
0.252814 0.282805 0.160898 0.703424 -0.064804 0.707810
0.547573 0.669822 0.161801 0.017344 -0.096555 0.995177
0.431006 0.590476 0.155245 -0.009028 -0.105047 0.994426
0.380919 0.365270 0.125952 -0.241636 -0.001444 0.970366
0.761735 0.170843 0.160593 0.718326 0.052632 -0.693713
0.363169 0.156744 0.116527 -0.260659 0.104163 0.959795
0.445737 0.487281 0.292073 0.413812 0.532655 -0.738267
0.544681 0.463439 0.302306 -0.596756 -0.341241 -0.726249
0.678651 0.397909 0.169183 0.530836 0.133164 -0.836947
0.521628 0.061572 0.129969 -0.152499 0.137001 -0.978762
0.582775 0.294910 0.099810 0.181204 -0.103799 0.977952
0.310655 0.718929 0.206797 -0.094671 0.806847 0.583125
0.319046 0.715283 0.236096 0.032296 0.996485 -0.077292
0.302916 0.426215 0.142417 -0.285052 0.110500 -0.952121
0.298557 0.411795 0.147255 0.500044 -0.111125 0.858841
0.440287 0.934736 0.257277 -0.645480 -0.197357 -0.737838
0.477287 0.598578 0.234000 0.058471 0.211668 0.975591
0.622093 0.437197 0.147574 -0.040145 -0.012314 0.999118
0.261435 0.106578 0.077293 -0.696081 0.671265 0.254705
0.750260 0.102793 0.037675 0.985581 -0.157307 -0.062323
0.526150 0.580108 0.151284 0.145524 -0.113789 0.982789
0.728495 0.098799 0.036264 -0.138321 0.264271 -0.954478
0.768820 0.111789 0.144774 -0.312953 0.359170 0.879237
0.534965 0.517978 0.240577 -0.818643 -0.142261 0.556404
0.712186 0.210999 0.084932 0.964662 0.131523 -0.228316
0.386109 0.697113 0.289698 0.870760 0.395891 -0.291627
0.402215 0.554352 0.319268 -0.510349 -0.207675 0.834515
0.370699 0.701141 0.227316 0.887953 0.269515 0.372696
0.406337 0.768591 0.175827 0.131141 0.943371 -0.304718
0.464656 0.802988 0.232272 0.012558 -0.142763 0.989677
0.581316 0.170795 0.076855 0.247368 -0.084798 0.965204
0.185669 0.103086 0.145692 -0.347854 0.043547 -0.936537
0.546806 0.217449 0.116397 -0.298547 0.108699 -0.948185
0.282602 0.277765 0.145973 0.986462 -0.143842 -0.078753
0.500436 0.364681 0.256760 0.866109 0.396870 0.303889
0.525634 0.253276 0.264300 0.988715 0.119666 0.090123
0.272292 0.180900 0.147148 0.988650 -0.141272 -0.051113
0.397352 0.773986 0.191780 0.747953 -0.201820 0.632325
0.522097 0.628029 0.310845 -0.629134 0.211662 -0.747923
0.293792 0.109644 0.082602 -0.405551 0.539259 0.738057
0.645120 0.524836 0.184762 -0.800480 -0.326328 -0.502734
0.405288 0.770332 0.178811 0.129022 0.987246 -0.093267
0.429274 0.664664 0.323806 0.268439 -0.113921 -0.956537
0.256962 0.100897 0.078285 -0.420503 0.135211 -0.897160
0.571803 0.681396 0.167127 -0.879457 -0.468335 -0.084952
0.524177 0.558756 0.319629 0.711548 0.419654 0.563551
0.410297 0.167152 0.122083 -0.140245 0.090741 0.985950
0.212172 0.100883 0.148270 0.742981 -0.645950 -0.175296
0.222936 0.708729 0.221334 -0.030438 0.927270 -0.373154
0.222148 0.171932 0.145981 -0.115793 0.127673 0.985034
0.798601 0.737469 0.202871 -0.161180 0.140695 0.976845
0.748170 0.232454 0.155946 0.582350 0.315938 0.749034
0.675539 0.252626 0.069546 -0.147598 0.171095 -0.974136
0.367899 0.765489 0.277951 0.329302 -0.716836 -0.614578
0.541176 0.502522 0.242427 -0.836459 -0.250138 0.487614
0.615256 0.589773 0.176308 -0.854577 -0.389275 -0.343750
0.757811 0.147447 0.141593 0.678035 0.076898 -0.730996
0.870900 0.742158 0.214620 -0.119900 -0.297727 0.947091
0.338649 0.537262 0.133707 -0.106389 0.135243 -0.985084
0.473675 0.509307 0.200672 0.312128 -0.057726 0.948285
0.405791 0.748812 0.201611 0.000518 0.679669 -0.733519
0.715173 0.326277 0.138093 0.571780 -0.672373 -0.470087
0.648239 0.758292 0.217307 -0.066680 -0.963659 0.258680
0.523121 0.279106 0.294101 0.898893 0.191012 -0.394342
0.517769 0.760239 0.194835 -0.071045 0.334643 -0.939663
0.330265 0.371586 0.123275 0.267143 -0.013248 -0.963566
0.658627 0.094353 0.049288 0.157600 -0.203293 -0.966351
0.404712 0.763432 0.164453 0.087088 0.635472 -0.767197
0.704695 0.769108 0.210736 0.017083 -0.979129 0.202521
0.283512 0.282686 0.152154 0.913105 -0.132210 0.385695
0.476263 0.446192 0.144015 0.005840 0.034359 -0.999393
0.300360 0.169377 0.093237 0.279549 -0.052238 -0.958709
0.429834 0.325072 0.131193 -0.083850 0.017547 0.996324
0.384211 0.146882 0.145183 0.253372 -0.001410 -0.967368
0.652793 0.333083 0.151379 -0.070471 -0.002242 0.997511
0.466980 0.765503 0.175527 -0.059151 -0.905470 0.420269
0.368989 0.116985 0.117465 -0.246471 0.121587 0.961493
0.581430 0.178326 0.271109 -0.873244 0.122970 -0.471512
0.862050 0.730539 0.229293 -0.308461 0.951205 0.007758
0.053234 0.712529 0.247586 0.181422 -0.229712 -0.956200
0.301473 0.244999 0.098716 0.730632 -0.181140 0.658305
0.434229 0.764753 0.167657 0.242887 0.868729 -0.431642
0.306725 0.229852 0.101220 0.410041 -0.110332 -0.905369
0.357611 0.025457 0.341017 -0.229017 -0.943421 0.239807
0.444195 0.761732 0.196752 -0.394884 -0.918578 0.016734
0.574769 0.095477 0.113629 -0.017122 -0.915052 0.402972
0.482623 0.405616 0.250027 0.822122 0.412690 0.392177
0.445648 0.687168 0.200980 -0.075074 0.239414 0.968011
0.079415 0.714226 0.244210 -0.299365 0.934079 -0.194623
0.349874 0.043240 0.237561 0.886376 -0.040037 0.461232
0.723279 0.182428 0.083769 0.973049 0.103637 -0.205997
0.469356 0.793862 0.284699 -0.088400 0.288633 -0.953350
0.373543 0.778739 0.247220 -0.017468 -0.983391 -0.180657
0.356187 0.542992 0.143106 0.062887 0.106750 -0.992295
0.366581 0.404136 0.295379 0.963378 -0.127155 -0.236081
0.512613 0.353472 0.247205 0.468498 0.386265 0.794550
0.558692 0.757293 0.196735 -0.173357 -0.221786 0.959562
0.496821 0.428626 0.128788 0.266721 -0.008172 0.963739
0.547507 0.136663 0.113380 -0.286042 0.113160 -0.951512
0.690867 0.393007 0.143832 -0.922304 -0.385413 -0.028497
0.315865 0.304751 0.113458 0.300165 -0.038018 -0.953129
0.706270 0.349228 0.150902 -0.917336 -0.396031 -0.040667
0.402667 0.756490 0.191886 0.294042 -0.432055 -0.852565
0.406926 0.745456 0.309220 0.294015 -0.234835 -0.926503
0.530367 0.154348 0.116930 -0.084693 0.103387 -0.991029
0.388260 0.188301 0.145209 0.239233 0.002637 -0.970959
0.457441 0.098642 0.144104 0.032467 0.122735 -0.991908
0.358458 0.042708 0.225796 -0.613455 0.066183 -0.786952
0.402542 0.618069 0.243783 0.837838 0.355484 0.414317
0.445638 0.360517 0.133799 -0.041602 -0.001696 0.999133
0.152380 0.758129 0.211100 0.157363 -0.985753 0.059391
0.568835 0.399997 0.115879 -0.198186 0.160048 -0.967009
0.372180 0.727071 0.291484 0.699346 0.388287 -0.600123
0.306112 0.747840 0.259320 0.243322 -0.614530 -0.750432
0.449871 0.695887 0.200139 -0.228463 0.143450 0.962926
0.262229 0.237034 0.147660 -0.428265 0.119631 0.895699
0.660770 0.107478 0.123703 0.189478 -0.950760 -0.245262
0.624358 0.398840 0.124959 0.869919 0.285505 -0.402154
0.249334 0.109551 0.091957 0.293164 -0.677995 -0.674076
0.542319 0.254968 0.105837 0.539078 0.008802 0.842210
0.694221 0.694745 0.235571 0.160724 0.634031 -0.756421
0.525133 0.141479 0.114591 0.019226 0.100587 -0.994743
0.706557 0.348502 0.161975 -0.908599 -0.401774 -0.114129
0.777601 0.113372 0.145946 -0.300171 0.534941 0.789769
0.267315 0.314749 0.141197 -0.319243 0.115901 -0.940559
0.304611 0.486020 0.145759 -0.569121 0.118319 0.813696
0.372687 0.107996 0.238877 -0.211333 -0.008411 0.977378
0.275952 0.209126 0.142447 0.790692 -0.286241 -0.541176
0.443503 0.917896 0.260445 -0.663942 -0.302000 -0.684088
0.548688 0.035967 0.224433 -0.628742 -0.183229 -0.755719
0.732242 0.275333 0.167664 -0.904558 -0.418020 -0.083868
0.732708 0.131208 0.038646 -0.149822 0.179624 -0.972260
0.557416 0.225405 0.108099 -0.311838 0.119200 -0.942629
0.633981 0.547319 0.139401 -0.923622 -0.377570 -0.066058
0.326812 0.501231 0.146916 0.591868 -0.238939 0.769805
0.357901 0.067268 0.237448 0.864222 -0.298385 0.405076
0.550115 0.032632 0.347300 -0.380058 -0.052771 0.923456
0.312379 0.105526 0.124214 0.412815 0.748177 -0.519436
0.269161 0.231670 0.149663 -0.427575 0.124111 0.895419
0.254529 0.251287 0.150490 0.719489 -0.070170 0.690949
0.320898 0.725065 0.202656 -0.186354 0.526908 0.829241
0.267602 0.206050 0.120831 -0.375873 0.115566 -0.919437
0.819507 0.727435 0.209101 0.289752 0.946209 0.143991
0.491623 0.527825 0.306212 -0.204118 0.314910 -0.926913
0.479078 0.635263 0.324463 0.015129 0.041988 -0.999004
0.565163 0.437966 0.146228 -0.874430 -0.144027 0.463279
0.374368 0.034389 0.326514 0.775500 0.541557 -0.324523
0.619362 0.058310 0.147737 0.333690 -0.238184 -0.912096
0.309822 0.141324 0.087031 -0.329111 0.128806 0.935465
0.864326 0.712568 0.242303 0.186095 0.089916 0.978409
0.401666 0.365733 0.145124 0.190949 0.016450 -0.981462
0.481713 0.477218 0.283572 0.571688 0.244893 -0.783071
0.712988 0.330802 0.145724 -0.921511 -0.384828 -0.052197
0.540573 0.539267 0.143787 0.074377 0.239076 -0.968148
0.411411 0.384616 0.133190 -0.143067 -0.008085 0.989680
0.418719 0.525873 0.140371 -0.155781 -0.082501 0.984340
0.438894 0.880543 0.313680 0.738266 -0.411730 -0.534268
0.603714 0.417077 0.150782 -0.158328 -0.004515 0.987376
0.773510 0.161227 0.143320 -0.921964 -0.367381 -0.122528
0.197951 0.104970 0.139141 -0.350816 0.014131 -0.936338
0.404142 0.224017 0.266160 -0.962870 -0.044169 -0.266328
0.227583 0.687767 0.206909 0.218202 0.830460 0.512566
0.693023 0.366751 0.152330 -0.514913 -0.109638 0.850202
0.695114 0.209108 0.152988 -0.095354 -0.004124 0.995435
0.320631 0.456606 0.138363 -0.281213 0.107809 -0.953570
0.430232 0.213401 0.147163 0.102883 0.039724 -0.993900
0.545331 0.748024 0.294020 -0.237429 -0.394329 -0.887768
0.633175 0.758813 0.239514 -0.140695 -0.868230 -0.475795
0.534699 0.273308 0.253309 0.044957 -0.310526 0.949501
0.292689 0.133469 0.087798 0.314953 -0.074949 -0.946143
0.273322 0.150245 0.102945 0.770528 -0.118362 0.626320
0.716769 0.319927 0.151025 0.891305 0.349694 0.288597
0.741872 0.134252 0.036914 -0.134596 0.179509 -0.974505
0.423039 0.561817 0.220312 0.243313 -0.505343 0.827906
0.563898 0.494696 0.147597 -0.662454 -0.110566 0.740898
0.408094 0.759967 0.292926 0.184348 -0.500029 -0.846160
0.306183 0.479858 0.143655 0.462803 -0.129470 0.876955
0.692817 0.255536 0.132573 0.795860 0.116400 -0.594186
0.436198 0.769781 0.178332 0.144986 -0.985157 0.091895
0.461636 0.574049 0.144554 0.251318 -0.134185 0.958558
0.495949 0.633744 0.157272 0.223260 0.181007 -0.957805
0.277588 0.344891 0.151379 0.678172 -0.120949 0.724882
0.474549 0.769140 0.208668 -0.043218 -0.722135 0.690400
0.638656 0.110981 0.150579 0.198285 -0.911280 -0.360903
0.275387 0.212885 0.117794 0.742495 -0.121064 0.658820
0.590739 0.449632 0.119832 0.407972 0.281046 -0.868661
0.641235 0.154906 0.155437 -0.483263 -0.017761 0.875295
0.751169 0.225557 0.140908 0.878744 -0.248026 -0.407789
0.484974 0.431402 0.132079 0.270399 -0.010203 0.962694
0.477655 0.893397 0.234124 -0.006476 -0.459267 0.888275
0.481359 0.687523 0.164582 0.364644 0.176493 -0.914267
0.375738 0.137237 0.238331 -0.359036 0.107672 0.927092
0.321338 0.735898 0.269027 0.232606 0.025574 -0.972235
0.737906 0.695631 0.235668 -0.151730 0.681253 -0.716151
0.356091 0.578005 0.142186 -0.048491 0.178439 -0.982755
0.599046 0.241720 0.142366 -0.800463 -0.061170 0.596252
0.399985 0.468419 0.306715 0.135890 -0.303387 -0.943128
0.462916 0.554413 0.318537 -0.010849 0.056544 -0.998341
0.272337 0.182146 0.147254 0.905593 -0.116839 -0.407738
0.472925 0.129910 0.121864 0.070266 0.079247 0.994376
0.365045 0.354767 0.303100 0.956374 -0.009819 -0.291979
0.300662 0.387716 0.136494 -0.303826 0.110868 -0.946255
0.736841 0.187196 0.050448 0.975351 0.135096 -0.174468
0.481978 0.223614 0.124051 0.230877 0.015131 0.972865
0.489476 0.820827 0.309333 -0.781702 0.587611 -0.208939
0.530104 0.583886 0.253977 -0.890940 -0.155108 0.426811
0.568394 0.097506 0.085521 -0.321320 0.244041 -0.914985
0.389606 0.717850 0.304668 0.591522 -0.045957 -0.804978
0.751753 0.217034 0.177589 -0.401449 -0.448865 -0.798348
0.617350 0.135436 0.140480 -0.747541 -0.014289 0.664062
0.716530 0.276435 0.142639 -0.159146 0.013515 0.987163
0.345513 0.620855 0.152768 -0.555974 0.329326 -0.763176
0.287215 0.099398 0.081492 0.159689 0.022226 0.986917
0.667844 0.244779 0.152889 -0.167013 -0.006261 0.985935
0.475490 0.465293 0.278615 0.856200 -0.047345 -0.514470
0.499116 0.541215 0.131027 0.350752 0.229429 -0.907929
0.398166 0.542502 0.290403 0.886722 -0.002671 -0.462295
0.482752 0.245814 0.124689 0.239752 0.011348 0.970768
0.227068 0.148469 0.132330 -0.378077 0.121654 -0.917746
0.600368 0.221141 0.151967 -0.735308 -0.060088 0.675064
0.399288 0.334690 0.255202 -0.017014 0.372025 0.928067
0.399178 0.596545 0.285003 0.962805 0.049520 -0.265622
0.784900 0.095684 0.143810 -0.364885 -0.930456 -0.033341
0.635521 0.286995 0.152773 -0.252697 -0.008808 0.967505
0.285104 0.317326 0.131931 -0.330095 0.113189 -0.937137
0.220061 0.712007 0.234186 -0.010802 0.709505 -0.704618
0.554884 0.753605 0.176109 -0.995840 -0.068491 0.060096
0.455088 0.774774 0.181325 0.102255 -0.994164 0.034376
0.402363 0.764317 0.172865 0.752913 -0.172487 0.635115
0.703084 0.301082 0.143718 -0.012079 0.053228 0.998509
0.236797 0.185854 0.151588 0.745406 -0.030798 0.665898
0.510148 0.086720 0.134664 -0.041738 -0.126738 -0.991058
0.478589 0.853845 0.229140 -0.149065 0.112832 0.982369
0.507845 0.307280 0.141775 0.642813 0.059592 0.763702
0.263374 0.281950 0.140540 -0.352056 0.101850 0.930421
0.465566 0.778813 0.219127 -0.000248 -0.644566 0.764549
0.291145 0.450362 0.165633 0.625377 -0.147943 0.766170
0.497244 0.390414 0.127036 0.269797 0.004524 0.962907
0.299387 0.135609 0.071165 0.779230 -0.179531 0.600475
0.539160 0.702295 0.165914 -0.000449 -0.101195 0.994866
0.399412 0.571269 0.227057 -0.995903 0.063165 -0.064710
0.455676 0.389992 0.136023 0.004602 -0.014011 0.999891
0.615665 0.441619 0.148622 -0.057956 -0.007837 0.998288
0.546144 0.766161 0.233347 0.022948 -0.848124 0.529300
0.613280 0.593320 0.167352 -0.880611 -0.401230 -0.252070
0.556942 0.696423 0.185976 0.058646 0.087707 -0.994419
0.387877 0.560546 0.239470 0.853151 -0.506621 -0.124374
0.370968 0.387050 0.120402 -0.255068 -0.008811 0.966883
0.549622 0.721150 0.166993 -0.549425 -0.299546 0.780003
0.487949 0.595199 0.232601 -0.058714 0.122304 0.990754
0.563782 0.726276 0.279281 -0.593664 0.582682 -0.555017
0.277555 0.236679 0.121073 -0.366844 0.114137 -0.923254
0.302575 0.752322 0.253545 0.198385 -0.765169 -0.612502
0.412861 0.562426 0.225179 0.520372 -0.464557 0.716519
0.491557 0.441901 0.130767 0.267333 -0.013060 0.963516
0.451434 0.863700 0.314946 -0.054473 0.115988 -0.991756
0.681902 0.414926 0.147195 0.824577 0.299576 0.479925
0.416067 0.616311 0.311010 0.444794 0.323093 -0.835326
0.592632 0.765931 0.295642 0.105230 0.612178 0.783687
0.593334 0.040097 0.290240 0.249341 0.966953 0.053213
0.727505 0.209667 0.150524 0.232635 0.043778 0.971578
0.387118 0.047489 0.253801 0.018514 0.999629 0.019961
0.500866 0.663544 0.165635 0.001030 -0.117701 0.993049
0.576023 0.042913 0.318386 0.261987 0.937959 0.227149
0.679057 0.257735 0.069536 -0.117258 0.180709 -0.976522
0.572196 0.274126 0.107939 0.093527 -0.143125 0.985276
0.487029 0.516574 0.199730 -0.069032 -0.150711 0.986165
0.410104 0.695164 0.199422 0.291851 0.047419 0.955288
0.373310 0.183908 0.231843 -0.047637 0.097390 0.994106
0.607464 0.714199 0.248045 0.019151 0.992073 -0.124194
0.266593 0.262020 0.163087 -0.733307 0.127421 -0.667850
0.303216 0.725578 0.199525 -0.035436 0.565111 0.824253
0.430305 0.671150 0.324137 0.229012 0.267982 -0.935809
0.503828 0.400729 0.139228 0.594445 0.016614 0.803964
0.330559 0.373542 0.109800 0.814767 -0.308622 0.490823
0.313064 0.265577 0.106736 0.376739 -0.087304 -0.922196
0.463118 0.146776 0.123624 -0.004773 0.085803 0.996301
0.314477 0.372367 0.126073 -0.321408 0.108761 -0.940674
0.738050 0.258891 0.171786 -0.900898 -0.421724 -0.102625
0.584980 0.323880 0.143447 -0.837610 -0.096350 0.537705
0.427778 0.480379 0.299734 -0.322671 -0.190390 -0.927165
0.503487 0.865190 0.287572 -0.838567 -0.518791 -0.166319
0.241727 0.104064 0.061325 -0.780750 0.619642 0.080454
0.712737 0.108639 0.087089 0.936371 -0.335554 -0.103022
0.364718 0.317573 0.117076 -0.262242 0.026718 0.964632
0.317637 0.382468 0.115953 0.869809 -0.277014 0.408285
0.636764 0.169493 0.155235 -0.477651 -0.017445 0.878377
0.650473 0.716832 0.239267 -0.145328 0.985645 -0.085933
0.618825 0.137147 0.132575 -0.792992 -0.007724 0.609183
0.504771 0.754316 0.189798 -0.130730 -0.448433 -0.884205
0.453680 0.552985 0.323744 -0.194742 -0.307048 -0.931556
0.413225 0.761904 0.166402 0.095097 0.518178 -0.849970
0.307028 0.497410 0.150589 0.388545 -0.044463 0.920356
0.757052 0.707775 0.214385 -0.319529 0.859976 0.397922
0.350452 0.162847 0.247213 0.870846 0.133187 0.473168
0.366520 0.116087 0.150347 0.117815 -0.574749 -0.809804
0.582327 0.037892 0.245213 -0.929571 0.263701 0.257605
0.774634 0.159682 0.150853 0.789439 -0.487068 -0.373566
0.539190 0.763187 0.287130 -0.143278 -0.704843 -0.694743
0.282655 0.719035 0.207380 -0.055383 0.911896 0.406668
0.526148 0.516295 0.141988 0.079535 -0.134277 0.987747
0.601935 0.470515 0.143291 0.721693 0.291933 -0.627643
0.513467 0.458092 0.305988 0.235718 -0.254659 -0.937863
0.629933 0.143855 0.077701 -0.988579 0.040973 0.145028
0.435241 0.103384 0.141062 -0.324533 -0.747627 -0.579424
0.457314 0.732390 0.319217 0.121340 -0.036302 -0.991947
0.555327 0.142332 0.099440 0.566658 0.041949 0.822884
0.653831 0.719032 0.227634 -0.030992 0.999022 -0.031536
0.268340 0.152487 0.133668 -0.684983 -0.034492 -0.727742
0.520654 0.678884 0.174307 0.377253 0.248018 -0.892282
0.263636 0.103292 0.048158 0.965285 0.256892 0.047237
0.525850 0.768410 0.195330 0.114907 -0.719442 -0.684981
0.661786 0.476439 0.162991 -0.890988 -0.366412 -0.268108
0.449934 0.578899 0.146582 0.196865 -0.134176 0.971206
0.391799 0.183638 0.239046 -0.611894 0.276832 0.740911
0.579293 0.387833 0.120692 -0.948265 -0.100793 0.301055
0.237616 0.105620 0.109633 -0.365341 0.442904 -0.818756
0.446161 0.641588 0.157063 0.244545 -0.089138 0.965532
0.247165 0.269190 0.142487 -0.142671 0.117622 0.982756
0.380650 0.648881 0.173100 0.329727 -0.199169 0.922828
0.435310 0.757457 0.195791 0.014352 -0.511597 -0.859106
0.725609 0.766483 0.232776 -0.070302 -0.948540 -0.308755
0.527086 0.701129 0.315221 -0.642882 0.056110 -0.763908
0.478711 0.409575 0.259759 0.903537 0.428335 0.012261
0.516803 0.444612 0.311132 0.280639 -0.166432 -0.945274
0.707858 0.211375 0.056344 -0.007951 0.208113 -0.978072
0.400915 0.220508 0.239039 -0.722253 -0.103838 0.683790
0.546796 0.352020 0.120492 -0.320571 0.102401 -0.941673
0.637619 0.271195 0.081174 -0.188986 0.169290 -0.967277
0.280339 0.070658 0.080301 0.520817 0.251958 0.815639
0.650001 0.453868 0.145272 -0.413608 -0.135543 0.900309
0.768840 0.734431 0.197171 -0.220036 0.081380 0.972091
0.739434 0.147670 0.127645 0.793343 0.075785 -0.604039
0.264708 0.161040 0.142714 -0.739576 0.013867 -0.672930
0.370075 0.353256 0.273028 0.957758 0.053569 0.282540
0.653560 0.319267 0.084979 0.131439 0.233296 -0.963482
0.663824 0.469680 0.131818 -0.902489 -0.430698 -0.003659
0.579482 0.134479 0.072039 0.467511 -0.010094 0.883929
0.594024 0.097235 0.066413 0.154344 0.292476 0.943735
0.499104 0.364627 0.125432 0.271326 0.013244 0.962396
0.674513 0.439482 0.181319 -0.677140 -0.343873 -0.650563
0.469675 0.104755 0.143547 0.016786 0.093684 -0.995461
0.671545 0.106857 0.049631 -0.253861 0.179499 -0.950439
0.276203 0.107941 0.079876 -0.599790 0.647370 0.470281
0.589743 0.029650 0.281051 0.354370 -0.928088 -0.114348
0.548937 0.040015 0.272929 0.900754 0.416330 0.123742
0.245945 0.130260 0.176055 -0.830568 0.083295 -0.550652
0.502228 0.699987 0.170516 0.121143 -0.062531 0.990664
0.544672 0.737734 0.197115 -0.126083 -0.638096 0.759563
0.377705 0.460897 0.246778 0.865887 -0.094699 0.491194
0.758615 0.172747 0.157170 0.707493 0.060483 -0.704128
0.376337 0.104994 0.138892 0.376514 0.743378 -0.552834
0.472529 0.703543 0.324617 0.245962 -0.255003 -0.935134
0.430373 0.795397 0.262661 0.968032 -0.049712 0.245851
0.526457 0.255255 0.286008 0.832755 0.327040 -0.446725
0.336287 0.456073 0.133162 0.049367 0.091721 -0.994560
0.758637 0.204017 0.152175 -0.730829 -0.674920 -0.101841
0.406683 0.111206 0.136816 -0.167557 0.512493 0.842185
0.465831 0.727021 0.203986 0.075101 -0.142230 0.986980
0.636780 0.113232 0.059272 -0.746961 0.009726 0.664797
0.717587 0.280050 0.159031 0.642872 0.117422 -0.756920
0.309641 0.265496 0.097613 0.718093 -0.203562 0.665511
0.333945 0.750411 0.207979 -0.063314 -0.438663 0.896419
0.285232 0.386498 0.154554 0.658146 -0.137139 0.740295
0.478727 0.333414 0.144831 0.007712 0.031889 -0.999462
0.577408 0.196932 0.091144 -0.329542 0.140937 -0.933562
0.482143 0.572383 0.317449 -0.122649 -0.089505 -0.988406
0.230883 0.105377 0.082098 0.557015 -0.358341 -0.749217
0.624577 0.360709 0.097293 -0.091741 0.187922 -0.977890
0.553438 0.085970 0.243308 0.845741 -0.012030 0.533458
0.755608 0.210175 0.158990 -0.911321 -0.401612 -0.090564
0.744756 0.689134 0.230811 -0.170616 0.833031 -0.526261
0.547488 0.733226 0.176141 0.178228 -0.094804 -0.979412
0.390759 0.647605 0.245082 0.901797 0.412120 0.130072
0.398239 0.773297 0.291100 -0.514945 -0.793404 -0.324566
0.463430 0.346240 0.134696 0.124334 0.012359 0.992163
0.387539 0.658207 0.231239 0.728376 0.474874 0.493926
0.318265 0.150549 0.113325 0.402685 -0.090667 -0.910837
0.460226 0.734143 0.195546 -0.057505 0.445322 0.893522
0.438203 0.585742 0.154823 0.016137 -0.100486 0.994808
0.523478 0.536585 0.144715 0.101236 -0.129094 0.986451
0.426817 0.869809 0.272290 0.998305 0.030305 -0.049686
0.340688 0.029913 0.277295 -0.478454 -0.862337 -0.165703
0.590325 0.459385 0.122954 0.547082 0.315676 -0.775274
0.461799 0.482148 0.205086 -0.354822 0.301547 0.884969
0.398764 0.765462 0.298549 0.142042 -0.545550 -0.825953
0.428205 0.886081 0.246227 0.942967 -0.114068 0.312732
0.529651 0.507392 0.297682 -0.571300 -0.092160 -0.815551
0.086403 0.734428 0.191102 -0.171402 0.152715 0.973293
0.556125 0.237139 0.294623 -0.013366 0.143982 -0.989490
0.417701 0.768396 0.163279 -0.080795 0.813544 -0.575863
0.629216 0.093108 0.087321 -0.957557 0.012540 -0.287971
0.476495 0.549656 0.323347 -0.428730 -0.614727 -0.662043
0.533368 0.398849 0.132722 -0.313016 0.086452 -0.945805
0.527758 0.449738 0.133167 -0.151741 -0.181132 0.971682
0.591648 0.766693 0.295098 0.106294 0.630514 0.768865
