0.037929 0.687876 0.108294 -0.866211 -0.160838 -0.473085
0.140889 0.640272 0.077735 0.109147 0.382896 -0.917321
0.147671 0.492010 0.064541 0.133179 -0.069598 -0.988645
0.197452 0.881619 0.112847 0.936660 0.101558 0.335194
0.155589 0.834010 0.102987 0.694674 0.665275 -0.273566
0.197028 0.800960 0.124025 -0.886664 0.451789 0.098555
0.161368 0.085772 0.094666 0.910396 0.072712 0.407298
0.092361 0.135170 0.076054 -0.988738 -0.121975 -0.086710
0.122188 0.453228 0.127854 0.938258 -0.138385 0.317051
0.188363 0.891174 0.072977 0.590941 0.412867 -0.693058
0.083590 0.551896 0.154004 -0.299973 0.042395 0.953005
0.063693 0.855569 0.089152 -0.637367 -0.728461 -0.251212
0.087725 0.666484 0.107135 -0.692027 0.618048 -0.372982
0.103380 0.385645 0.096948 0.286313 -0.183590 -0.940383
0.158774 0.486356 0.082057 0.003704 -0.155831 -0.987777
0.158566 0.129798 0.108477 0.705946 -0.108723 0.699871
0.141897 0.947396 0.156619 0.305928 0.646212 0.699155
0.101888 0.855233 0.120688 -0.961602 0.259421 0.089568
0.149454 0.946511 0.152300 0.638760 0.586366 0.498158
0.162000 0.832920 0.085753 0.416916 -0.905232 -0.082077
0.128062 0.925516 0.152448 -0.136781 -0.513041 0.847396
0.065263 0.639496 0.118407 0.988586 0.067918 0.134481
0.134986 0.476660 0.092430 -0.590187 -0.061147 -0.804948
0.125550 0.288599 0.091307 0.868716 0.130988 -0.477676
0.115067 0.355745 0.118310 0.956446 -0.259180 -0.134304
0.079524 0.365582 0.099267 -0.489003 -0.175903 -0.854362
0.043008 0.800668 0.118191 -0.424754 0.850112 0.311279
0.049370 0.548463 0.116066 0.625053 -0.183395 -0.758733
0.111549 0.643455 0.145966 -0.191540 0.305371 0.932771
0.228659 0.702012 0.103831 0.727134 -0.079623 -0.681863
0.081922 0.332965 0.087263 -0.296739 0.285509 -0.911280
0.140345 0.911687 0.139186 -0.163743 -0.582724 0.796003
0.224001 0.745407 0.096889 0.539469 -0.046109 -0.840742
0.043143 0.437237 0.098007 -0.941978 -0.042215 -0.333009
0.232385 0.488493 0.120756 -0.973396 0.214304 0.081075
0.210443 0.659800 0.110209 -0.614294 0.344459 -0.709924
0.089346 0.883407 0.106461 -0.927866 -0.257581 -0.269660
0.108684 0.701370 0.153139 -0.215047 -0.448840 0.867351
0.187663 0.633501 0.133500 0.628379 0.393852 0.670836
0.026912 0.488938 0.126555 0.976301 0.022859 -0.215205
0.198037 0.862366 0.078508 0.802335 -0.546451 -0.240103
0.041002 0.800495 0.107477 -0.066578 0.958406 -0.277535
0.202656 0.771926 0.110193 0.981751 -0.148746 -0.118488
0.198654 0.770309 0.134047 -0.723785 0.016600 0.689826
0.077499 0.335086 0.089526 -0.467691 0.280076 -0.838345
0.090352 0.599891 0.064880 -0.272795 0.310727 -0.910512
0.084552 0.918627 0.132314 -0.977135 0.119765 0.175680
0.088516 0.880703 0.119005 -0.950797 -0.301942 -0.069402
0.167266 0.835810 0.116622 0.394486 -0.914850 0.086202
0.213388 0.775119 0.093754 0.080951 0.072101 -0.994107
0.146075 0.348180 0.145445 -0.080422 0.143306 0.986405
0.062533 0.431861 0.083736 -0.703406 -0.061824 -0.708094
0.071744 0.523536 0.153557 -0.344557 0.036893 0.938040
0.213032 0.644556 0.133930 -0.600430 0.099874 0.793416
0.204284 0.548501 0.092873 0.896555 -0.231537 -0.377596
0.071473 0.949923 0.122293 -0.890670 0.401432 0.213447
0.219614 0.518007 0.115545 0.486138 -0.020046 0.873652
0.174532 0.753468 0.183851 0.503608 -0.164284 0.848168
0.071630 0.392981 0.140387 -0.541387 -0.174860 0.822389
0.122223 0.557235 0.056512 -0.039541 -0.004721 -0.999207
0.075307 0.442421 0.146565 -0.387170 -0.136608 0.911832
0.154756 0.879605 0.124047 -0.369910 -0.430153 0.823490
0.088925 0.887480 0.103128 -0.896584 -0.167601 -0.409936
0.127637 0.242633 0.092210 0.985645 0.062251 -0.156935
0.088935 0.844127 0.141814 0.488711 -0.572233 0.658567
0.125880 0.070212 0.080816 0.971688 -0.100344 0.213901
0.199102 0.748452 0.132686 -0.767212 -0.090340 0.634999
0.040066 0.579787 0.119183 -0.935496 0.232852 0.265758
0.077147 0.434876 0.146454 -0.340146 -0.141595 0.929651
0.103052 0.629604 0.147532 -0.225614 0.276358 0.934197
0.210346 0.793135 0.096451 0.064689 0.350822 -0.934205
0.122291 0.232779 0.103828 -0.994693 -0.069348 0.076010
0.198875 0.510284 0.119691 0.947280 -0.243710 0.208005
0.111256 0.880415 0.085631 -0.230497 0.080734 -0.969718
0.199793 0.465244 0.137821 0.822703 -0.076264 0.563332
0.213888 0.496069 0.110632 0.984546 -0.107049 -0.138597
0.191479 0.550700 0.153295 0.326812 0.034289 0.944467
0.180636 0.452925 0.155327 0.473286 -0.029545 0.880413
0.100737 0.797863 0.150390 -0.305764 0.447197 0.840549
0.120156 0.281085 0.112122 -0.981814 -0.071441 0.175893
0.061209 0.599700 0.080998 -0.609083 0.379621 -0.696351
0.055739 0.768200 0.117950 -0.966293 -0.191505 0.172055
0.091766 0.179779 0.104975 -0.428522 -0.224912 0.875090
0.145681 0.961974 0.135022 0.614923 0.724966 0.310313
0.230332 0.602890 0.132400 0.583652 -0.043730 0.810826
0.127805 0.840745 0.093132 0.110980 0.183357 -0.976762
0.127741 0.865435 0.138707 0.082080 0.054513 0.995134
0.039211 0.655568 0.121464 -0.811806 0.562751 0.155828
0.185834 0.695562 0.097352 0.665019 -0.370106 -0.648669
0.124024 0.483488 0.130447 0.907068 -0.118707 0.403901
0.206580 0.709507 0.135656 -0.423672 -0.113241 0.898709
0.135013 0.828733 0.057613 0.250754 -0.955627 -0.154594
0.151349 0.921632 0.161965 0.404548 0.158439 -0.900687
0.168472 0.143083 0.092319 0.990450 -0.031240 -0.134290
0.093748 0.352851 0.101243 -0.032986 -0.238037 -0.970696
0.086655 0.044318 0.089790 -0.870548 -0.417119 -0.261069
0.127382 0.434873 0.134742 -0.813468 -0.037652 0.580389
0.084664 0.881666 0.046726 -0.590442 0.142259 -0.794443
0.031836 0.525944 0.123878 -0.961715 -0.049884 -0.269474
0.128758 0.251995 0.083428 -0.595858 0.026649 -0.802648
0.113113 0.864142 0.166529 -0.596424 -0.338904 0.727614
0.214794 0.504207 0.124508 0.536334 -0.608185 -0.585198
0.211609 0.797908 0.098337 0.138419 0.464843 -0.874506
0.115717 0.956482 0.145517 -0.077006 0.845649 0.528154
0.086588 0.927163 0.138196 -0.963935 0.220949 0.148362
0.152359 0.642157 0.080129 0.202804 0.393081 -0.896860
0.063633 0.726376 0.107662 -0.930094 -0.308589 -0.199243
0.060940 0.722247 0.134080 0.518935 -0.032766 0.854185
0.093336 0.064620 0.097835 -0.565568 0.431055 0.703082
0.139123 0.477597 0.158692 0.105294 0.025918 0.994103
0.101375 0.877947 0.032418 -0.498780 0.277021 -0.821266
0.074310 0.488263 0.154540 -0.295457 0.031189 0.954847
0.150100 0.875006 0.043174 0.476968 0.263039 -0.838637
0.207050 0.812476 0.098618 0.821260 -0.193529 -0.536729
0.032911 0.708751 0.123087 -0.966713 -0.135120 0.217276
0.099422 0.830679 0.083808 -0.094777 -0.984607 -0.146857
0.115985 0.370218 0.130339 0.939955 -0.182309 0.288527
0.056639 0.629039 0.130978 0.578129 0.049669 0.814432
0.180709 0.767958 0.171331 0.513763 0.038040 0.857088
0.102294 0.816706 0.132587 -0.473046 0.572702 0.669507
0.062289 0.485637 0.095303 -0.723763 -0.140275 -0.675641
0.141024 0.191670 0.119038 -0.262766 -0.147926 0.953453
0.043569 0.429358 0.104288 -0.988381 -0.042320 -0.145988
0.147144 0.498376 0.063743 0.130626 -0.066105 -0.989225
0.128965 0.597448 0.060714 0.005382 0.270411 -0.962730
0.135827 0.535266 0.136826 -0.854067 0.020348 0.519765
0.162983 0.660239 0.098026 0.234197 -0.466304 -0.853061
0.082578 0.497982 0.080457 -0.144517 -0.153679 -0.977496
0.108438 0.471698 0.145888 0.437862 -0.124527 0.890376
0.122157 0.737507 0.167347 -0.093857 -0.210734 0.973027
0.075704 0.647731 0.103067 -0.719566 0.558310 -0.412934
0.034812 0.507832 0.135200 0.175944 -0.074963 -0.981542
0.112264 0.188788 0.109197 0.412862 -0.167919 0.895180
0.168305 0.281022 0.120919 0.835563 -0.050614 0.547059
0.099153 0.096808 0.091337 -0.498753 0.568836 0.653966
0.132004 0.942949 0.057146 0.314243 0.425972 -0.848410
0.065158 0.365000 0.108938 -0.961355 -0.188298 -0.200851
0.188363 0.719379 0.138936 0.770664 -0.311123 0.556129
0.082133 0.813514 0.118813 -0.583470 0.719531 0.376614
0.174203 0.331364 0.111713 0.985149 0.132403 0.109322
0.111598 0.968501 0.137624 -0.128521 0.892705 0.431927
0.148970 0.907711 0.062248 0.499769 0.338138 -0.797429
0.107963 0.880974 0.086161 -0.359512 0.062796 -0.931025
0.146617 0.614550 0.068841 0.148881 0.318759 -0.936070
0.121359 0.698686 0.150236 -0.099162 -0.426460 0.899055
0.040332 0.797818 0.118163 -0.914066 -0.397150 0.082192
0.207758 0.545905 0.082191 0.736706 -0.070191 -0.672560
0.139836 0.834832 0.136186 0.506546 0.261951 0.821458
0.171864 0.838980 0.138112 0.317066 -0.910491 0.265472
0.050964 0.654877 0.127658 0.158178 0.518162 0.840529
0.104112 0.427551 0.159099 -0.054809 0.019235 0.998312
0.139422 0.668897 0.089314 0.116644 0.475024 -0.872208
0.071350 0.284243 0.098543 -0.980092 -0.070055 -0.185774
0.096400 0.911392 0.098655 -0.723455 0.196225 -0.661898
0.220727 0.574708 0.120868 0.915500 0.191247 0.353955
0.084541 0.309160 0.135119 -0.487207 -0.139542 0.862066
0.095553 0.562501 0.059407 -0.229412 0.036806 -0.972633
0.191638 0.475800 0.105850 0.948533 -0.269337 -0.166564
0.067210 0.766176 0.126346 0.905847 0.133989 0.401857
0.129260 0.686393 0.148582 -0.034404 -0.424919 0.904577
0.117417 0.432804 0.097605 0.781769 -0.174239 -0.598731
0.153561 0.037097 0.111201 0.448320 -0.823236 -0.348269
0.125564 0.879940 0.027861 0.164848 0.257614 -0.952082
0.127836 0.537585 0.101066 -0.906061 0.006070 -0.423103
0.207742 0.482419 0.094106 0.799163 -0.111636 -0.590657
0.125836 0.377759 0.100252 -0.705234 -0.078548 -0.704610
0.033439 0.552825 0.112164 -0.563050 -0.091885 -0.821299
0.070907 0.640379 0.113003 -0.825413 0.564231 0.018367
0.052177 0.545392 0.121848 -0.992665 -0.095787 0.073769
0.175948 0.539649 0.154710 0.253196 0.032998 0.966852
0.071805 0.295781 0.115173 -0.941792 -0.144981 0.303327
0.152618 0.909920 0.066231 0.443273 0.360682 -0.820621
0.133297 0.392945 0.096183 -0.476566 -0.093117 -0.874193
0.182403 0.711202 0.142330 0.697281 -0.348746 0.626239
0.091355 0.942389 0.119020 -0.887857 0.410656 -0.207537
0.205976 0.788773 0.115657 0.981294 -0.191157 0.022838
0.155669 0.438863 0.147231 0.069955 -0.155668 0.985329
0.101331 0.827200 0.106156 0.153295 -0.987492 0.036890
0.194413 0.509070 0.151030 0.482389 -0.003164 0.875951
0.217411 0.729142 0.137685 0.135217 -0.059350 0.989037
0.085335 0.485585 0.155578 -0.224837 0.031246 0.973895
0.114597 0.454007 0.066765 -0.112483 -0.072034 -0.991039
0.157120 0.103619 0.088024 0.288675 0.920896 0.261949
0.051357 0.417900 0.092896 -0.887168 -0.060297 -0.457490
0.084567 0.381551 0.095718 -0.291382 -0.169537 -0.941464
0.166909 0.739730 0.082616 0.244400 -0.154381 -0.957306
0.109913 0.348600 0.100761 0.680841 0.344677 -0.646261
0.063083 0.738859 0.098396 -0.821774 -0.231465 -0.520683
0.043058 0.505313 0.122203 -0.888515 0.133601 0.438967
0.166381 0.354196 0.124593 0.940356 -0.324597 0.101822
0.148032 0.955118 0.081223 0.618522 0.599203 -0.508317
0.063998 0.662581 0.131195 0.587127 -0.097869 0.803557
0.118969 0.414802 0.106674 -0.963086 -0.026999 -0.267838
0.213300 0.585016 0.088845 0.809484 0.263808 -0.524539
0.108893 0.904013 0.155487 0.158254 0.811782 -0.562108
0.120300 0.344308 0.114161 0.971402 0.199112 0.129353
0.231203 0.478657 0.124947 -0.867139 0.296126 -0.400474
0.123592 0.584903 0.155622 -0.054158 0.121073 0.991165
0.189788 0.530693 0.068640 0.504466 -0.069804 -0.860605
0.234235 0.652203 0.128309 0.819990 0.187604 0.540761
0.164189 0.340378 0.130982 0.738056 0.119580 0.664058
0.165500 0.720003 0.086097 0.233044 -0.205249 -0.950559
0.128154 0.271476 0.096879 0.991224 0.067261 -0.113803
0.102147 0.558198 0.058368 -0.181068 0.002214 -0.983468
0.048232 0.789783 0.097765 0.209007 0.499999 -0.840426
0.076564 0.523472 0.149114 -0.441415 -0.088493 0.892929
0.164720 0.063217 0.080127 0.926165 -0.313955 -0.208927
0.068276 0.734110 0.122965 0.974447 0.007376 0.224496
0.057310 0.759179 0.118769 -0.969218 -0.164265 0.183393
0.186921 0.453073 0.110143 0.955553 -0.281027 -0.089125
0.166902 0.949238 0.098251 0.760040 0.618936 -0.198133
0.065735 0.358256 0.128206 -0.860658 -0.193243 0.471088
0.087768 0.410267 0.092200 -0.135868 -0.171798 -0.975718
0.083712 0.329262 0.138752 -0.461729 -0.029619 0.886526
0.174009 0.476386 0.084016 0.387695 -0.210524 -0.897425
0.176798 0.501727 0.080263 0.347469 -0.194455 -0.917307
0.225585 0.528851 0.115043 0.287678 -0.231881 -0.929232
0.112628 0.271623 0.124099 0.559269 -0.126249 0.819316
0.167473 0.128088 0.090433 0.984973 -0.033594 -0.169408
0.099459 0.326638 0.142330 0.047946 -0.039024 0.998087
0.035874 0.584915 0.109045 -0.490834 -0.066141 -0.868739
0.125070 0.287766 0.089838 0.832019 0.138908 -0.537074
0.157960 0.544885 0.155986 0.150499 0.037397 0.987903
0.135563 0.030809 0.110247 -0.180901 -0.871248 -0.456292
0.120899 0.430314 0.124330 0.964319 -0.154087 0.215284
0.130375 0.378070 0.145035 -0.270357 -0.141484 0.952307
0.161569 0.357998 0.106338 0.844942 0.332657 -0.418823
0.127557 0.531051 0.128880 -0.959173 0.031255 0.281088
0.198385 0.520779 0.094009 0.871724 -0.242824 -0.425597
0.165033 0.916054 0.137869 0.946749 0.119350 0.299034
0.170654 0.316913 0.099529 0.868508 0.145764 -0.473758
0.196477 0.499147 0.099663 0.918219 -0.253442 -0.304369
0.038871 0.764785 0.092664 -0.456034 0.028739 -0.889498
0.141240 0.427117 0.159267 0.202551 0.000793 0.979271
0.191504 0.481419 0.079525 0.595725 -0.104945 -0.796303
0.074905 0.251837 0.103541 -0.973681 -0.134324 0.184128
0.221198 0.766145 0.093810 0.453555 0.019723 -0.891010
0.033056 0.466591 0.119400 0.201070 0.790134 0.579016
0.053812 0.458803 0.088308 -0.785348 -0.041036 -0.617692
0.065663 0.753708 0.092239 -0.704756 -0.244020 -0.666163
0.162491 0.882473 0.114719 0.938106 -0.346189 -0.010449
0.034884 0.491741 0.137323 -0.718750 -0.551928 -0.422817
0.133167 0.585067 0.156072 0.005456 0.124517 0.992202
0.109293 0.964760 0.071656 -0.165607 0.740325 -0.651532
0.106703 0.060525 0.103748 0.072391 0.470565 0.879391
0.153686 0.809017 0.085446 0.041965 0.440960 -0.896545
0.183621 0.718520 0.088367 0.347933 -0.223344 -0.910528
0.228848 0.486418 0.116789 -0.507851 0.341660 0.790795
0.129655 0.561340 0.123175 0.933450 -0.084317 0.348658
0.098908 0.081683 0.056011 -0.680085 -0.275601 -0.679358
0.123896 0.250917 0.082399 0.759179 0.136203 -0.636472
0.087748 0.963371 0.109616 -0.670232 0.742148 0.002250
0.127771 0.164342 0.098324 -0.986894 -0.085810 0.136667
0.129703 0.043645 0.124719 -0.398714 0.549962 0.733873
0.209731 0.544223 0.084308 0.762322 -0.072106 -0.643169
0.191718 0.901507 0.124456 0.900776 0.307433 0.306737
0.231364 0.491223 0.125914 -0.944679 0.079590 -0.318192
0.085576 0.541564 0.154402 -0.277714 0.040755 0.959799
0.118678 0.320418 0.121393 -0.940631 0.049288 0.335834
0.128742 0.549630 0.110776 -0.979512 0.024549 -0.199885
0.059071 0.571106 0.146298 -0.539708 0.110046 0.834629
0.088560 0.759678 0.079703 -0.258154 -0.104811 -0.960402
0.118447 0.469927 0.136491 0.750914 -0.132168 0.647039
0.092624 0.434001 0.147424 0.049322 -0.146314 0.988008
0.044290 0.577425 0.127561 -0.864320 0.184985 0.467687
0.152133 0.470772 0.157826 0.182579 0.022227 0.982940
0.195399 0.738755 0.125637 -0.961960 -0.111462 0.249417
0.112223 0.958535 0.156784 -0.159623 0.644050 0.748144
0.136157 0.344744 0.141025 -0.380830 0.145164 0.913179
0.118905 0.085891 0.095027 0.720191 0.289649 0.630419
0.114563 0.474833 0.064738 -0.108526 -0.062134 -0.992150
0.096637 0.810501 0.088052 -0.219330 0.502480 -0.836306
0.089427 0.329471 0.140273 -0.303856 -0.030450 0.952231
0.063441 0.476373 0.133911 -0.856072 -0.126647 0.501100
0.119532 0.127500 0.092708 0.807524 -0.101060 0.581112
0.067289 0.322770 0.101394 -0.934440 0.084567 -0.345933
0.116748 0.355637 0.124642 0.896912 0.211540 0.388329
0.158663 0.375607 0.097625 0.373431 -0.245108 -0.894691
0.129008 0.552785 0.121398 -0.997236 0.039921 0.062662
0.190481 0.645213 0.100222 0.801497 0.489040 -0.344154
0.126732 0.419482 0.160702 0.093763 0.013503 0.995503
0.080984 0.656035 0.110746 -0.776070 0.613209 -0.147274
0.071561 0.558033 0.077097 -0.360540 -0.138443 -0.922412
0.063993 0.725590 0.116939 -0.940683 -0.330441 0.076965
0.142064 0.387230 0.094564 -0.202835 -0.145019 -0.968415
0.062802 0.517978 0.091190 -0.643855 -0.133002 -0.753499
0.105138 0.450668 0.147932 0.368722 -0.133416 0.919915
0.067510 0.611252 0.138039 -0.605743 0.354983 0.712083
0.177570 0.423590 0.097862 0.761209 -0.276200 -0.586750
0.091808 0.408681 0.092675 -0.003984 -0.175518 -0.984468
0.209941 0.552831 0.084200 0.766516 -0.039314 -0.641020
0.228070 0.742146 0.103090 0.761218 -0.029813 -0.647810
0.082095 0.266739 0.122136 -0.702272 -0.193866 0.685004
0.147069 0.863032 0.121402 0.879907 0.311983 0.358372
0.192614 0.736839 0.091320 0.600661 -0.195390 -0.775261
0.143689 0.857687 0.148738 0.629833 -0.775103 0.050257
0.087266 0.265810 0.125583 -0.448701 -0.208546 0.869009
0.074390 0.384964 0.144714 -0.350390 -0.169351 0.921166
0.144182 0.937019 0.159506 -0.051595 -0.184871 0.981408
0.171151 0.939113 0.138118 0.791804 0.527109 0.308549
0.128743 0.256223 0.083360 -0.585868 0.029378 -0.809874
0.043250 0.504284 0.135595 0.818513 0.212341 0.533805
0.027347 0.515321 0.119262 0.978216 -0.124761 -0.165917
0.070469 0.919320 0.132360 -0.655084 0.110320 0.747459
0.093829 0.076721 0.094613 -0.580088 0.463573 0.669774
0.117328 0.897935 0.088549 0.011261 0.215244 -0.976495
0.066358 0.524888 0.086966 -0.549845 -0.137825 -0.823817
0.139104 0.605585 0.064372 0.086616 0.291499 -0.952641
0.057138 0.540822 0.092498 -0.734012 -0.121220 -0.668231
0.161224 0.560985 0.072836 -0.112977 -0.122703 -0.985992
0.157517 0.218808 0.081113 0.419273 0.067679 -0.905334
0.195973 0.889245 0.123380 0.901375 0.184035 0.391986
0.113316 0.111644 0.073275 0.063570 0.954475 0.291438
0.120710 0.207454 0.104957 0.874736 -0.057772 0.481144
0.178877 0.484537 0.069533 0.373897 -0.086677 -0.923411
0.137645 0.807819 0.144574 -0.050068 0.540259 0.840008
0.213452 0.615087 0.106733 -0.527053 -0.075004 -0.846516
0.065875 0.781141 0.142447 -0.726235 0.128413 0.675347
0.126111 0.969751 0.080893 0.131670 0.877088 -0.461931
0.092628 0.466583 0.156709 -0.161447 0.027951 0.986485
0.166434 0.390626 0.097290 0.592465 -0.272710 -0.758033
0.100008 0.325301 0.086264 0.208457 0.263252 -0.941937
0.184458 0.694306 0.130972 0.781076 -0.376283 0.498328
0.095286 0.080569 0.094257 -0.535200 0.491070 0.687322
0.079213 0.618696 0.145734 -0.446785 0.318752 0.835931
0.182547 0.425198 0.152292 0.607588 -0.061171 0.791893
0.158945 0.666510 0.091356 0.319143 0.478941 -0.817780
0.201052 0.807787 0.109642 -0.415047 0.875885 -0.246092
0.228173 0.531449 0.116707 0.825976 -0.353232 -0.439308
0.079047 0.243669 0.080496 -0.801129 0.003023 -0.598484
0.060220 0.893180 0.123006 -0.779279 0.162695 0.605190
0.183537 0.546686 0.061796 0.403583 -0.054407 -0.913324
0.120738 0.854760 0.092483 0.178628 -0.373237 0.910377
0.061205 0.476815 0.151633 -0.402599 0.026085 0.915005
0.133249 0.486850 0.093951 -0.651172 -0.047889 -0.757418
0.166941 0.950980 0.124600 0.778390 0.619304 0.102816
0.139850 0.493411 0.087071 -0.494127 -0.074946 -0.866153
0.077173 0.567605 0.071050 -0.195131 -0.137747 -0.971056
0.127076 0.866692 0.164221 0.235980 -0.194227 0.952150
0.216627 0.534446 0.118935 0.914440 -0.160365 -0.371594
0.087549 0.236395 0.118214 -0.480835 -0.212821 0.850591
0.064703 0.442408 0.081424 -0.642211 -0.056946 -0.764410
0.071618 0.548792 0.149203 -0.569799 -0.071528 0.818665
0.178083 0.841582 0.126674 0.470603 -0.877217 0.094992
0.206641 0.635825 0.117778 -0.979364 0.029287 -0.199971
0.117317 0.955061 0.160120 -0.105216 0.532411 0.839921
0.175881 0.706545 0.148375 0.598588 -0.378282 0.706112
0.184156 0.506356 0.069040 0.440950 -0.079528 -0.894001
0.067171 0.755723 0.108563 0.943559 0.060049 -0.325716
0.213166 0.492380 0.117936 0.991008 -0.102149 0.086428
0.165360 0.576577 0.153719 0.206925 0.145145 0.967530
0.109771 0.653936 0.143088 -0.301886 0.384362 0.872428
0.107905 0.537303 0.156480 -0.132980 0.040765 0.990280
0.131289 0.477547 0.064145 0.010522 -0.068070 -0.997625
0.061910 0.506597 0.077129 -0.598114 -0.022421 -0.801097
0.072331 0.531563 0.064860 -0.421847 -0.017495 -0.906498
0.096945 0.858877 0.113445 0.699648 -0.051532 0.712627
0.198315 0.876461 0.107166 0.950086 0.055516 0.307008
0.139347 0.544044 0.086353 -0.603666 -0.047881 -0.795798
0.112074 0.424987 0.160026 -0.003112 0.018179 0.999830
0.197914 0.515396 0.094883 0.877447 -0.244563 -0.412646
0.099857 0.864048 0.111709 -0.691028 -0.680197 -0.244565
0.155480 0.777707 0.078626 0.180050 0.064773 -0.981523
0.082202 0.235428 0.110299 -0.842565 -0.181510 0.507088
0.167533 0.158375 0.099544 0.986203 -0.049311 0.158024
0.087877 0.876823 0.042514 -0.633514 0.059811 -0.771416
0.119797 0.305358 0.090270 -0.781150 0.050791 -0.622274
0.045999 0.601574 0.109404 -0.897219 0.441487 -0.009330
0.078448 0.466100 0.147489 -0.343485 -0.123607 0.930988
0.077052 0.427363 0.093210 -0.423571 -0.157494 -0.892067
0.138303 0.587589 0.059122 0.074736 0.214795 -0.973796
0.127693 0.825032 0.055382 0.184245 -0.971165 -0.151301
0.046100 0.647081 0.131856 -0.204363 -0.175949 0.962953
0.094128 0.307418 0.137269 -0.150186 -0.147562 0.977584
0.162626 0.343214 0.103616 0.832494 0.262135 -0.488097
0.089438 0.936950 0.137829 -0.923074 0.362069 0.129773
0.195677 0.736304 0.126856 -0.946427 -0.112738 0.302598
0.105401 0.904648 0.155627 -0.239461 -0.618403 0.748490
0.062294 0.412325 0.103947 -0.919684 -0.162978 -0.357238
0.103796 0.902440 0.153284 -0.253440 0.019800 0.967149
0.092302 0.136304 0.075917 -0.987677 -0.119608 -0.100934
0.103872 0.856282 0.152556 -0.651422 -0.714505 0.255209
0.152452 0.952650 0.133382 0.791406 0.605347 0.085040
0.129015 0.048176 0.118516 -0.501547 0.506133 0.701627
0.233660 0.652345 0.113259 0.869704 0.178191 -0.460286
0.165930 0.654964 0.118170 0.710301 -0.699172 0.081434
0.048977 0.568937 0.084272 -0.726682 0.115730 -0.677155
0.100710 0.716680 0.160492 -0.289937 -0.442118 0.848804
0.158293 0.148378 0.079927 0.467193 0.039058 -0.883292
0.059995 0.580197 0.076414 -0.600394 0.224106 -0.767661
0.081288 0.750222 0.174551 -0.577656 -0.011893 0.816193
0.138259 0.875866 0.112663 -0.166412 -0.692506 0.701956
0.078132 0.310272 0.132701 -0.648192 -0.125466 0.751069
0.200701 0.734958 0.126295 0.914475 -0.224219 0.336839
0.088064 0.577813 0.152897 -0.283572 0.114591 0.952080
0.036615 0.546223 0.095975 -0.870486 0.017501 -0.491882
0.167886 0.226316 0.112711 0.886375 -0.053850 0.459826
0.028251 0.516693 0.118928 -0.928720 -0.183383 -0.322257
0.062903 0.469973 0.153916 -0.346551 0.027518 0.937627
0.127752 0.044479 0.121155 -0.507222 0.512935 0.692548
0.120067 0.408504 0.114900 0.978229 -0.177448 -0.107615
0.224336 0.628566 0.135803 0.188325 0.004931 0.982094
0.075350 0.461042 0.070668 -0.465167 -0.053901 -0.883581
0.054602 0.798292 0.092212 -0.491099 -0.081341 -0.867298
0.088090 0.181567 0.072929 -0.855647 -0.031992 -0.516570
0.044492 0.556743 0.134245 0.337179 -0.077583 0.938238
0.093816 0.660639 0.103918 -0.753525 -0.598232 -0.272615
0.197335 0.892199 0.107177 0.954846 0.265769 0.132801
0.197229 0.502784 0.128522 0.893277 -0.231195 0.385494
0.080589 0.784344 0.081686 -0.232457 0.021889 -0.972360
0.174108 0.571569 0.153317 0.253619 0.127984 0.958800
0.143347 0.660526 0.093342 0.055800 -0.422612 -0.904591
0.120579 0.345591 0.113475 0.972859 0.207493 0.102433
0.075086 0.500290 0.083253 -0.359490 -0.147472 -0.921422
0.131002 0.174930 0.109194 -0.830727 -0.121903 0.543168
0.032908 0.539379 0.133243 -0.664065 -0.025428 0.747242
0.077377 0.561045 0.060837 -0.350708 0.023882 -0.936180
0.064198 0.623271 0.093493 -0.688335 0.464761 -0.556948
0.120455 0.740022 0.079237 -0.068832 -0.140100 -0.987742
0.128320 0.544410 0.098233 -0.875584 0.004348 -0.483046
0.143535 0.841548 0.132153 0.642847 0.336585 0.688083
0.109240 0.797444 0.152144 -0.239327 0.480673 0.843609
0.116578 0.792751 0.154425 -0.166338 0.482312 0.860062
0.062080 0.791146 0.086658 -0.365457 -0.020313 -0.930607
0.056555 0.505309 0.095866 -0.837903 -0.132941 -0.529383
0.121871 0.500261 0.158833 -0.011484 0.033110 0.999386
0.071747 0.474704 0.071877 -0.497103 -0.045128 -0.866517
0.142283 0.654685 0.098906 0.023453 -0.564742 -0.824934
0.177281 0.936153 0.107610 0.811949 0.579549 -0.069726
0.174791 0.652133 0.137611 0.417287 0.366489 0.831599
0.063940 0.631816 0.115169 0.982812 -0.002702 -0.184588
0.230757 0.521913 0.127533 0.668239 -0.230184 0.707441
0.034785 0.500102 0.112546 -0.096655 0.087375 0.991475
0.117055 0.867282 0.157234 -0.017544 -0.716295 -0.697577
0.034783 0.599490 0.108569 -0.594745 -0.040167 -0.802911
0.057688 0.703778 0.097970 0.379825 -0.095474 -0.920118
0.114908 0.526136 0.059700 -0.095636 -0.037741 -0.994701
0.109455 0.794248 0.080750 -0.040233 0.109623 -0.993159
0.056149 0.552872 0.091435 -0.739739 -0.118743 -0.662334
0.162670 0.547949 0.155569 0.173801 0.037256 0.984076
0.072521 0.380375 0.141217 -0.477491 -0.180763 0.859841
0.184932 0.766231 0.164744 0.660418 -0.112174 0.742472
0.086192 0.917499 0.142648 -0.931579 -0.070025 0.356730
0.217312 0.514815 0.105960 0.965896 -0.095012 -0.240870
0.222253 0.661298 0.104958 0.238520 -0.164214 -0.957153
0.153394 0.903189 0.159327 0.800189 -0.544722 0.250949
0.119159 0.746698 0.173633 -0.131382 -0.073586 0.988597
0.185029 0.482432 0.090544 0.715639 -0.251924 -0.651456
0.050493 0.781921 0.117795 -0.944335 -0.296627 0.142279
0.097503 0.093490 0.060485 -0.834177 0.060616 -0.548156
0.068286 0.745614 0.117773 0.999379 0.019968 0.029041
0.121622 0.350717 0.110855 0.971311 0.237804 0.001877
0.045055 0.457735 0.094814 -0.896532 -0.034238 -0.441653
0.233208 0.712414 0.125001 0.980377 -0.029685 0.194885
0.231183 0.632472 0.132914 0.566513 0.023738 0.823711
0.110700 0.061303 0.051015 -0.050173 -0.488505 -0.871117
0.178577 0.728202 0.086511 0.314117 -0.199133 -0.928265
0.208992 0.650254 0.107989 -0.739288 0.119763 -0.662654
0.083761 0.510220 0.064473 -0.330558 -0.032879 -0.943213
0.151954 0.430904 0.089005 -0.009227 -0.166022 -0.986079
0.082551 0.430959 0.072946 -0.433625 -0.072076 -0.898206
0.171696 0.339069 0.110831 0.983685 0.179007 0.017915
0.085775 0.436419 0.071978 -0.397388 -0.070803 -0.914915
0.131025 0.779417 0.076305 0.023728 0.079230 -0.996574
0.197460 0.566171 0.150752 0.391889 0.108807 0.913556
0.076202 0.754389 0.161755 -0.676761 0.035511 0.735346
0.060226 0.425316 0.122413 -0.965293 -0.158630 0.207474
0.086844 0.528217 0.076812 -0.021894 -0.150315 -0.988396
0.225243 0.635974 0.135382 0.232315 0.047946 0.971458
0.168768 0.724583 0.085905 0.252571 -0.198521 -0.946994
0.073442 0.874828 0.053507 -0.624521 -0.019914 -0.780754
0.098392 0.477720 0.156994 -0.136034 0.029950 0.990251
0.074868 0.863434 0.056821 -0.810087 -0.289138 -0.510057
0.197254 0.516577 0.148937 0.516795 -0.003176 0.856103
0.149958 0.945703 0.152675 0.651183 0.572807 0.497848
0.097200 0.969879 0.117820 -0.460749 0.877886 0.130487
0.208275 0.558218 0.094339 0.927651 -0.225131 -0.297959
0.231453 0.681793 0.129843 0.858229 -0.076532 0.507529
0.099661 0.712743 0.085823 -0.219570 -0.225112 -0.949270
0.102813 0.157030 0.066593 -0.388560 0.061377 -0.919377
0.037389 0.799503 0.108093 -0.312415 0.911820 -0.266423
0.100274 0.685940 0.148346 -0.285626 -0.481487 0.828606
0.215497 0.504501 0.099163 0.885257 -0.100325 -0.454153
0.107778 0.679893 0.089120 -0.252566 -0.336806 -0.907068
0.163805 0.891961 0.143174 -0.231410 -0.283244 0.930710
0.121012 0.428594 0.120834 0.977918 -0.157579 0.137278
0.098580 0.642306 0.143930 -0.365044 0.368083 0.855136
0.148560 0.960984 0.111867 0.627399 0.508223 -0.589983
0.127419 0.790360 0.155010 -0.062616 0.490473 0.869204
0.124278 0.479065 0.122042 0.965627 -0.130657 0.224708
0.064055 0.905879 0.070638 -0.721982 0.327825 -0.609322
0.170021 0.180187 0.092489 0.968166 -0.005500 -0.250248
0.113033 0.030607 0.116753 0.259944 -0.954845 -0.143877
0.087596 0.709478 0.149457 -0.533065 -0.478371 0.697856
0.185612 0.658107 0.119859 0.781830 0.492506 0.382335
0.119100 0.133822 0.094094 0.782534 -0.106876 0.613366
0.074754 0.437041 0.093674 -0.468290 -0.154819 -0.869905
0.135950 0.571067 0.156550 0.024077 0.094119 0.995270
0.119448 0.405842 0.121706 0.977775 -0.168963 0.124128
0.135128 0.646684 0.147578 -0.026023 0.272413 0.961828
0.209783 0.608643 0.100934 0.890182 0.382132 -0.248094
0.087505 0.882256 0.125288 -0.959767 -0.280251 -0.017501
0.154498 0.596580 0.153066 0.142235 0.180416 0.973252
0.146677 0.487972 0.064905 0.125006 -0.071211 -0.989597
0.198528 0.417501 0.128895 0.961612 -0.145504 0.232662
0.099324 0.170507 0.068784 -0.445584 0.055817 -0.893499
0.129629 0.972487 0.134598 0.170934 0.952590 0.251702
0.110818 0.460794 0.143352 0.529302 -0.134489 0.837707
0.064313 0.433133 0.131620 -0.865712 -0.149668 0.477642
0.136772 0.688535 0.150357 0.037521 -0.411380 0.910691
0.210504 0.645840 0.118919 -0.908199 -0.416736 0.038789
0.149197 0.238050 0.078091 0.233608 0.076464 -0.969320
0.062166 0.652096 0.117760 0.930980 0.354370 0.087737
0.081819 0.565815 0.150741 -0.371400 -0.063223 0.926318
0.205715 0.585479 0.138206 0.633500 0.250508 0.732068
0.162706 0.776833 0.079354 0.227054 0.057406 -0.972189
0.183177 0.474717 0.138704 0.649102 -0.219750 0.728269
0.143803 0.468369 0.148277 -0.343392 -0.078207 0.935930
0.059724 0.434976 0.148872 -0.443756 0.014338 0.896033
0.075643 0.868033 0.053537 -0.789467 -0.187617 -0.584416
0.102803 0.501373 0.150130 0.218406 -0.098891 0.970834
0.074186 0.266085 0.091712 -0.947486 -0.050386 -0.315802
0.197668 0.727462 0.100701 0.837688 -0.263041 -0.478631
0.109681 0.863444 0.093301 -0.413901 -0.592182 -0.691381
0.216354 0.785762 0.093779 0.333969 0.173219 -0.926531
0.153946 0.447577 0.157889 0.258937 0.001541 0.965893
0.055266 0.892790 0.105648 -0.975833 0.129173 0.176249
0.150009 0.616682 0.070134 0.176540 0.325619 -0.928873
0.156650 0.919291 0.103019 0.820270 0.134644 -0.555902
0.190243 0.446346 0.146564 0.691318 -0.062641 0.719830
0.094717 0.900887 0.121039 0.322965 -0.183338 0.928483
0.163947 0.698345 0.153528 0.419492 -0.408592 0.810604
0.202605 0.433610 0.109075 0.933799 -0.151777 -0.324011
0.121382 0.534903 0.137084 0.720149 -0.092379 0.687642
0.157849 0.953724 0.129524 0.716225 0.653812 0.244031
0.077861 0.325450 0.136506 -0.610985 -0.047236 0.790232
0.140234 0.237416 0.126822 -0.269649 -0.139377 0.952819
0.078327 0.425703 0.074015 -0.477464 -0.072629 -0.875645
0.093418 0.527082 0.155410 -0.214601 0.038626 0.975938
0.054844 0.530965 0.095622 -0.835103 -0.124177 -0.535895
0.179035 0.849933 0.074251 0.611615 -0.721567 -0.324450
0.138864 0.751108 0.076866 0.062500 -0.096848 -0.993335
0.087526 0.937311 0.067940 -0.528388 0.413610 -0.741440
0.093366 0.121687 0.076553 -0.989188 -0.142064 0.036388
0.197305 0.883119 0.113406 0.939329 0.126241 0.318941
0.097979 0.812906 0.088974 -0.216086 0.489318 -0.844911
0.077523 0.419546 0.074760 -0.491156 -0.075222 -0.867817
0.189225 0.721283 0.090485 0.468403 -0.247469 -0.848150
0.048279 0.550160 0.084479 -0.727030 0.010180 -0.686530
0.152904 0.886315 0.056857 0.355279 0.449872 -0.819385
0.121792 0.615347 0.151466 -0.088582 0.213507 0.972917
0.129047 0.918430 0.165198 -0.009575 -0.143164 0.989653
0.101317 0.650901 0.085025 -0.205473 0.441660 -0.873337
0.087087 0.627439 0.079285 -0.405797 0.426025 -0.808599
0.188563 0.896473 0.132855 0.794788 0.128875 0.593046
0.107286 0.559589 0.150476 0.248543 -0.062379 0.966610
0.054288 0.476833 0.141849 -0.621112 0.012791 0.783617
0.159093 0.704979 0.157449 0.321790 -0.394050 0.860915
0.083053 0.602475 0.067117 -0.345011 0.329265 -0.878949
0.087979 0.449462 0.147595 -0.107947 -0.131755 0.985387
0.059917 0.550991 0.150989 -0.456300 0.039297 0.888958
0.155452 0.508927 0.063354 0.194548 -0.064123 -0.978795
0.229612 0.533349 0.117705 0.922670 -0.319069 -0.216505
0.191860 0.856140 0.080789 0.674487 -0.690335 -0.261734
0.116125 0.828634 0.138613 -0.368645 0.378954 0.848819
0.042841 0.514198 0.129466 -0.856106 0.024229 0.516233
0.060532 0.790544 0.122444 0.820963 0.518838 0.238383
0.090172 0.249257 0.122143 -0.377464 -0.213277 0.901129
0.192965 0.821784 0.105130 0.387403 0.919264 -0.069808
0.124357 0.867220 0.026956 0.142156 -0.122346 -0.982254
0.099587 0.656412 0.112116 -0.705177 -0.706314 0.062022
0.125158 0.183019 0.091241 0.987925 -0.004719 0.154858
0.145084 0.204138 0.077554 -0.165159 0.050337 -0.984982
0.144281 0.369369 0.096717 -0.086661 -0.167607 -0.982038
0.037955 0.525652 0.132934 -0.985297 0.126107 -0.115271
0.185750 0.714617 0.139784 0.741935 -0.329661 0.583828
0.110230 0.054869 0.105615 0.203563 0.446081 0.871535
0.109598 0.614158 0.150568 -0.169081 0.228620 0.958720
0.148186 0.913877 0.147109 -0.275293 -0.367550 0.888325
0.121647 0.264383 0.111132 -0.976231 -0.076642 0.202727
0.153965 0.847214 0.046225 0.473326 -0.277938 -0.835890
0.118149 0.407710 0.101556 0.815508 -0.180143 -0.549996
0.111043 0.907801 0.133967 -0.272234 -0.497934 0.823378
0.083042 0.546749 0.074151 -0.090735 -0.145170 -0.985237
0.073153 0.847705 0.146371 -0.712227 -0.520494 0.470977
0.113522 0.593955 0.060840 -0.105833 0.272748 -0.956247
0.161907 0.867896 0.047943 0.473600 0.116735 -0.872970
0.195037 0.549679 0.069866 0.556075 -0.060376 -0.828936
0.168431 0.371633 0.129557 0.900888 -0.312346 0.301397
0.098389 0.819089 0.091034 -0.214403 0.465953 -0.858440
0.045479 0.539144 0.133690 0.516155 -0.116225 0.848573
0.196593 0.533397 0.074346 0.600962 -0.072820 -0.795953
0.164773 0.581695 0.153507 0.202504 0.157021 0.966611
0.200610 0.494427 0.142046 0.707275 -0.038681 0.705880
0.194286 0.750951 0.136175 0.841817 -0.211393 0.496646
0.072997 0.272257 0.101533 -0.994603 -0.102058 -0.018674
0.124850 0.890568 0.035756 0.150357 0.529592 -0.834821
0.089559 0.890828 0.049766 -0.501331 0.335819 -0.797429
0.056676 0.895542 0.090673 -0.979591 0.186950 -0.073832
0.049164 0.773927 0.092533 0.183931 0.151846 -0.971140
0.198149 0.506996 0.109175 0.966557 -0.254439 -0.032068
0.130963 0.160305 0.105033 -0.923275 -0.107819 0.368698
0.087416 0.810056 0.135638 -0.343176 0.564576 0.750656
0.175109 0.668015 0.125303 0.630655 0.520115 0.575982
0.120727 0.174356 0.099701 0.876367 -0.065223 0.477208
0.209822 0.796605 0.106435 0.949613 -0.212445 -0.230439
0.081372 0.361349 0.099082 -0.432038 -0.173069 -0.885093
0.027547 0.762896 0.114795 -0.982487 0.002583 -0.186312
0.118720 0.289495 0.121644 0.811096 -0.058867 0.581943
0.116977 0.513226 0.157924 -0.053465 0.036149 0.997915
0.117705 0.847989 0.094386 0.420043 -0.198171 0.885603
0.146284 0.904817 0.056893 0.609068 0.349750 -0.711837
0.057394 0.750399 0.109730 -0.973875 -0.197764 -0.111614
0.189639 0.423098 0.142203 0.803976 -0.102128 0.585826
0.107050 0.528316 0.156596 -0.129688 0.039182 0.990780
0.097563 0.929338 0.157956 -0.519229 0.208584 0.828791
0.106323 0.613784 0.069305 -0.162556 0.338530 -0.926808
0.137104 0.730215 0.081076 0.045555 -0.153069 -0.987165
0.102543 0.561016 0.151929 0.119187 -0.059612 0.991081
0.133890 0.815235 0.086223 -0.004243 0.389142 -0.921168
0.192607 0.440131 0.141972 0.785645 -0.085984 0.612673
0.045736 0.635753 0.121521 -0.733493 -0.430331 0.526120
0.102104 0.950678 0.145027 -0.624229 0.674103 0.394870
0.176141 0.269084 0.104643 0.999934 0.004709 0.010436
0.159638 0.943891 0.126088 0.928398 0.357446 -0.101533
0.205607 0.562424 0.081832 0.727893 0.039992 -0.684523
0.139116 0.797498 0.150293 -0.030912 0.513497 0.857535
0.071103 0.545785 0.064347 -0.422499 -0.009620 -0.906312
0.159677 0.895980 0.148328 0.843216 -0.096041 0.528926
0.154128 0.565824 0.072377 -0.256537 -0.098676 -0.961484
0.060076 0.553685 0.151257 -0.451689 0.040114 0.891273
0.114133 0.154890 0.101246 0.442353 -0.169430 0.880691
0.122059 0.456502 0.127375 -0.942334 -0.011005 0.334492
0.131246 0.941001 0.056386 0.300994 0.423107 -0.854624
0.044145 0.598127 0.110087 -0.905752 0.423493 0.016312
0.113534 0.949216 0.160288 -0.252844 0.048690 0.966281
0.108964 0.673756 0.095982 -0.155485 0.552284 -0.819028
0.093202 0.474787 0.148703 -0.004537 -0.116303 0.993203
0.104647 0.806832 0.142908 -0.265406 0.463337 0.845505
0.056506 0.572527 0.142948 -0.610385 0.119161 0.783091
0.179366 0.416902 0.104829 0.874207 -0.291515 -0.388306
0.156859 0.667227 0.139974 0.197481 0.363868 0.910275
0.183980 0.636695 0.135881 0.552156 0.378161 0.743046
0.207358 0.566600 0.139484 0.629785 0.161335 0.759830
0.088632 0.920679 0.104366 -0.832130 0.217742 -0.510048
0.088755 0.729235 0.167530 -0.442328 -0.338317 0.830595
0.110814 0.875628 0.099997 0.079014 -0.437350 0.895813
0.130834 0.924613 0.151074 -0.126505 -0.529208 0.839009
0.137197 0.191428 0.117407 -0.401703 -0.145822 0.904086
0.073656 0.532625 0.063541 -0.401446 -0.017873 -0.915708
0.124724 0.363837 0.100905 -0.721279 -0.082632 -0.687698
0.091121 0.561889 0.151221 -0.148083 -0.064616 0.986862
0.034207 0.743033 0.102296 -0.755406 -0.111646 -0.645675
0.069120 0.850996 0.090984 -0.641984 -0.726128 -0.246159
0.119066 0.312408 0.094621 -0.841105 0.081988 -0.534622
0.095674 0.107819 0.072440 -0.990230 -0.135482 -0.032999
0.171284 0.216637 0.091393 0.905693 0.027217 -0.423059
0.102388 0.748700 0.179661 -0.325014 -0.030903 0.945204
0.058977 0.642176 0.108020 0.334167 -0.251487 -0.908343
0.217091 0.505794 0.125343 0.675248 -0.621646 -0.396983
0.068280 0.724099 0.125727 0.949651 -0.003674 0.313289
0.101094 0.866038 0.104803 -0.650819 -0.657902 -0.378945
0.096330 0.167231 0.069877 -0.598039 0.025675 -0.801056
0.159306 0.640350 0.144431 0.226934 0.288322 0.930254
0.164469 0.327292 0.129822 0.740029 0.064565 0.669469
0.195965 0.522451 0.091251 0.822755 -0.242394 -0.514120
0.153841 0.858834 0.115850 -0.570988 -0.338520 0.747915
0.124716 0.234487 0.082933 0.840630 0.114622 -0.529342
0.203366 0.532207 0.100086 0.950030 -0.240093 -0.199496
0.115021 0.414940 0.070654 -0.133128 -0.091549 -0.986862
0.055030 0.514099 0.127207 -0.958171 -0.109469 0.264431
0.196510 0.889328 0.117700 0.932989 0.213826 0.289498
0.079437 0.687954 0.124762 -0.769280 -0.483570 0.417574
0.181771 0.677973 0.126843 0.808277 -0.438686 0.392738
0.086509 0.452388 0.156478 -0.186175 0.025327 0.982190
0.165137 0.384159 0.098067 0.580789 -0.273672 -0.766674
0.093812 0.689174 0.143479 -0.487390 -0.517018 0.703665
0.070344 0.467050 0.074019 -0.525541 -0.047984 -0.849414
0.103488 0.663321 0.092379 -0.385875 -0.442740 -0.809371
0.195282 0.581298 0.074877 0.601175 0.201657 -0.773255
0.062453 0.768666 0.093336 -0.715020 -0.250268 -0.652772
0.162857 0.657797 0.100432 0.244464 -0.523198 -0.816395
0.183895 0.642262 0.091381 0.557889 0.434081 -0.707343
0.099166 0.492777 0.082238 0.212028 -0.156529 -0.964646
0.123017 0.464252 0.126339 0.944861 -0.134226 0.298698
0.142790 0.856498 0.138688 0.596606 -0.801338 0.043798
0.040425 0.716346 0.135081 -0.494795 -0.097173 0.863560
0.091427 0.461980 0.068601 -0.312922 -0.060119 -0.947874
0.187842 0.489199 0.136802 0.700762 -0.218170 0.679216
0.113377 0.902365 0.153071 0.305099 -0.943383 0.130168
0.042558 0.445077 0.113285 -0.992117 -0.024004 0.122991
0.077052 0.270966 0.114882 -0.878859 -0.168341 0.446395
0.118269 0.355183 0.118749 -0.948070 0.313021 0.056395
0.130629 0.183077 0.110543 -0.832507 -0.119820 0.540903
0.101464 0.468951 0.157584 -0.109105 0.027979 0.993636
0.167596 0.583545 0.062430 0.306107 0.199402 -0.930880
0.100259 0.474371 0.084702 0.226111 -0.160090 -0.960856
0.076849 0.241296 0.099726 -0.985969 -0.127157 0.108146
0.072301 0.461958 0.072831 -0.503865 -0.051721 -0.862233
0.179329 0.489508 0.083271 0.520553 -0.227310 -0.823016
0.147665 0.681550 0.087994 0.097721 -0.272621 -0.957146
0.049702 0.518738 0.137618 -0.723507 0.026309 0.689816
0.130034 0.961697 0.137911 0.018340 0.962809 0.269561
0.042857 0.592381 0.114207 -0.923156 0.360679 0.133019
0.107088 0.856331 0.158122 -0.665613 -0.221065 0.712804
0.119404 0.354394 0.114711 0.964974 0.243506 0.097621
0.160408 0.556953 0.155349 0.162647 0.060601 0.984822
0.110515 0.422232 0.159941 -0.010225 0.017711 0.999791
0.157693 0.532493 0.076406 -0.119244 -0.128140 -0.984561
0.094325 0.672919 0.108534 -0.655415 0.671897 -0.344943
0.111018 0.488724 0.063736 -0.130614 -0.054164 -0.989953
0.078927 0.434914 0.090357 -0.362296 -0.157365 -0.918683
0.147695 0.941170 0.157412 0.502538 0.498962 0.706040
0.160893 0.266286 0.083520 0.465256 0.086390 -0.880951
0.074502 0.262643 0.097798 -0.991490 -0.092419 -0.091683
0.102063 0.523215 0.078476 0.280359 -0.147856 -0.948439
0.051012 0.701599 0.135436 0.056202 -0.084953 0.994799
0.218844 0.611863 0.104801 -0.127223 -0.074185 -0.989096
0.154515 0.440890 0.157894 0.283002 -0.005119 0.959106
0.184178 0.540651 0.150116 0.286329 -0.114520 0.951263
0.123607 0.974626 0.094507 0.080223 0.992886 -0.087985
0.209600 0.608917 0.110859 -0.833936 -0.069236 -0.547501
0.226280 0.689495 0.134931 0.439723 -0.082075 0.894375
0.137114 0.563941 0.156815 0.032046 0.078169 0.996425
0.149067 0.263014 0.134054 0.096904 -0.127711 0.987066
0.151339 0.793302 0.151930 0.013081 0.504910 0.863073
0.116378 0.447976 0.137136 0.741011 -0.146012 0.655426
0.173956 0.421184 0.137113 0.701142 -0.261236 0.663442
0.118973 0.444288 0.097954 0.812561 -0.167817 -0.558195
0.148858 0.899547 0.157123 -0.084443 0.899830 0.427989
0.156936 0.234083 0.124281 0.436823 -0.111152 0.892654
0.233621 0.622714 0.111598 0.796166 -0.038146 -0.603874
0.100405 0.922589 0.097711 -0.678903 0.233760 -0.696022
0.128155 0.362647 0.124210 -0.770944 0.537494 0.341681
0.172308 0.287970 0.116538 0.919551 -0.029688 0.391848
0.066381 0.339465 0.119695 -0.985891 0.102277 0.132507
0.170280 0.551114 0.073876 0.090729 -0.152433 -0.984140
0.222805 0.587922 0.134911 0.219330 -0.057124 0.973977
0.070358 0.355442 0.133140 -0.829058 0.187198 0.526896
0.231585 0.523539 0.125073 0.788140 -0.270838 0.552705
0.204772 0.753351 0.138988 -0.390829 -0.057163 0.918687
0.126147 0.494608 0.159364 0.019496 0.031568 0.999311
0.120177 0.431449 0.107511 -0.967444 -0.020494 -0.252253
0.055850 0.494263 0.118291 -0.992660 -0.120395 -0.011485
0.113821 0.670061 0.139070 -0.366650 0.480664 0.796574
0.165949 0.673292 0.100956 0.516031 0.635338 -0.574506
0.075105 0.558157 0.060725 -0.363381 0.000784 -0.931640
0.134516 0.120064 0.087131 -0.984789 -0.076090 -0.156206
0.085640 0.743071 0.179582 -0.497773 -0.110416 0.860250
0.093171 0.838868 0.128786 0.442145 -0.765662 0.467194
0.215745 0.810583 0.129139 0.787891 0.027819 0.615186
0.169470 0.096133 0.081499 0.866715 0.495417 0.058025
0.110424 0.379242 0.100767 0.592249 -0.198790 -0.780848
0.070134 0.367543 0.101589 -0.805538 -0.185291 -0.562828
0.048898 0.606002 0.101953 -0.854002 0.452209 -0.257269
0.059889 0.802941 0.089736 -0.342073 0.028286 -0.939247
0.169947 0.553766 0.151354 -0.108327 -0.057344 0.992460
0.197625 0.504368 0.114994 0.962783 -0.252722 0.095815
0.032200 0.715670 0.109811 -0.922477 -0.132172 -0.362720
0.073637 0.926060 0.135116 -0.596448 0.093147 0.797229
0.124438 0.358134 0.100337 -0.652175 0.434821 -0.620966
0.141652 0.350622 0.100065 -0.126806 -0.209263 -0.969602
0.124751 0.139880 0.082341 1.000000 0.000512 0.000066
0.193146 0.887917 0.130266 0.811975 0.093373 0.576176
0.120986 0.482216 0.134323 0.812603 -0.123927 0.569490
0.166701 0.115161 0.090093 0.988955 -0.040905 -0.142459
0.107144 0.961211 0.128751 -0.561752 0.827301 0.002646
0.157215 0.907599 0.151708 0.661733 -0.233539 0.712439
0.106225 0.417230 0.071490 -0.218921 -0.088214 -0.971747
0.118977 0.398945 0.121931 0.978531 -0.173509 0.111232
0.120700 0.509014 0.091890 0.813299 -0.144305 -0.563668
0.112213 0.947604 0.160556 -0.276688 -0.079458 0.957669
0.142168 0.789874 0.154401 -0.010616 0.493713 0.869560
0.105591 0.326453 0.138512 0.344145 -0.023385 0.938625
0.113803 0.549823 0.144352 0.478320 -0.077871 0.874727
0.168607 0.873503 0.138383 -0.334028 -0.212661 0.918260
0.208870 0.537534 0.138992 0.701042 -0.014529 0.712972
0.133213 0.887468 0.033338 0.326202 0.437010 -0.838221
0.158720 0.528662 0.156234 0.168776 0.033713 0.985078
0.136363 0.926228 0.164539 0.080159 0.165125 0.983010
0.093397 0.904708 0.152779 -0.353811 -0.312815 -0.881456
0.207853 0.652294 0.115440 -0.936085 0.179442 -0.302565
0.042110 0.494422 0.121899 -0.913058 0.139290 0.383305
0.193855 0.543987 0.153260 0.343502 0.030444 0.938658
0.174589 0.413750 0.097406 0.727779 -0.277624 -0.627107
0.062652 0.410017 0.100817 -0.890309 -0.164534 -0.424591
0.214455 0.556508 0.132794 -0.583946 -0.090919 0.806685
0.085890 0.427161 0.157162 -0.167400 0.020176 0.985683
0.161493 0.831097 0.107225 0.688413 0.720120 -0.086691
0.070811 0.374499 0.100920 -0.768909 -0.183210 -0.612547
0.195855 0.527600 0.089871 0.803443 -0.239898 -0.544912
0.040593 0.481351 0.125376 -0.895887 0.008859 0.444194
0.134473 0.892824 0.126328 -0.158570 -0.633721 0.757135
0.120187 0.292578 0.091983 -0.847665 0.003560 -0.530519
0.103500 0.859038 0.112560 -0.634662 -0.757046 -0.155193
0.152776 0.635078 0.077483 0.202710 0.374286 -0.904886
0.215314 0.642075 0.104925 -0.326482 0.066621 -0.942853
0.067193 0.358046 0.114764 -0.938251 0.297756 -0.176141
0.163770 0.436156 0.072710 0.239282 -0.104557 -0.965304
0.071703 0.949172 0.102880 -0.842227 0.538787 -0.019024
0.120992 0.942074 0.159428 -0.061754 0.497839 0.865068
0.086057 0.418779 0.090980 -0.176482 -0.168385 -0.969794
0.094459 0.910755 0.124611 0.222918 -0.204486 0.953149
0.157174 0.058182 0.093902 0.519323 -0.799314 -0.302327
0.165354 0.607460 0.068858 0.295494 0.303989 -0.905690
0.154003 0.328948 0.138465 0.323828 0.048707 0.944861
0.161249 0.069322 0.087478 0.841295 -0.538613 -0.046035
0.102505 0.675892 0.103455 -0.439845 0.681044 -0.585419
0.160012 0.664551 0.138311 0.444645 -0.494109 0.747092
0.052007 0.425912 0.091873 -0.867794 -0.056858 -0.493662
0.139199 0.750890 0.076901 0.064678 -0.098269 -0.993056
0.184865 0.610278 0.076565 0.501535 0.331678 -0.799032
0.100515 0.874981 0.092810 0.387443 -0.260744 0.884252
0.120681 0.328104 0.115974 0.958149 0.113162 0.262956
0.100235 0.654910 0.086767 -0.213668 0.452559 -0.865757
0.115530 0.366698 0.118960 -0.981699 -0.059613 0.180867
0.151882 0.847374 0.112854 -0.700482 -0.192330 0.687266
0.183458 0.872923 0.137959 0.239788 -0.075180 0.967910
0.051547 0.597806 0.129594 -0.768168 0.359368 0.529879
0.137484 0.589862 0.155452 0.031404 0.141951 0.989375
0.138432 0.896616 0.090070 0.168572 0.099521 -0.980652
0.187329 0.471254 0.078482 0.538918 -0.107046 -0.835529
0.139585 0.374989 0.096116 -0.253765 -0.138514 -0.957297
0.205157 0.682012 0.109275 -0.856719 -0.176708 -0.484569
0.211565 0.483829 0.125397 0.952216 -0.096550 0.289763
0.121609 0.521186 0.136327 0.741379 -0.100801 0.663473
0.112095 0.178215 0.107408 0.388528 -0.173524 0.904950
0.181349 0.661071 0.125195 0.696633 0.473854 0.538669
0.077202 0.821188 0.111652 -0.690729 0.716451 0.097939
0.094241 0.345862 0.144658 -0.117479 0.059198 0.991309
0.043988 0.419930 0.124023 -0.893834 -0.022377 0.447840
0.099485 0.829518 0.112541 0.339696 -0.923268 0.179393
0.176500 0.547142 0.074245 0.221529 -0.167795 -0.960609
0.128584 0.804503 0.081858 -0.060857 0.404980 -0.912298
0.130343 0.552754 0.103857 0.990668 -0.101410 -0.091063
0.118700 0.899187 0.126909 -0.213206 -0.508213 0.834423
0.122054 0.395064 0.132130 -0.827938 -0.058416 0.557768
0.048277 0.669302 0.102779 -0.563852 -0.169610 -0.808272
0.106288 0.568492 0.151716 0.201471 -0.054775 0.977962
0.101457 0.570762 0.072257 0.287954 -0.137130 -0.947775
0.169748 0.266490 0.116604 0.886940 -0.043567 0.459826
0.126021 0.956657 0.159028 0.077501 0.690166 0.719489
0.101458 0.671218 0.139806 -0.322325 -0.512796 0.795705
0.057008 0.683712 0.099981 0.292339 -0.124544 -0.948170
0.101674 0.525534 0.150793 0.146253 -0.082442 0.985806
0.105503 0.439391 0.069251 -0.199638 -0.076401 -0.976887
0.130360 0.872618 0.027368 0.273775 0.056767 -0.960117
0.090426 0.165010 0.070927 -0.870957 -0.042051 -0.489556
