0.152171 0.889320 0.157773 -0.309015 0.505538 0.805568
0.193871 0.810225 0.121481 -0.390461 0.432267 0.812826
0.144249 0.739430 0.163014 -0.167425 0.566823 0.806647
0.104442 0.772542 0.090110 -0.700025 0.705143 -0.112865
0.194371 0.262493 0.140250 -0.211559 0.100537 0.972181
0.152850 0.436960 0.154559 -0.478111 0.264171 0.837630
0.271825 0.494886 0.079970 -0.571780 -0.403945 -0.714070
0.207340 0.767748 0.130823 0.389324 0.779053 0.491429
0.162587 0.837330 0.028142 -0.111648 -0.047182 -0.992627
0.073896 0.727713 0.122301 -0.962505 0.204953 0.177701
0.278526 0.617956 0.118658 -0.165296 -0.666862 0.726617
0.204165 0.350733 0.155988 0.868492 0.072086 0.490433
0.179178 0.438911 0.071077 -0.078359 0.171292 -0.982099
0.207378 0.740732 0.132157 0.845357 0.314512 0.431802
0.202031 0.603395 0.083798 0.364667 0.234002 -0.901255
0.136452 0.058791 0.183654 -0.056640 0.985071 -0.162565
0.210911 0.645189 0.088936 0.469565 0.462992 -0.751763
0.147351 0.699089 0.193949 -0.119566 0.241309 0.963054
0.130679 0.658837 0.122430 -0.320541 -0.941847 -0.100882
0.182312 0.659621 0.135061 0.009915 -0.996669 0.080952
0.222021 0.473696 0.159300 0.657275 0.208250 0.724308
0.120565 0.258386 0.137120 -0.617557 0.137187 0.774469
0.121321 0.550272 0.094417 -0.780078 0.328642 -0.532421
0.100565 0.559161 0.122337 -0.955283 0.278108 0.100452
0.199783 0.806204 0.135761 0.532322 0.324842 0.781736
0.203570 0.660619 0.113030 0.239953 -0.963967 -0.114851
0.169212 0.904598 0.128965 -0.022893 0.999085 0.036134
0.130104 0.278402 0.154957 -0.523300 -0.691178 0.498427
0.058771 0.737059 0.112581 -0.504789 0.661180 0.555003
0.043620 0.544253 0.077726 -0.709321 -0.140977 -0.690644
0.073521 0.329416 0.115417 -0.997326 -0.068582 0.025250
0.224150 0.471021 0.085350 0.713104 0.212227 -0.668163
0.162456 0.591687 0.035990 0.380123 -0.214010 -0.899837
0.106435 0.723279 0.055080 0.457000 0.086731 0.885228
0.302458 0.727589 0.096409 0.835202 0.549534 0.021194
0.180021 0.960538 0.136842 0.687204 0.306596 -0.658597
0.159616 0.823914 0.081352 -0.090868 -0.957257 0.274595
0.150177 0.284810 0.153822 0.073954 -0.760135 0.645542
0.224880 0.368942 0.052550 0.286597 -0.038155 -0.957291
0.093789 0.424664 0.129752 -0.955010 0.122229 0.270215
0.222616 0.377117 0.054062 0.279358 -0.017336 -0.960031
0.220741 0.864510 0.146059 0.565716 -0.489943 0.663266
0.180095 0.488595 0.116083 0.453563 0.723553 -0.520338
0.201207 0.365295 0.121283 0.978150 0.080995 -0.191474
0.170920 0.316613 0.172276 -0.529624 -0.150209 0.834826
0.234109 0.708883 0.079441 -0.980381 -0.058891 -0.188107
0.164186 0.643110 0.137821 -0.102639 0.963527 0.247146
0.216242 0.890018 0.081022 0.614600 0.733128 -0.291187
0.298730 0.625561 0.121799 0.486449 -0.452300 0.747524
0.145092 0.025289 0.116185 -0.132719 -0.989880 -0.050232
0.118071 0.822607 0.057159 -0.573392 -0.695683 -0.432719
0.211002 0.771277 0.125946 0.776234 0.293686 0.557862
0.040819 0.577892 0.112744 -0.676369 0.121790 0.726425
0.141877 0.430815 0.170640 -0.070829 0.142740 0.987223
0.193940 0.654169 0.172529 0.034910 -0.891285 0.452098
0.164602 0.883429 0.164659 -0.103083 0.131291 0.985970
0.160419 0.643166 0.123830 -0.151181 0.988371 0.016339
0.180993 0.025289 0.118798 -0.129479 -0.987650 -0.088214
0.187710 0.284268 0.147580 0.625914 -0.599552 0.498768
0.184190 0.154751 0.095275 -0.738049 -0.202236 -0.643727
0.223685 0.628611 0.096723 0.721929 0.323503 -0.611689
0.165313 0.696497 0.104503 -0.040556 0.978426 -0.202576
0.082065 0.361698 0.125672 -0.980305 0.016180 0.196827
0.074377 0.605465 0.092451 0.817592 -0.573425 -0.052222
0.141759 0.371454 0.123456 -0.978616 0.111325 -0.172967
0.136784 0.298071 0.090473 -0.849855 -0.308771 -0.427092
0.068280 0.441623 0.078286 -0.229082 -0.434043 -0.871279
0.188974 0.548752 0.077018 0.191692 0.008306 -0.981420
0.207330 0.025289 0.190049 0.077127 -0.972792 -0.218463
0.075622 0.433245 0.131700 -0.531474 -0.803498 -0.268190
0.298624 0.667773 0.113225 0.784574 -0.123081 0.607697
0.265660 0.405882 0.080822 -0.535742 0.795877 -0.282063
0.058924 0.625081 0.096887 -0.015949 -0.997218 -0.072810
0.221120 0.159639 0.122514 0.886978 -0.149900 0.436806
0.172253 0.904148 0.142443 0.016095 0.982218 0.187053
0.090370 0.680116 0.155282 -0.802458 -0.400720 0.442136
0.050456 0.675125 0.123052 -0.596497 -0.093669 0.797131
0.110025 0.449883 0.147953 -0.799053 0.178089 0.574282
0.057583 0.473712 0.109144 -0.833465 0.552227 0.019517
0.201529 0.365833 0.161644 0.723485 0.094709 0.683813
0.107815 0.319910 0.053446 -0.373142 -0.253022 -0.892605
0.155383 0.147330 0.084509 0.397853 -0.195505 -0.896376
0.267109 0.625081 0.111092 -0.415193 -0.878584 0.236017
0.113264 0.829487 0.086852 -0.609897 -0.769664 0.188796
0.149976 0.817307 0.155434 -0.697563 -0.095093 0.710186
0.164735 0.029434 0.175099 0.475478 -0.844908 -0.245054
0.184617 0.666926 0.078649 0.074732 -0.827592 -0.556334
0.110372 0.456433 0.145708 -0.817973 0.192831 0.541974
0.109869 0.035787 0.224663 -0.812927 0.045826 0.580559
0.169503 0.046438 0.094436 -0.855116 0.075239 -0.512949
0.285556 0.709785 0.051726 0.276577 0.126831 -0.952585
0.083122 0.449639 0.123302 0.998138 -0.051238 0.033081
0.105636 0.740065 0.142556 -0.650732 0.531646 0.542126
0.102565 0.332584 0.054167 -0.435742 -0.126224 -0.891177
0.113088 0.697495 0.133700 -0.374001 0.927119 0.023942
0.144278 0.719209 0.068016 -0.120958 0.052957 -0.991244
0.171015 0.752115 0.153590 0.037628 0.656421 0.753455
0.047139 0.639976 0.125430 -0.486023 -0.264039 0.833106
0.116072 0.233908 0.068498 -0.628027 0.043294 -0.776986
0.187099 0.890347 0.073257 0.225308 0.802889 -0.551911
0.203713 0.352846 0.146183 0.953295 0.077093 0.292035
0.068129 0.734198 0.103705 -0.985994 0.154652 -0.062440
0.277155 0.479266 0.114730 -0.069684 -0.471047 0.879351
0.187218 0.364536 0.174964 -0.230940 0.020119 0.972760
0.123617 0.659900 0.034267 0.430743 0.061103 -0.900404
0.206985 0.328416 0.093670 0.868791 -0.089817 -0.486964
0.153266 0.582272 0.177248 -0.232878 0.209211 0.949736
0.147242 0.456507 0.166160 -0.068201 0.203377 0.976722
0.187828 0.250629 0.137338 -0.567459 0.071811 0.820265
0.106920 0.546768 0.105917 -0.922616 0.291968 -0.252059
0.173972 0.041879 0.088476 0.828568 0.060022 -0.556662
0.071137 0.610701 0.103339 0.741952 0.537540 0.400697
0.185505 0.046884 0.087444 -0.441708 0.082865 -0.893324
0.130063 0.026634 0.167453 -0.103489 -0.681273 -0.724677
0.166315 0.269017 0.128108 -0.416564 -0.881533 0.222201
0.287544 0.541437 0.071259 0.156903 -0.173701 -0.972219
0.232503 0.569306 0.089875 0.863517 -0.128554 -0.487660
0.140136 0.232010 0.147702 -0.003087 -0.022220 0.999748
0.214761 0.216793 0.070528 0.353716 -0.004377 -0.935342
0.083113 0.750088 0.034496 -0.296851 -0.163345 -0.940850
0.105524 0.029765 0.174480 -0.543808 -0.401175 -0.737110
0.217730 0.140406 0.095051 0.756626 -0.221096 -0.615332
0.138174 0.299851 0.124961 -0.948412 -0.299974 0.102621
0.055753 0.439391 0.097900 -0.955030 -0.152678 -0.254180
0.278546 0.398548 0.095467 0.945882 0.267026 -0.184403
0.137778 0.349530 0.140645 -0.975814 0.057321 0.210952
0.150024 0.285075 0.107400 -0.737879 -0.668035 -0.096251
0.125921 0.596547 0.076805 -0.492761 0.152275 -0.856737
0.217478 0.083211 0.114381 0.730060 -0.682263 0.039122
0.111416 0.577643 0.115166 -0.678478 0.731830 -0.063973
0.204371 0.261301 0.142395 0.208391 0.105472 0.972342
0.267468 0.506230 0.085915 -0.878561 -0.187937 -0.439103
0.193297 0.784446 0.141763 0.707452 -0.374610 0.599315
0.050712 0.488671 0.101075 -0.900133 -0.379203 0.214396
0.202610 0.341811 0.181810 -0.101197 -0.060007 0.993055
0.131946 0.653375 0.071500 -0.380088 -0.295740 -0.876397
0.267523 0.348201 0.114942 0.999762 -0.007574 0.020465
0.210912 0.310799 0.152354 0.913058 -0.035864 0.406251
0.163713 0.555252 0.181448 -0.091588 0.014146 0.995697
0.203356 0.803875 0.124072 0.831872 -0.320070 0.453369
0.188769 0.116921 0.089730 -0.244289 -0.269326 -0.931550
0.067008 0.610562 0.075726 0.481912 -0.631812 -0.607103
0.237183 0.611704 0.143217 0.785985 0.327790 0.524195
0.219018 0.025289 0.174034 0.226029 -0.738344 -0.635420
0.195851 0.282553 0.076953 0.030472 -0.666075 -0.745262
0.135983 0.854150 0.043392 -0.472521 0.368780 -0.800453
0.124780 0.256391 0.077092 -0.511271 0.181624 -0.840009
0.212661 0.267802 0.085357 0.355072 -0.881181 -0.312160
0.185090 0.535311 0.171444 0.184062 -0.193787 0.963622
0.153810 0.439162 0.085197 -0.406179 0.215073 -0.888123
0.150361 0.079712 0.096173 0.258009 0.355158 -0.898495
0.255419 0.625081 0.112302 -0.603163 -0.767127 0.218430
0.207257 0.578083 0.106678 0.136484 0.884590 -0.445952
0.078543 0.396281 0.123513 0.858428 -0.241870 0.452327
0.072348 0.756161 0.103376 -0.282502 0.795111 0.536648
0.239064 0.769217 0.083713 0.686184 0.667243 -0.289723
0.253745 0.752461 0.068729 0.044261 0.656490 -0.753035
0.106368 0.747795 0.039111 0.813416 0.218786 -0.538968
0.218824 0.431445 0.063628 0.415905 0.097137 -0.904206
0.206609 0.028904 0.232516 -0.440698 -0.602005 0.665864
0.093834 0.750472 0.061485 -0.517794 0.289044 -0.805198
0.286207 0.437408 0.090587 0.927733 -0.184499 -0.324456
0.190478 0.298810 0.161803 -0.229018 -0.580809 0.781160
0.178375 0.095550 0.118047 -0.844113 0.509485 -0.167029
0.205337 0.080655 0.157239 0.306202 0.887233 0.345047
0.195932 0.241244 0.145375 -0.182716 0.007941 0.983134
0.199952 0.897660 0.094997 0.405316 0.883198 -0.235967
0.158169 0.670871 0.076098 -0.062157 -0.773517 -0.630720
0.188760 0.640580 0.126887 0.259534 0.960478 0.100615
0.188851 0.033601 0.089640 -0.112231 -0.492625 -0.862974
0.233264 0.578061 0.138109 0.835605 0.015806 0.549103
0.154373 0.051065 0.088418 0.387073 0.110550 -0.915398
0.152258 0.816597 0.048287 -0.174461 -0.812596 -0.556103
0.178435 0.870968 0.165844 0.084693 -0.403826 0.910907
0.121694 0.495102 0.088315 -0.715342 0.261196 -0.648122
0.193956 0.291367 0.149665 0.732730 -0.459092 0.502335
0.205670 0.345108 0.182251 -0.057425 -0.056344 0.996759
0.286207 0.453323 0.104176 0.991613 0.106144 0.073744
0.114661 0.608093 0.095115 -0.809341 0.141144 -0.570128
0.072762 0.491426 0.111452 0.769048 -0.262303 0.582892
0.183079 0.286315 0.126110 -0.803407 0.180890 0.567288
0.260392 0.400074 0.113696 0.997727 0.063873 -0.021457
0.217028 0.130108 0.093548 0.743702 -0.240902 -0.623597
0.179580 0.672225 0.189198 0.118167 0.277385 0.953464
0.249535 0.429279 0.127755 0.964813 0.123607 0.232070
0.070654 0.716119 0.119989 -0.995019 0.025139 0.096468
0.210083 0.855049 0.129657 0.461793 -0.627162 0.627228
0.192499 0.198242 0.137084 -0.447116 -0.078172 0.891053
0.147529 0.638614 0.046194 0.931503 0.353207 0.086874
0.149262 0.808740 0.156086 -0.748632 -0.140501 0.647927
0.237007 0.717956 0.164129 0.631311 0.412734 0.656580
0.221521 0.377724 0.054213 0.263274 -0.013593 -0.964625
0.195879 0.556405 0.075974 0.267769 0.023081 -0.963207
0.126398 0.268197 0.094407 -0.426248 -0.874497 -0.231446
0.064453 0.397526 0.097084 -0.820746 -0.563614 -0.093353
0.175948 0.551775 0.128412 -0.228642 0.795703 0.560873
0.236147 0.036471 0.171733 0.649337 -0.064534 -0.757758
0.266644 0.474634 0.119144 -0.380509 0.867021 0.321694
0.188383 0.026855 0.209250 -0.689175 -0.702921 0.175898
0.197029 0.267493 0.123938 0.221931 -0.955350 0.195073
0.167356 0.068168 0.110274 0.892938 0.182014 -0.411745
0.123630 0.656823 0.179354 -0.510865 -0.248777 0.822877
0.041154 0.663491 0.076735 -0.823711 -0.305929 -0.477396
0.163516 0.510832 0.163804 -0.094303 -0.414259 0.905260
0.247990 0.763094 0.082125 -0.318832 0.916013 -0.243448
0.210346 0.857759 0.047481 0.530819 0.420156 -0.736003
0.089214 0.679141 0.098473 0.918662 -0.338651 0.203407
0.109518 0.868515 0.121771 -0.896268 -0.155515 0.415355
0.081457 0.751773 0.068908 -0.744237 0.261186 -0.614730
0.096154 0.635671 0.137188 -0.814364 -0.548287 0.190243
0.161692 0.720191 0.074539 -0.050040 -0.106655 -0.993036
0.214716 0.500939 0.163178 0.598157 0.249338 0.761603
0.128567 0.835689 0.096128 -0.483637 -0.780459 0.396206
0.104355 0.622534 0.140840 -0.780392 0.419274 0.463893
0.127484 0.025342 0.227490 0.108358 -0.922955 0.369341
0.048481 0.583992 0.075387 -0.467384 0.199389 -0.861276
0.163991 0.556241 0.113048 0.342329 0.938715 -0.040316
0.282923 0.639580 0.060685 -0.148751 -0.333542 -0.930926
0.251274 0.727308 0.145934 0.756135 0.457548 0.467878
0.088233 0.340451 0.086294 -0.878199 -0.069302 -0.473248
0.191813 0.267137 0.123281 0.090954 -0.974443 0.205399
0.216763 0.772816 0.122104 0.481886 0.793792 0.371053
0.186276 0.603646 0.139547 0.148148 -0.976091 0.159052
0.195498 0.267897 0.085809 -0.573154 0.240107 -0.783481
0.219626 0.167960 0.087903 0.695718 -0.137886 -0.704956
0.149888 0.538930 0.083378 -0.350895 0.369786 -0.860309
0.097292 0.375110 0.153800 -0.760245 0.010571 0.649551
0.126264 0.655990 0.054675 0.522797 0.109569 0.845386
0.187442 0.418411 0.159759 0.473367 0.201120 0.857598
0.109127 0.296453 0.080307 -0.565492 -0.577902 -0.588429
0.183005 0.668320 0.190754 0.119415 0.128657 0.984473
0.224239 0.674132 0.174600 0.589340 0.298324 0.750787
0.089222 0.734222 0.135664 -0.820553 0.397021 0.411178
0.261444 0.680603 0.122993 0.907625 -0.399599 0.128597
0.051964 0.620595 0.113922 -0.450600 -0.424524 0.785327
0.245615 0.357370 0.159866 0.681856 -0.039333 0.730428
0.174899 0.324168 0.176383 -0.478565 -0.058766 0.876083
0.175245 0.831374 0.089939 0.032774 -0.898854 0.437020
0.114872 0.422976 0.171313 -0.509016 0.088389 0.856207
0.234788 0.397536 0.165713 0.592589 0.044121 0.804296
0.222524 0.161829 0.101130 0.963699 -0.155986 -0.216685
0.079790 0.758772 0.078445 -0.256332 0.886615 -0.384978
0.121740 0.751689 0.117623 -0.958593 0.203904 0.198802
0.151903 0.648670 0.189529 -0.207336 -0.295918 0.932440
0.100467 0.733021 0.146344 -0.693694 0.455322 0.558096
0.218188 0.627088 0.152785 0.575287 -0.668692 0.471059
0.228166 0.026160 0.165601 0.561679 -0.696646 -0.446320
0.231536 0.194466 0.114245 0.988404 -0.035205 0.147710
0.180377 0.433899 0.070223 -0.073787 0.157486 -0.984761
0.247606 0.417743 0.104776 0.960623 0.119539 -0.250828
0.164038 0.151567 0.111563 0.988395 -0.151450 0.011786
0.174670 0.519670 0.145616 0.096166 0.443579 0.891061
0.172617 0.351040 0.063427 0.346326 -0.071206 -0.935408
0.133517 0.319356 0.089298 -0.854107 -0.117564 -0.506636
0.215581 0.093383 0.097277 0.750947 -0.455771 -0.477861
0.113609 0.771543 0.115979 -0.588109 0.748659 0.306001
0.218714 0.396332 0.179819 0.198547 0.037270 0.979383
0.079373 0.559550 0.089130 0.974086 0.038137 -0.222941
0.134144 0.324977 0.109184 -0.964591 -0.077731 -0.252035
0.184254 0.610194 0.171877 0.137776 -0.749080 0.647994
0.187192 0.160987 0.122415 -0.799375 -0.103096 0.591921
0.114115 0.198389 0.097784 -0.977558 -0.038579 -0.207105
0.297533 0.613789 0.104406 0.639843 0.612963 0.463548
0.300432 0.725004 0.102417 0.821109 0.546148 0.165837
0.160644 0.418267 0.073134 -0.321814 0.124214 -0.938619
0.143417 0.770025 0.081969 -0.265527 0.687391 -0.676010
0.100893 0.745889 0.116277 0.670830 0.456128 0.584752
0.053759 0.476852 0.104847 -0.850335 -0.402710 0.338755
0.105109 0.032967 0.169137 -0.827295 -0.418146 -0.375150
0.224091 0.574306 0.126742 0.568449 0.805312 0.168341
0.222812 0.275420 0.133591 0.651268 -0.741277 0.162350
0.223988 0.889911 0.099753 0.694552 0.717303 -0.055432
0.218277 0.843419 0.044009 0.635531 0.157629 -0.755813
0.049573 0.661417 0.062349 -0.532114 -0.206692 -0.821056
0.216565 0.642916 0.093026 0.563350 0.441142 -0.698592
0.071759 0.452486 0.130601 0.187187 0.337662 0.922467
0.121502 0.547052 0.146539 -0.783796 0.321332 0.531422
0.076081 0.440000 0.078286 0.546879 -0.464972 -0.696221
0.241865 0.711574 0.063338 0.492555 -0.038541 -0.869428
0.122567 0.287054 0.108329 -0.915631 0.369878 -0.157510
0.157343 0.875266 0.059702 -0.203057 0.620579 -0.757397
0.141499 0.034613 0.172280 0.200228 -0.442924 -0.873915
0.166946 0.566543 0.084926 -0.052828 0.276434 -0.959580
0.110709 0.438333 0.154831 -0.726967 0.146750 0.670808
0.168776 0.043623 0.091988 -0.846633 0.062929 -0.528444
0.147136 0.402857 0.118766 -0.881684 0.240913 -0.405702
0.048068 0.560378 0.115800 -0.525078 0.060995 0.848866
0.206507 0.489449 0.074196 0.419306 0.240733 -0.875346
0.104243 0.471022 0.101393 -0.912680 0.206369 -0.352742
0.226912 0.481526 0.093462 0.800361 0.241424 -0.548759
0.180425 0.843070 0.067221 0.211082 -0.008373 -0.977433
0.181014 0.558476 0.082042 0.119933 0.099999 -0.987733
0.241584 0.697302 0.108906 0.465246 0.883334 -0.057160
0.090227 0.694860 0.048629 -0.816065 -0.479368 0.322869
0.226894 0.607584 0.094010 0.793927 0.142424 -0.591096
0.146511 0.544179 0.085199 -0.335822 0.453490 -0.825573
0.054266 0.739459 0.103250 -0.636693 0.705040 0.312315
0.258316 0.427005 0.130442 0.018422 -0.704005 -0.709956
0.230430 0.214608 0.130239 0.868352 0.009940 0.495849
0.170653 0.116889 0.111039 -0.977022 -0.210212 0.035199
0.173666 0.769389 0.117484 0.054531 -0.832654 0.551102
0.095069 0.688484 0.094369 0.949572 -0.255011 0.182437
0.167328 0.179275 0.117189 0.990301 -0.053751 0.128117
0.187672 0.392683 0.071736 0.434773 0.053973 -0.898921
0.171360 0.029911 0.106103 0.723414 -0.601414 -0.339078
0.123815 0.659082 0.109823 -0.383396 -0.895742 -0.225066
0.197694 0.691084 0.074790 0.146261 0.854452 -0.498517
0.114391 0.823591 0.061819 -0.621073 -0.704786 -0.342849
0.129240 0.871211 0.061445 -0.586519 0.571631 -0.573788
0.148277 0.316312 0.055077 0.119792 -0.199752 -0.972496
0.079325 0.682343 0.137357 -0.910976 -0.341200 0.231746
0.105830 0.752460 0.114035 0.799689 0.469884 0.373773
0.158727 0.603890 0.114214 -0.111361 -0.975719 -0.188601
0.154571 0.444036 0.089045 -0.411040 0.245911 -0.877824
0.184866 0.292971 0.072447 0.488111 -0.393927 -0.778825
0.071933 0.464121 0.087962 0.501654 -0.624703 -0.598406
0.271808 0.660854 0.122117 -0.227526 -0.333975 0.914709
0.169962 0.785300 0.126403 0.005029 0.824848 0.565332
0.124424 0.064166 0.129168 -0.974083 0.161409 -0.158460
0.196436 0.306062 0.167130 -0.168065 -0.487164 0.856986
0.202202 0.578583 0.128410 -0.058167 0.955045 0.290697
0.302307 0.643281 0.090307 0.980507 -0.195923 -0.014854
0.204879 0.327021 0.165803 0.796979 0.010968 0.603907
0.151615 0.361126 0.176213 0.201393 0.006467 0.979489
0.218104 0.085101 0.139697 0.763001 0.637183 0.108752
0.191468 0.260907 0.137961 -0.424829 0.092702 0.900515
0.176776 0.311470 0.059918 0.452183 -0.180464 -0.873478
0.210796 0.308831 0.124740 0.994764 -0.092841 0.042719
0.234452 0.708335 0.111247 -0.873166 -0.034472 0.486203
0.094686 0.641659 0.120225 -0.891319 -0.451915 -0.036386
0.105920 0.633502 0.142713 -0.753518 -0.589306 0.291425
0.148958 0.163585 0.127971 0.529875 -0.082708 0.844033
0.106756 0.310201 0.066958 -0.493622 -0.388823 -0.777917
0.073468 0.664108 0.120949 0.338405 -0.334174 0.879664
0.161006 0.259029 0.105721 0.889351 0.215283 -0.403372
0.147926 0.732040 0.147016 -0.381373 0.459263 0.802267
0.102372 0.762312 0.077176 0.511660 0.769404 -0.382389
0.141099 0.879892 0.066737 -0.428745 0.693240 -0.579307
0.055094 0.706829 0.134072 -0.377671 0.224856 0.898223
0.149055 0.025154 0.179338 0.149168 -0.948035 -0.281032
0.211277 0.844630 0.111612 0.471329 -0.717545 0.512814
0.230107 0.503422 0.098025 0.857355 0.260773 -0.443779
0.208250 0.287773 0.092051 0.575419 0.425794 -0.698278
0.151492 0.783488 0.075578 -0.393842 0.026616 -0.918793
0.159757 0.642860 0.123276 -0.160231 0.987013 0.011434
0.223772 0.271754 0.101834 0.911641 0.280261 -0.300608
0.087934 0.381921 0.129558 -0.962221 0.054168 0.266826
0.166515 0.287060 0.152082 -0.496268 -0.632183 0.595032
0.159812 0.897797 0.159100 -0.155400 0.831454 0.533419
0.169911 0.726498 0.158306 0.127049 0.465494 0.875885
0.223357 0.566892 0.144350 0.740133 -0.058046 0.669951
0.124459 0.649931 0.070380 -0.447770 -0.328662 -0.831555
0.139710 0.229654 0.071659 0.180963 0.099576 -0.978436
0.171434 0.235472 0.128468 0.952926 0.105276 0.284340
0.150340 0.045923 0.219792 0.487299 0.683519 0.543454
0.169648 0.834828 0.094637 -0.014698 -0.864289 0.502781
0.128686 0.039403 0.096066 -0.531973 -0.114020 -0.839050
0.196464 0.781188 0.134211 0.716269 -0.440233 0.541436
0.194822 0.072619 0.104867 -0.132119 -0.946579 -0.294165
0.101751 0.633033 0.140339 -0.773622 -0.587657 0.236998
0.179874 0.681033 0.076985 0.042877 -0.715063 -0.697744
0.234784 0.765872 0.069062 0.456435 0.583237 -0.671938
0.202110 0.839759 0.103176 0.359401 -0.793183 0.491621
0.221665 0.688414 0.066398 0.377233 0.753750 -0.538103
0.273682 0.447670 0.129280 -0.139826 -0.011783 0.990106
0.202857 0.846462 0.136639 0.841447 -0.032871 0.539339
0.130479 0.407559 0.059840 -0.205489 0.067791 -0.976309
0.244616 0.704799 0.064751 -0.772627 -0.057514 -0.632250
0.136136 0.619276 0.057474 0.161971 -0.118481 0.979657
0.198615 0.382058 0.136000 0.981702 0.184469 0.047245
0.104128 0.657586 0.104624 -0.526718 -0.793652 -0.304441
0.214506 0.656814 0.140987 0.256825 -0.945344 0.200912
0.194322 0.797039 0.141892 0.361933 0.329131 0.872168
0.069445 0.442097 0.130725 -0.697906 -0.452282 0.555309
0.046234 0.560854 0.075977 -0.615515 -0.014924 -0.787984
0.179810 0.731241 0.162098 0.291319 0.401542 0.868272
0.186202 0.573085 0.113287 -0.438777 0.898155 -0.028143
0.172132 0.746139 0.128958 -0.125836 0.548823 0.826413
0.225033 0.628662 0.155405 0.644322 0.475350 0.599075
0.122499 0.125073 0.122970 -0.857780 -0.229559 0.459910
0.091883 0.774831 0.054700 0.446050 0.119191 0.887036
0.140401 0.571218 0.142809 -0.120817 0.717711 0.685780
0.128158 0.664483 0.192091 -0.406845 -0.111850 0.906624
0.180570 0.423758 0.160990 0.384407 0.203781 0.900391
0.100465 0.499427 0.107012 -0.950802 0.224482 -0.213501
0.231740 0.389806 0.176157 0.441684 0.012541 0.897083
0.078402 0.459387 0.128092 0.561942 0.344583 0.751987
0.152640 0.565114 0.094098 0.266965 0.804548 -0.530502
0.214762 0.895759 0.123602 0.565216 0.811989 0.145620
0.172318 0.672069 0.181115 -0.068018 -0.567660 0.820448
0.151152 0.737911 0.069547 -0.083985 0.200072 -0.976175
0.169296 0.056232 0.106704 0.903670 0.110484 -0.413731
0.156080 0.585089 0.179879 -0.195861 0.232262 0.952729
0.273548 0.461569 0.096947 -0.355291 -0.918263 -0.174820
0.166839 0.517084 0.110413 -0.189888 0.777864 -0.599057
0.129887 0.411994 0.060550 -0.231014 0.075530 -0.970014
0.165653 0.275643 0.145157 0.317369 -0.801686 0.506533
0.172927 0.906100 0.087217 0.023553 0.909094 -0.415925
0.168942 0.769591 0.090954 -0.025847 0.751522 -0.659202
0.177098 0.848942 0.037602 0.088764 0.124313 -0.988265
0.270845 0.718691 0.131785 0.939209 0.246499 0.239009
0.099359 0.552938 0.104978 -0.950202 -0.311613 0.003703
0.074826 0.730263 0.119839 -0.961813 0.224955 0.155921
0.117553 0.637440 0.080910 -0.560666 -0.451048 -0.694412
0.205266 0.504213 0.164330 0.441276 0.271284 0.855383
0.106578 0.745841 0.091171 0.893664 0.444805 -0.059269
0.196700 0.393490 0.159077 0.639695 0.157645 0.752289
0.212655 0.844451 0.080616 0.913068 0.076818 -0.400507
0.215985 0.854732 0.046053 0.594891 0.374530 -0.711219
0.170370 0.219237 0.112663 -0.986197 0.093241 -0.136828
0.234950 0.247806 0.134176 0.843176 0.111611 0.525926
0.162345 0.490070 0.088926 -0.200805 0.351550 -0.914380
0.081930 0.377644 0.111409 -0.996696 0.041255 -0.069967
0.201841 0.877272 0.157928 0.444823 -0.144952 0.883811
0.136416 0.046515 0.177487 0.118928 0.723002 -0.680532
0.129084 0.892618 0.089730 -0.576971 0.786355 -0.220797
0.147228 0.029398 0.158243 -0.182169 -0.889667 -0.418696
0.220449 0.083751 0.146428 0.742357 0.657710 0.127768
0.148780 0.790438 0.131810 0.236313 0.375718 0.896098
0.222128 0.357160 0.185289 0.143244 -0.049710 0.988438
0.146558 0.696771 0.116102 -0.149855 0.979581 -0.134031
0.221466 0.665830 0.070105 0.287776 -0.515550 -0.807089
0.041056 0.646526 0.114005 -0.729793 -0.285695 0.621112
0.133848 0.618208 0.158410 -0.429584 -0.753648 0.497466
0.159403 0.819042 0.070292 -0.215219 -0.003251 -0.976560
0.100787 0.424350 0.138926 -0.891968 0.134570 0.431607
0.125006 0.636597 0.157050 -0.594206 -0.550443 0.586456
0.161733 0.222170 0.081484 0.811585 0.092200 -0.576914
0.040324 0.636049 0.096182 -0.961605 -0.229109 0.151082
0.134041 0.624469 0.086023 -0.430767 0.316629 -0.845095
0.103654 0.405219 0.084329 -0.788409 0.076871 -0.610329
0.063245 0.403451 0.087640 -0.924811 -0.331227 -0.187116
0.159810 0.081519 0.121963 0.586746 -0.637634 0.499151
0.199236 0.838483 0.100966 0.323486 -0.811797 0.486151
0.208968 0.410507 0.175439 0.119061 0.084186 0.989311
0.069049 0.751758 0.106081 -0.340285 0.769721 0.540125
0.255910 0.350981 0.139610 0.910408 -0.025520 0.412924
0.260357 0.690460 0.153273 0.872155 0.025189 0.488582
0.151584 0.427350 0.099502 -0.581369 0.248890 -0.774638
0.132833 0.040323 0.237117 0.143544 0.644528 0.750985
0.306755 0.573469 0.100081 0.955896 0.047755 0.289798
0.071584 0.417039 0.107560 0.402725 -0.913703 -0.054393
0.189694 0.031980 0.212402 -0.849098 -0.461671 0.256697
0.071285 0.624881 0.107612 0.712319 -0.447032 0.541077
0.067255 0.730749 0.105166 -0.991383 0.117816 -0.057260
0.120000 0.284568 0.128042 -0.829428 0.327165 0.452784
0.173596 0.284192 0.150694 -0.393380 -0.705628 0.589356
0.278163 0.396348 0.114082 0.720436 -0.689612 0.073538
0.215767 0.293920 0.107120 0.896237 0.411553 -0.165478
0.274966 0.720230 0.133258 0.119388 0.324066 0.938471
0.140269 0.850410 0.121621 -0.365502 -0.701680 0.611599
0.299201 0.609767 0.088132 0.828949 -0.521785 -0.201455
0.167933 0.476778 0.156516 -0.174588 0.301988 0.937188
0.142465 0.374133 0.107778 -0.877883 0.082128 -0.471780
0.264574 0.750407 0.112145 0.069112 0.627078 0.775884
0.177009 0.050583 0.138516 -0.992639 0.080891 0.090138
0.168324 0.525592 0.101873 -0.091222 0.608633 -0.788190
0.120947 0.613676 0.151028 -0.520018 -0.796487 0.308528
0.103488 0.562427 0.125169 -0.944649 0.292039 0.149503
0.071204 0.401414 0.125808 0.419712 -0.348380 0.838137
0.175078 0.959736 0.141640 0.329953 0.875430 0.353204
0.152771 0.027009 0.093390 0.116863 -0.884463 -0.451739
0.099834 0.568029 0.110609 -0.972671 -0.224555 0.059042
0.223530 0.272810 0.102376 0.912622 0.286003 -0.292102
0.124831 0.277253 0.090679 -0.804739 0.297488 -0.513708
0.132511 0.652119 0.038876 0.790692 0.261070 -0.553759
0.123989 0.658031 0.122104 -0.376533 -0.920453 -0.104830
0.103067 0.575165 0.106390 -0.980926 -0.173670 -0.087309
0.104341 0.821819 0.076037 -0.618887 -0.784440 -0.040423
0.202319 0.195022 0.074601 -0.038699 -0.074462 -0.996473
0.106061 0.225952 0.111503 -0.998065 0.056217 0.026566
0.110448 0.511702 0.138360 -0.876319 0.261685 0.404456
0.215119 0.832238 0.102539 0.983037 0.180382 0.033170
0.251686 0.661722 0.107606 0.955412 -0.252307 -0.153391
0.127782 0.631783 0.141424 -0.595007 0.676128 0.434531
0.214106 0.697173 0.131408 0.299016 0.951410 0.073539
0.103113 0.861652 0.101791 -0.980064 -0.085824 0.179187
0.233992 0.771069 0.108144 0.657437 0.728598 0.192153
0.266063 0.383741 0.091406 -0.972475 -0.091168 -0.214432
0.237614 0.325532 0.052613 0.394300 -0.176582 -0.901857
0.271134 0.434236 0.078286 -0.052860 -0.630304 -0.774547
0.104493 0.602690 0.117927 -0.982597 0.170442 0.073841
0.110375 0.491271 0.098160 -0.864906 0.244015 -0.438628
0.096133 0.769428 0.036866 0.610907 0.167782 -0.773720
0.275117 0.600233 0.085207 -0.440409 -0.848944 -0.292121
0.172710 0.291196 0.073123 -0.301740 -0.475886 -0.826127
0.226088 0.512737 0.144172 0.819004 0.273183 0.504582
0.082361 0.719112 0.058539 0.292514 0.181398 -0.938899
0.282100 0.682706 0.061878 0.447931 -0.080094 -0.890473
0.222158 0.122135 0.110923 0.966953 -0.252587 0.034667
0.186899 0.717035 0.072213 0.081658 -0.074465 -0.993875
0.036362 0.561153 0.100250 -0.959339 -0.022914 0.281324
0.300754 0.667649 0.109830 0.842032 -0.119017 0.526134
0.190972 0.426298 0.137144 0.868337 0.399643 0.293727
0.286207 0.439311 0.127085 0.886047 -0.149889 0.438696
0.232342 0.664805 0.167722 0.670233 -0.034568 0.741345
0.074661 0.544728 0.107176 0.911982 -0.073026 0.403678
0.110920 0.747948 0.048093 0.928064 0.276755 0.249207
0.206392 0.306527 0.162806 0.829109 -0.115594 0.547006
0.288858 0.534447 0.116351 0.238188 -0.190064 0.952440
0.176177 0.029267 0.160617 -0.675886 -0.706650 -0.209341
0.189504 0.210294 0.068988 -0.573511 0.043975 -0.818017
0.160972 0.166288 0.118706 0.948247 -0.109995 0.297875
0.165230 0.326038 0.176659 0.453378 -0.057402 0.889468
0.197793 0.766621 0.080473 0.569491 0.058879 -0.819886
0.161007 0.734389 0.168113 -0.026530 0.536646 0.843390
0.216010 0.829667 0.048632 0.580232 -0.407151 -0.705378
0.039280 0.625081 0.097730 -0.488156 -0.871515 -0.046537
0.180591 0.808959 0.066614 0.075132 -0.997031 0.016876
0.113091 0.223753 0.086088 -0.858503 0.032184 -0.511798
0.133578 0.804476 0.126941 -0.836505 0.219555 0.502051
0.163793 0.512143 0.155122 -0.013703 0.337469 0.941237
0.170804 0.048428 0.102946 0.900414 0.067730 -0.429729
0.154178 0.771707 0.088679 -0.231069 0.758558 -0.609259
0.137622 0.033275 0.234736 0.422251 -0.128729 0.897292
0.204033 0.569910 0.144187 0.202624 0.681413 0.703292
0.103615 0.627560 0.123141 -0.775688 -0.627474 -0.067702
0.123383 0.041164 0.235956 -0.016807 0.797209 0.603470
0.264856 0.401248 0.106821 -0.859988 0.506948 0.058522
0.132700 0.292683 0.094249 -0.708637 0.418611 -0.567978
0.088303 0.415254 0.137467 -0.559235 -0.826436 -0.065270
0.112591 0.539845 0.130818 -0.784779 -0.380540 0.489194
0.133152 0.655421 0.190133 -0.370780 -0.238060 0.897691
0.121084 0.505968 0.150609 -0.746811 0.271056 0.607290
0.175999 0.042353 0.135922 -0.998552 -0.053724 -0.002647
0.127465 0.491603 0.167988 -0.540034 0.223541 0.811414
0.145869 0.575149 0.048708 -0.545236 -0.736456 0.400437
0.175480 0.265549 0.096701 0.298930 -0.776452 -0.554763
0.129563 0.387516 0.179077 -0.107820 0.030249 0.993710
0.130143 0.659628 0.038655 0.779621 0.246758 -0.575588
0.191478 0.581239 0.041561 0.954113 0.071444 -0.290800
0.201216 0.288491 0.158210 0.129940 -0.712687 0.689342
0.119400 0.657618 0.120285 -0.414580 -0.901654 -0.123061
0.126924 0.185269 0.077816 -0.417964 -0.093335 -0.903656
0.164289 0.513105 0.079867 -0.024736 0.342782 -0.939089
0.237750 0.607326 0.141560 0.806825 0.286328 0.516768
0.152343 0.490002 0.160933 -0.102210 0.276975 0.955426
0.071912 0.628517 0.122008 0.277935 -0.658797 0.699099
0.184901 0.414984 0.160851 0.454809 0.189887 0.870110
0.199436 0.688078 0.073653 0.169813 0.772210 -0.612255
0.182238 0.949723 0.142641 0.753177 -0.259148 -0.604622
0.203354 0.509516 0.137810 0.446766 -0.615265 0.649499
0.229918 0.036543 0.232717 0.435666 0.606000 0.665552
0.239661 0.599298 0.137715 0.849438 0.200525 0.488104
0.141683 0.814401 0.053746 -0.256973 -0.877715 -0.404452
0.255516 0.660716 0.116346 0.734309 -0.677999 0.033294
0.162287 0.029597 0.182431 0.580110 -0.794019 -0.181675
0.236352 0.219663 0.128359 0.926373 0.036550 0.374828
0.187321 0.041805 0.203835 -0.964954 0.211558 0.155262
0.279999 0.629715 0.069613 -0.217048 -0.389371 -0.895143
0.124146 0.620721 0.054222 -0.278987 -0.374540 0.884243
0.204826 0.191060 0.075995 0.064397 -0.097058 -0.993193
0.288660 0.701088 0.058106 0.471721 0.094934 -0.876622
0.254374 0.379238 0.104854 0.977356 0.049180 -0.205808
0.178859 0.060310 0.147011 -0.926533 0.319351 0.198878
0.134259 0.617683 0.167564 -0.465927 0.443897 0.765420
0.216392 0.125271 0.091791 0.709900 -0.246733 -0.659671
0.227848 0.041033 0.234846 0.175187 0.859993 0.479293
0.212537 0.182173 0.132021 0.611776 -0.137423 0.779003
0.119157 0.868639 0.153973 -0.580491 -0.428321 0.692511
0.156131 0.806989 0.158323 -0.599495 -0.133973 0.789086
0.196941 0.392112 0.145617 0.885174 0.214293 0.412972
0.295309 0.731067 0.102453 0.754934 0.617789 0.220027
0.146468 0.397013 0.099181 -0.718445 0.140663 -0.681213
0.159266 0.760251 0.143178 0.374146 0.424996 0.824253
0.112078 0.685209 0.079494 -0.625132 0.605217 -0.492871
0.121788 0.822897 0.054533 -0.536808 -0.680263 -0.499079
0.160420 0.789963 0.161344 -0.580847 -0.209990 0.786461
0.190600 0.598365 0.178140 0.256937 0.326890 0.909465
0.203370 0.551767 0.153619 0.399016 0.519410 0.755645
0.177937 0.036786 0.165399 -0.935413 -0.353433 0.009331
0.267582 0.544625 0.085294 -0.861243 -0.042549 -0.506410
0.199327 0.298720 0.067003 0.003149 -0.447523 -0.894267
0.164498 0.437856 0.163683 0.161923 0.205638 0.965139
0.076819 0.630107 0.120369 0.417288 -0.679545 0.603398
0.113683 0.259298 0.134670 -0.758719 0.150144 0.633878
0.187329 0.209813 0.138144 -0.579797 -0.049635 0.813248
0.216727 0.788170 0.106670 0.467303 0.850618 0.240991
0.173234 0.070605 0.095634 -0.780988 0.226863 -0.581886
0.151114 0.644929 0.094751 -0.250463 0.784652 -0.567089
0.171244 0.696937 0.120598 0.008844 0.999338 -0.035287
0.179441 0.172182 0.104105 -0.994216 -0.091023 -0.057011
0.194507 0.415886 0.170888 -0.020208 0.124121 0.992061
0.190038 0.070439 0.093728 -0.367619 0.246021 -0.896844
0.115897 0.888401 0.092650 -0.717376 0.686866 -0.116564
0.122225 0.708553 0.184247 -0.335642 0.327273 0.883310
0.125732 0.271715 0.084196 -0.722145 0.266448 -0.638366
0.218762 0.589871 0.154545 0.630657 0.221071 0.743908
0.088292 0.346902 0.089049 -0.899524 -0.048865 -0.434131
0.063553 0.759710 0.092175 -0.518650 0.840457 0.156955
0.119880 0.635414 0.034646 -0.182728 -0.273095 -0.944473
0.258966 0.671207 0.126466 0.853135 -0.495992 0.161718
0.107264 0.038473 0.186356 -0.850270 -0.136805 -0.508258
0.080889 0.720371 0.129412 0.176996 0.276847 0.944473
0.109516 0.682726 0.059001 0.057994 -0.057902 0.996636
0.153495 0.544410 0.076271 -0.182604 -0.011262 -0.983122
0.168429 0.866664 0.161885 -0.042853 0.089921 0.995027
0.048164 0.579822 0.116460 -0.439593 0.206576 0.874119
0.129585 0.860135 0.138678 -0.485296 -0.565629 0.666746
0.199664 0.372454 0.100685 0.820881 0.057788 -0.568169
0.177874 0.666269 0.085001 0.052378 -0.904529 -0.423183
0.207216 0.632988 0.170220 0.441451 0.533991 0.721093
0.165836 0.028990 0.161881 0.651066 -0.727125 -0.217723
0.300599 0.626538 0.118397 0.545025 -0.498220 0.674333
0.112525 0.818376 0.071181 -0.506574 -0.857615 -0.088761
0.149097 0.415462 0.130789 -0.924108 0.351275 -0.150433
0.193853 0.696207 0.083432 0.111296 0.954386 -0.277057
0.205717 0.341644 0.153144 0.916247 0.049054 0.397599
0.152569 0.574182 0.105889 0.387427 0.897322 -0.211455
0.127847 0.566245 0.138636 -0.455574 0.770530 0.445798
0.140072 0.563012 0.147249 -0.225929 0.651992 0.723783
0.097890 0.386162 0.150041 -0.802295 0.041001 0.595518
0.194210 0.405759 0.111129 0.801464 0.222322 -0.555183
0.278112 0.394935 0.102327 0.975035 0.218448 -0.039837
0.209460 0.318756 0.145711 0.945777 -0.027697 0.323633
0.061778 0.426984 0.084792 -0.701530 0.585675 -0.406006
0.188831 0.774317 0.074484 0.356707 0.030908 -0.933705
0.232614 0.508571 0.100538 0.886707 0.260547 -0.381924
0.088639 0.335266 0.083176 -0.849269 -0.087530 -0.520653
0.218081 0.114452 0.098444 0.880983 -0.278746 -0.382321
0.162208 0.025289 0.124583 0.116960 -0.992809 -0.025517
0.226686 0.664723 0.159034 0.455905 -0.718355 0.525467
0.275866 0.434309 0.128613 -0.121787 -0.350160 0.928739
0.099295 0.724131 0.062034 -0.478603 0.072816 -0.875007
0.070180 0.397980 0.121847 -0.256891 0.711833 0.653683
0.126408 0.544024 0.152232 -0.717867 0.321210 0.617650
0.172449 0.133862 0.120931 -0.881607 -0.114879 0.457790
0.212839 0.067753 0.113537 0.827568 0.143645 -0.542676
0.194043 0.407967 0.123794 0.901398 0.285657 -0.325394
0.233223 0.869455 0.077053 0.882281 0.398789 -0.250095
0.044600 0.658196 0.117354 -0.692015 -0.176810 0.699895
0.072036 0.469661 0.087126 0.549995 -0.579411 -0.601488
0.220564 0.612752 0.082357 0.577248 0.212421 -0.788455
0.156420 0.177792 0.076839 0.539562 -0.093400 -0.836749
0.139689 0.251750 0.144551 -0.111781 0.060170 0.991910
0.238233 0.452518 0.137540 0.895872 0.178804 0.406746
0.163953 0.052509 0.089894 0.665729 0.126082 -0.735465
0.099294 0.758299 0.114377 -0.763837 0.602113 0.232407
0.234578 0.232685 0.102327 0.979090 0.073399 -0.189723
0.231964 0.674690 0.064113 0.349058 -0.328389 -0.877678
0.201050 0.291608 0.138873 0.271251 0.211732 0.938932
0.169150 0.470842 0.158537 0.134452 0.280603 0.950360
0.174977 0.782906 0.128004 0.045833 0.818675 0.572425
0.111269 0.838633 0.101226 -0.665190 -0.661138 0.347014
0.158147 0.222265 0.140764 0.602794 0.007169 0.797865
0.203445 0.794685 0.121259 0.804009 -0.402889 0.437321
0.135102 0.079587 0.096321 -0.606654 0.356993 -0.710300
0.177231 0.299307 0.067812 0.425986 -0.341168 -0.837938
0.135767 0.634264 0.116827 -0.522541 0.852558 -0.009846
0.205343 0.341927 0.133076 0.994744 0.018230 0.100759
0.139975 0.363192 0.147394 -0.947955 0.116951 0.296149
0.162513 0.559505 0.106763 0.368669 0.893637 -0.255920
0.031942 0.651732 0.088764 -0.879691 -0.451945 -0.147952
0.175458 0.586380 0.180988 0.059832 0.245990 0.967424
0.265242 0.418267 0.078868 -0.811179 0.449943 -0.373550
0.066229 0.675557 0.064780 -0.107717 -0.186536 -0.976525
0.078389 0.595124 0.096780 0.949797 0.267299 0.162596
0.183131 0.562139 0.040436 0.494044 -0.557390 -0.667261
0.190934 0.282735 0.133642 -0.386622 0.198361 0.900653
0.107867 0.472121 0.098518 -0.878164 0.216767 -0.426427
0.149710 0.027072 0.165714 0.011582 -0.919197 -0.393628
0.187863 0.031101 0.091185 -0.126353 -0.663386 -0.737532
0.205361 0.055911 0.181787 0.030339 0.963398 -0.266353
0.138161 0.613561 0.170020 -0.421151 0.422107 0.802781
0.261336 0.636197 0.099639 -0.930222 -0.314451 0.189232
0.097877 0.848618 0.107425 -0.854518 -0.429323 0.292370
0.236169 0.386741 0.167589 0.566707 0.017732 0.823729
0.205053 0.895685 0.149527 0.458969 0.747662 0.479947
0.172812 0.804146 0.055595 0.014908 -0.980836 -0.194266
0.126877 0.510025 0.122658 -0.655580 -0.693615 0.298517
0.114356 0.508828 0.142946 -0.832879 0.266109 0.485282
0.124781 0.673209 0.184198 -0.477809 0.199419 0.855529
0.042814 0.718726 0.081127 -0.776253 0.409379 -0.479416
0.180394 0.561596 0.124359 -0.352972 0.866948 0.351871
0.104668 0.665518 0.154987 -0.593689 -0.738021 0.320715
0.173560 0.372528 0.168925 0.435606 0.071669 0.897280
0.219617 0.891468 0.100211 0.650696 0.755771 -0.073516
0.077738 0.425338 0.091793 0.706069 -0.647536 -0.286642
0.290358 0.615301 0.075034 0.335858 -0.593786 -0.731176
0.074943 0.776166 0.055268 -0.349144 -0.162989 0.922785
0.143595 0.807365 0.062259 -0.211185 -0.969754 -0.122383
0.203260 0.524608 0.069323 0.334239 -0.185538 -0.924046
0.030908 0.640721 0.097683 -0.831161 -0.550319 0.079504
0.178463 0.579992 0.053056 0.590825 -0.173775 0.787863
0.141588 0.744438 0.139217 -0.563542 0.378142 0.734458
0.097102 0.654533 0.128620 -0.574054 -0.817817 -0.040461
0.218554 0.424555 0.062447 0.386975 0.084518 -0.918209
0.171452 0.645028 0.086506 0.002064 -0.485169 -0.874418
0.144942 0.387269 0.091829 -0.686468 0.084533 -0.722230
0.065673 0.383721 0.093191 -0.992856 0.003911 -0.119253
0.168639 0.398628 0.167183 0.311123 0.126228 0.941950
0.127197 0.498759 0.164078 -0.587673 0.243872 0.771470
0.184127 0.512480 0.079139 0.119420 0.334613 -0.934758
0.102163 0.342039 0.059180 -0.500699 -0.102390 -0.859544
0.068348 0.625081 0.121644 0.175975 -0.696788 0.695356
0.232942 0.667414 0.072069 0.647065 -0.180418 -0.740781
0.173848 0.227904 0.126975 0.981257 0.100089 0.164674
0.063364 0.550232 0.066447 0.268361 -0.054982 -0.961748
0.153674 0.439168 0.093681 -0.470153 0.255792 -0.844705
0.104622 0.583884 0.107074 -0.988553 -0.090371 -0.120817
0.215920 0.549643 0.066632 0.451189 -0.076455 -0.889147
0.215703 0.536225 0.152927 0.711353 0.311497 0.630037
0.118185 0.444652 0.072863 -0.581485 0.134740 -0.802322
0.153336 0.769331 0.117086 -0.524833 -0.693945 0.492941
0.217437 0.811807 0.061633 0.358782 -0.908789 -0.213021
0.236319 0.298630 0.082842 0.612605 -0.537897 -0.579122
0.177435 0.468214 0.077888 0.186801 0.254027 -0.948987
0.176167 0.681988 0.079989 0.019073 0.529085 -0.848354
0.264897 0.544765 0.090837 -0.943087 -0.018597 -0.332025
0.030553 0.633116 0.084136 -0.680786 -0.649361 -0.338912
0.135390 0.697687 0.162800 -0.169570 0.963774 0.205879
0.183091 0.528672 0.074952 0.115273 -0.068889 -0.990942
0.085825 0.742328 0.118200 -0.893401 0.400290 0.203965
0.096702 0.317618 0.077987 -0.701395 -0.289621 -0.651280
0.167035 0.265324 0.114809 0.254940 -0.965103 -0.059852
0.115618 0.657670 0.114302 -0.446405 -0.876327 -0.181037
0.275704 0.599826 0.108153 -0.271576 -0.909776 0.313935
0.095734 0.716670 0.056994 -0.124288 -0.116632 0.985368
0.211444 0.299402 0.065084 0.165629 -0.488084 -0.856937
0.174300 0.663383 0.109203 -0.009755 -0.978597 -0.205556
0.180100 0.661002 0.125568 0.006430 -0.999668 -0.024951
0.123961 0.723356 0.170600 -0.365450 0.457360 0.810721
0.302549 0.636176 0.113182 0.687680 -0.448336 0.571043
0.200787 0.833651 0.136964 0.828234 -0.112795 0.548914
0.142504 0.847327 0.155814 -0.718778 -0.073755 0.691316
0.226482 0.261612 0.097634 0.904792 0.222358 -0.363191
0.123920 0.777082 0.085899 -0.446326 0.840574 -0.306967
0.130673 0.285930 0.134722 -0.541380 0.260075 0.799543
0.117789 0.622420 0.094521 -0.730524 0.249570 -0.635649
0.130056 0.757941 0.089904 -0.838392 0.083719 -0.538599
0.236634 0.683283 0.064593 0.427163 -0.270744 -0.862687
0.121522 0.277375 0.140681 -0.647103 -0.709099 0.280064
0.210364 0.267732 0.111381 0.446022 -0.894959 -0.010570
0.117347 0.046807 0.143988 -0.976944 -0.021786 -0.212382
0.086754 0.700460 0.047369 -0.852637 -0.485486 0.193168
0.118418 0.624697 0.094165 -0.712385 0.267848 -0.648664
0.151067 0.038985 0.215336 0.921719 0.096103 0.375764
0.136094 0.065094 0.177754 -0.150290 0.896927 0.415855
0.164279 0.805067 0.067033 -0.116955 -0.007838 -0.993106
0.163820 0.491149 0.157588 0.030377 0.304161 0.952136
0.186567 0.459337 0.071643 0.034014 0.215715 -0.975864
0.213277 0.725827 0.061833 0.177621 0.111015 -0.977817
0.215273 0.713852 0.181756 0.415239 0.389302 0.822205
0.133840 0.820250 0.073824 -0.303624 -0.951774 0.044037
0.215682 0.532046 0.088733 0.695289 0.310818 -0.648048
0.276390 0.476662 0.114779 -0.131749 -0.473839 0.870700
0.037657 0.547361 0.108315 -0.850429 -0.083831 0.519367
0.183202 0.340428 0.058929 -0.207299 -0.107756 -0.972325
0.098122 0.514595 0.124578 -0.961556 0.228737 0.151952
0.184248 0.423292 0.167237 -0.119078 0.160982 0.979747
0.158352 0.566208 0.047989 -0.415477 -0.826571 0.379683
0.137987 0.825036 0.125164 -0.890944 -0.112627 0.439924
0.200992 0.292607 0.082064 0.734268 -0.395858 -0.551495
0.173416 0.477506 0.104827 0.072961 -0.765592 -0.639176
0.163878 0.725344 0.075064 -0.038220 -0.048325 -0.998100
0.153835 0.493762 0.093820 -0.357036 -0.542571 -0.760356
0.151260 0.640039 0.129594 -0.290231 0.944586 0.153374
0.121444 0.790558 0.115091 -0.976068 0.154611 0.152928
0.208301 0.319439 0.081357 0.796585 -0.123469 -0.591783
0.160896 0.655439 0.163804 -0.117951 -0.933484 0.338668
0.156449 0.151335 0.089674 0.556183 -0.202381 -0.806041
0.122647 0.602553 0.120333 -0.483114 -0.845388 -0.227860
0.259376 0.670819 0.130972 0.979687 0.032673 0.197855
0.126461 0.160792 0.125737 -0.710249 -0.150546 0.687665
0.109746 0.387264 0.176261 -0.440143 0.007076 0.897900
0.074649 0.698217 0.141518 -0.939229 -0.071164 0.335835
0.280676 0.628891 0.060236 -0.120077 -0.475384 -0.871545
0.194509 0.191022 0.136773 -0.366121 -0.070103 0.927923
0.183421 0.469545 0.127685 0.691627 0.716252 0.092930
0.113138 0.026539 0.164362 -0.589017 -0.675983 -0.442839
0.098492 0.560336 0.114034 -0.960837 0.271590 -0.055059
0.132829 0.446236 0.171605 -0.254962 0.154439 0.954538
0.145443 0.836191 0.096996 -0.287523 -0.836138 0.467122
0.152402 0.840001 0.030873 -0.252746 0.054521 -0.965995
0.063900 0.395709 0.091622 -0.949986 0.210250 -0.230913
0.095753 0.689576 0.079852 0.917140 -0.211875 -0.337585
0.133713 0.895451 0.100798 -0.516725 0.846413 -0.128766
0.254154 0.438980 0.137262 -0.860498 0.251258 0.443185
0.117195 0.707710 0.051272 0.797560 0.211035 0.565121
0.205861 0.025289 0.217801 -0.245884 -0.934744 0.256506
0.076123 0.334997 0.108053 -0.996472 -0.038628 -0.074509
0.158461 0.690039 0.189650 -0.097582 0.004383 0.995218
0.199122 0.573498 0.078426 0.315200 0.097364 -0.944018
0.128376 0.520991 0.067444 -0.449179 -0.261346 -0.854363
0.137303 0.853598 0.127142 -0.400931 -0.661780 0.633484
0.220972 0.316452 0.177082 0.204358 -0.360085 0.910262
0.206378 0.603027 0.117060 0.351313 -0.907303 -0.231042
0.166996 0.643694 0.097713 -0.046550 0.917216 -0.395661
0.260158 0.642359 0.118505 -0.561974 -0.586989 0.582776
0.129361 0.857722 0.048071 -0.560355 0.415798 -0.716320
0.168395 0.803136 0.064282 -0.042628 -0.014146 -0.998991
0.178235 0.273814 0.144790 -0.247131 -0.830272 0.499575
0.125416 0.063892 0.125454 -0.949733 0.123262 -0.287774
0.038555 0.687379 0.086481 -0.988638 0.042029 -0.144320
0.078145 0.685650 0.142455 -0.915957 -0.249413 0.314349
0.275792 0.462230 0.094895 -0.034038 -0.937714 -0.345738
0.286207 0.444193 0.094823 0.957268 -0.070414 -0.280498
0.071720 0.752841 0.040126 -0.810793 -0.365151 -0.457471
0.217075 0.804630 0.117928 0.918977 0.235014 0.316621
0.104436 0.577686 0.134083 -0.873310 -0.010395 0.487054
0.170494 0.232236 0.129846 0.941404 0.095125 0.323588
0.152805 0.376423 0.164241 -0.590435 0.103983 0.800359
0.176271 0.065084 0.122247 -0.957100 0.131096 -0.258405
0.065288 0.382280 0.114052 -0.986744 -0.049082 0.154685
0.179683 0.116107 0.089853 -0.496550 -0.239203 -0.834398
0.055753 0.447416 0.083984 -0.914189 -0.015329 -0.404998
0.130473 0.034394 0.141321 -0.753445 -0.524639 -0.396326
0.123560 0.312824 0.056613 -0.184181 -0.301077 -0.935644
0.090373 0.503228 0.115626 -0.981561 0.191111 -0.003723
0.180885 0.728415 0.073823 0.050261 0.034233 -0.998149
0.121807 0.319246 0.052126 -0.186634 -0.222960 -0.956795
0.264316 0.391922 0.125290 -0.962103 0.061420 0.265680
0.181370 0.598853 0.043971 0.975769 0.204710 -0.077255
0.067704 0.507351 0.074319 0.454777 -0.354629 -0.816956
0.216438 0.473074 0.171076 0.495618 0.185325 0.848539
0.264767 0.393612 0.087101 -0.931204 0.287067 -0.224615
0.124367 0.054213 0.196493 -0.238668 0.971086 0.005510
0.204665 0.288057 0.138205 0.338381 0.210694 0.917118
0.116261 0.546179 0.065045 -0.557054 -0.135079 -0.819417
0.135572 0.365857 0.056311 -0.096170 -0.039928 -0.994564
0.140158 0.660194 0.120411 -0.240221 -0.963315 -0.119661
0.038321 0.599764 0.089433 -0.922749 0.356085 -0.147435
0.303080 0.536678 0.107347 0.866364 -0.142210 0.478738
0.191351 0.483355 0.098813 0.424108 -0.657592 -0.622660
0.159347 0.779895 0.103808 -0.161934 0.986801 -0.001408
0.108846 0.051188 0.198949 -0.644200 0.764438 0.025317
0.265770 0.427516 0.078286 -0.427807 -0.675851 -0.600172
0.291759 0.500552 0.083842 0.649378 -0.315477 -0.691941
0.174691 0.734564 0.143010 0.011983 0.502793 0.864324
0.056669 0.463617 0.127881 -0.688471 0.303972 0.658490
0.223459 0.696463 0.086039 0.301110 0.931825 -0.202571
0.302527 0.603122 0.102215 0.808555 0.434722 0.396554
0.105318 0.253303 0.114814 -0.985935 0.165371 0.024171
0.123211 0.820464 0.095127 -0.979317 0.102982 -0.174165
0.119735 0.027814 0.135292 -0.497482 -0.867450 -0.006520
0.178344 0.279325 0.146664 0.488178 -0.709611 0.508070
0.234682 0.672916 0.069916 0.417610 -0.396915 -0.817350
0.206136 0.157765 0.083547 0.192538 -0.179517 -0.964729
0.118835 0.612835 0.103860 -0.575996 -0.694476 -0.431197
0.278113 0.394368 0.107860 0.974347 0.216596 0.061107
0.258417 0.324592 0.098927 0.951525 -0.163432 -0.260558
0.245164 0.635191 0.129086 0.836996 -0.541845 0.076431
0.066722 0.424120 0.128104 0.143425 -0.665375 0.732601
0.267530 0.723813 0.129036 0.927447 0.293537 0.231686
0.162766 0.771059 0.068044 -0.146267 0.005797 -0.989228
0.216618 0.832717 0.090622 0.970523 0.117058 -0.210673
0.286073 0.558025 0.071309 0.132524 0.016016 -0.991050
0.149616 0.198396 0.136998 0.454725 -0.078874 0.887133
0.128849 0.050016 0.102350 -0.651449 -0.002230 -0.758689
