0.293051 0.758766 0.164756 0.017883 -0.443032 -0.896328
0.180853 0.354749 0.093441 -0.144063 0.055697 -0.988000
0.266361 0.817993 0.129570 0.201299 -0.633960 -0.746708
0.470795 0.635679 0.120950 -0.035318 -0.018450 -0.999206
0.435497 0.789298 0.068825 -0.690214 -0.288276 0.663702
0.394214 0.686675 0.067578 -0.823340 0.428880 0.371718
0.468413 0.674170 0.122360 -0.592168 0.238490 -0.769714
0.277509 0.867372 0.082846 0.511640 -0.295607 0.806747
0.323568 0.331756 0.133408 0.110567 0.324815 -0.939292
0.168686 0.535637 0.102806 -0.254730 -0.049793 -0.965729
0.313997 0.178674 0.101726 0.841220 0.034370 -0.539599
0.311248 0.532310 0.161602 0.000000 0.000000 1.000000
0.485624 0.598701 0.139636 -0.152350 0.202623 -0.967333
0.292014 0.728020 0.174256 -0.072456 -0.069712 -0.994932
0.343150 0.777275 0.159511 -0.111295 -0.595029 -0.795961
0.331399 0.956234 0.092867 0.651768 0.638785 -0.408842
0.153213 0.790137 0.072385 0.723338 -0.321956 0.610840
0.286276 0.602385 0.154011 0.065833 0.058235 -0.996130
0.280999 0.771804 0.034985 -0.087970 -0.372651 0.923793
0.179654 0.720056 0.097051 0.872820 0.094577 -0.478791
0.270562 0.847458 0.076918 0.362079 -0.619848 0.696195
0.296345 0.746832 0.170030 0.011310 -0.393100 -0.919426
0.251033 0.049762 0.101246 0.893484 -0.447182 -0.041404
0.198265 0.529396 0.090656 -0.802922 -0.044507 0.594420
0.228212 0.256889 0.080074 0.973931 -0.133545 -0.183368
0.242085 0.797548 0.134703 0.195018 -0.647293 -0.736871
0.273115 0.296475 0.053259 -0.723621 -0.158434 0.671767
0.172928 0.544505 0.094019 0.956005 -0.286469 0.063172
0.031761 0.458452 0.103997 0.921907 -0.345046 -0.176157
0.465194 0.747598 0.089973 -0.860214 -0.424792 0.282105
0.217947 0.484561 0.046033 0.759852 0.165116 0.628778
0.313066 0.031537 0.137963 0.362673 0.923833 0.122475
0.294517 0.418494 0.111102 -0.974471 -0.090757 0.205353
0.176507 0.769593 0.052368 0.513400 -0.034414 0.857459
0.298411 0.654738 0.160041 -0.016941 0.236839 -0.971401
0.344409 0.366680 0.141133 -0.468760 0.330985 -0.818971
0.145865 0.677026 0.133884 -0.180135 0.227843 -0.956890
0.281390 0.603536 0.163071 -0.939330 0.110308 -0.324795
0.302944 0.601145 0.060796 0.031247 -0.441209 0.896860
0.383024 0.512009 0.086626 -0.992176 -0.113595 0.051795
0.202857 0.457816 0.096167 0.987893 0.053489 -0.145626
0.185533 0.490644 0.101638 -0.520279 0.008700 -0.853952
0.334668 0.131248 0.064056 -0.593333 0.315885 0.740387
0.283068 0.183747 0.086693 -0.940203 0.031273 -0.339175
0.360603 0.603539 0.060314 -0.788809 -0.089784 0.608045
0.267633 0.185923 0.110519 -0.168087 0.079878 -0.982531
0.372065 0.570705 0.092472 -0.894579 -0.432740 -0.111646
0.197328 0.530618 0.099401 -0.472207 0.083630 -0.877512
0.329499 0.912158 0.090988 -0.984615 0.160568 0.068930
0.364189 0.231920 0.074769 -0.975697 0.080532 -0.203787
0.310508 0.182139 0.093271 0.895210 0.040536 -0.443797
0.430133 0.797886 0.065022 -0.648745 -0.322344 0.689365
0.184040 0.707184 0.111879 -0.797909 0.215112 -0.563088
0.543158 0.485001 0.104124 -0.805797 -0.533330 -0.257391
0.520642 0.541746 0.081541 -0.540623 -0.045378 0.840040
0.141492 0.719526 0.127650 0.290180 -0.214854 -0.932541
0.504379 0.518892 0.090379 0.794071 0.550838 0.256963
0.202252 0.552999 0.101403 -0.987530 -0.097498 0.123608
0.374812 0.548492 0.079026 -0.978859 -0.180237 0.096690
0.424341 0.716351 0.129641 0.124289 -0.050984 -0.990935
0.190022 0.749584 0.120769 -0.801300 -0.593087 0.078528
0.300174 0.973038 0.132623 -0.026729 0.996575 0.078256
0.215456 0.397754 0.106912 0.945493 0.182478 -0.269712
0.359303 0.582751 0.120563 -0.816657 -0.274996 -0.507393
0.265440 0.775199 0.034692 0.039272 -0.304267 0.951777
0.361414 0.267044 0.073928 -0.990649 -0.136396 -0.003154
0.312257 0.414420 0.072248 0.891432 -0.067681 0.448071
0.340485 0.148958 0.096764 -0.680648 0.144128 -0.718293
0.265990 0.850600 0.087108 0.556528 -0.806583 0.199250
0.060358 0.478766 0.089911 -0.842922 0.508306 0.176373
0.307833 0.519774 0.156989 -0.102837 0.028361 -0.994294
0.365358 0.584939 0.097430 -0.892068 -0.306591 -0.331988
0.257680 0.910109 0.123739 0.981808 0.123304 -0.144390
0.191317 0.505200 0.081710 -0.201338 -0.016695 0.979380
0.362142 0.263048 0.071810 -0.989343 -0.144882 0.014510
0.086903 0.595534 0.063747 0.677897 -0.013217 0.735038
0.187761 0.751245 0.071675 -0.529772 -0.828225 0.182714
0.283143 0.887757 0.161423 0.641018 0.233908 -0.731015
0.227096 0.558295 0.048975 0.680556 -0.375861 0.628945
0.298699 0.428615 0.120987 0.998333 -0.000424 -0.057707
0.235489 0.475426 0.046314 0.244451 0.301526 0.921589
0.343793 0.595461 0.128306 -0.773474 -0.273400 -0.571831
0.176918 0.749973 0.064364 -0.104358 0.278858 0.954645
0.127727 0.725337 0.072772 0.477473 -0.188493 0.858190
0.423674 0.687864 0.070508 0.550754 0.356298 0.754799
0.312876 0.885230 0.095620 0.149319 -0.816557 -0.557619
0.118596 0.565092 0.094007 -0.790519 0.555750 0.257337
0.081476 0.640642 0.122792 0.907048 -0.093615 -0.410488
0.091128 0.561208 0.129835 0.133798 0.197543 -0.971120
0.077278 0.581450 0.126303 0.639983 -0.006017 -0.768366
0.364284 0.623535 0.069012 -0.956312 0.074561 0.282679
0.372212 0.617411 0.108118 0.993179 0.114157 0.023742
0.329447 0.803670 0.137112 -0.176190 -0.618205 -0.766016
0.292418 0.862217 0.157514 0.063841 0.208557 -0.975924
0.192208 0.460476 0.103062 -0.612231 0.106462 -0.783479
0.279408 0.615528 0.057512 -0.082402 0.129317 0.988174
0.404306 0.703842 0.068405 -0.836088 0.376323 0.399172
0.295968 0.807969 0.052192 0.000443 -0.584208 0.811604
0.367369 0.587827 0.102509 -0.908904 -0.205885 -0.362635
0.285605 0.187162 0.078939 -0.973836 0.059667 -0.219279
0.092734 0.565562 0.119119 -0.006980 0.133436 -0.991033
0.240569 0.578187 0.052746 0.303935 0.009531 0.952645
0.169329 0.788890 0.057198 0.502203 -0.351947 0.789890
0.406104 0.744572 0.111106 0.347357 -0.936464 -0.048774
0.368823 0.373311 0.060035 -0.693076 0.216795 0.687492
0.208693 0.784693 0.139489 0.179488 -0.619708 -0.764033
0.305690 0.335291 0.117652 0.941175 0.188603 -0.280392
0.047689 0.439960 0.105281 -0.390551 -0.282435 -0.876185
0.187858 0.428241 0.090907 -0.999524 0.025636 0.017180
0.315453 0.965811 0.090906 0.312305 0.851934 -0.420326
0.317938 0.087142 0.104143 0.705584 -0.096441 -0.702034
0.264992 0.182428 0.041359 0.016212 0.299730 0.953886
0.449399 0.594334 0.112670 0.817286 0.563655 0.119736
0.227861 0.219222 0.077972 0.965074 0.123043 -0.231283
0.085242 0.599721 0.132047 0.588584 0.022566 -0.808121
0.218265 0.561015 0.090897 0.929945 -0.343708 -0.130644
0.397112 0.730067 0.136554 -0.821038 0.413123 -0.393988
0.276012 0.496733 0.030434 -0.023134 0.299553 0.953799
0.278773 0.850500 0.075079 0.315030 -0.440727 0.840545
0.348299 0.660149 0.156711 -0.458195 0.403932 -0.791768
0.338139 0.187299 0.103563 -0.546009 0.145923 -0.824973
0.290384 0.472834 0.086412 -0.180510 0.880882 0.437566
0.544298 0.431770 0.116962 0.087205 0.508149 -0.856843
0.305789 0.195679 0.082045 0.956744 0.043265 -0.287697
0.292175 0.701545 0.171466 -0.034592 0.207172 -0.977693
0.263048 0.912542 0.107289 -0.706181 -0.635431 0.312308
0.259794 0.737717 0.176264 0.161443 -0.347686 -0.923607
0.205637 0.458558 0.102832 0.966186 0.045280 -0.253840
0.170809 0.812345 0.078686 0.401003 -0.888100 0.224665
0.090147 0.634946 0.058476 0.819005 -0.067336 0.569822
0.271370 0.874142 0.081035 -0.126714 -0.906087 0.403671
0.477827 0.558339 0.090393 0.784636 0.554596 0.277072
0.360109 0.319375 0.090853 -0.939123 0.232323 -0.253130
0.500910 0.613810 0.114485 -0.525769 -0.190677 -0.828981
0.358031 0.751964 0.167920 -0.280372 -0.291591 -0.914531
0.522656 0.592802 0.101303 -0.979219 -0.164641 0.118417
0.260882 0.171441 0.106901 0.497482 0.119478 -0.859207
0.212346 0.785565 0.139526 0.187984 -0.620779 -0.761115
0.329801 0.027407 0.152119 -0.078939 0.993535 -0.081584
0.285693 0.773820 0.034427 -0.010705 -0.410899 0.911618
0.335223 0.936638 0.133129 -0.980412 -0.021051 -0.195831
0.267321 0.028164 0.163871 0.025187 0.994045 0.106022
0.226388 0.230890 0.062281 0.997556 0.064616 -0.026596
0.331460 0.151922 0.102904 -0.586900 0.117981 -0.801017
0.516519 0.552057 0.073887 -0.629581 -0.019965 0.776679
0.296640 0.488251 0.044858 0.041582 0.697236 0.715635
0.234298 0.544003 0.152738 0.569590 0.108340 -0.814758
0.537205 0.492744 0.093409 -0.791709 -0.524298 0.313541
0.259583 0.793935 0.039135 0.066996 -0.424455 0.902967
0.517034 0.594275 0.084908 -0.939797 -0.138099 0.312588
0.173320 0.531963 0.097154 0.898587 -0.056336 -0.435163
0.328986 0.615299 0.053802 -0.033524 0.090895 0.995296
0.282305 0.609775 0.154351 0.107553 0.063677 -0.992158
0.335540 0.933246 0.130949 -0.988035 0.026553 -0.151926
0.100840 0.571996 0.133557 0.053167 0.234961 -0.970550
0.322964 0.611045 0.055507 0.034274 0.097049 0.994689
0.280901 0.087020 0.091192 -0.947813 -0.004076 -0.318802
0.224136 0.389584 0.054980 0.605235 0.159975 0.779807
0.348649 0.428573 0.043769 -0.266302 0.009293 0.963845
0.548405 0.430679 0.090356 -0.428446 0.745566 0.510455
0.329436 0.900102 0.077816 0.799782 -0.266388 -0.537947
0.240825 0.550436 0.037672 0.317906 -0.414520 0.852707
0.304854 0.344073 0.082277 0.939849 0.081499 0.331725
0.142592 0.755403 0.074002 0.666025 -0.197977 0.719177
0.319404 0.423953 0.057504 0.844232 -0.081368 0.529765
0.269287 0.660649 0.162000 0.123789 0.369590 -0.920912
0.081987 0.584407 0.116024 0.560306 -0.114545 -0.820327
0.180961 0.471158 0.086949 0.161836 -0.077544 0.983766
0.249021 0.620686 0.051498 0.144428 0.149395 0.978173
0.184061 0.727546 0.101703 0.886145 0.109538 -0.450276
0.171362 0.748782 0.063612 0.915672 -0.104515 0.388099
0.305094 0.475864 0.069755 0.372388 0.825352 0.424407
0.173766 0.505161 0.100902 0.392259 -0.149476 0.907629
0.304512 0.412195 0.137555 0.912353 -0.000216 -0.409404
0.311509 0.391587 0.145389 0.648665 0.165941 -0.742763
0.533822 0.474329 0.081953 0.833443 0.383354 0.398012
0.307818 0.140007 0.077754 0.997041 0.066484 0.038577
0.487054 0.568514 0.077682 0.390205 0.305646 0.868516
0.345170 0.711511 0.179054 -0.363097 0.372803 -0.853919
0.319560 0.641131 0.155669 -0.175752 0.245034 -0.953452
0.267526 0.861049 0.079449 -0.663695 -0.747451 0.028748
0.049360 0.487856 0.094567 0.842297 -0.516555 0.153971
0.227151 0.250881 0.081965 0.990975 -0.117174 -0.065103
0.283699 0.899069 0.066520 -0.187316 -0.264437 -0.946037
0.289962 0.911253 0.164283 -0.640253 0.436317 0.632221
0.339903 0.027509 0.143057 -0.095950 0.995374 0.004844
0.295328 0.391811 0.112880 0.996475 -0.017762 0.081991
0.335105 0.480678 0.147870 -0.393337 0.008538 -0.919355
0.514009 0.604731 0.126417 -0.839174 -0.084912 -0.537193
0.173814 0.511417 0.095780 0.821232 0.175303 0.542999
0.375226 0.813211 0.058909 -0.160425 -0.558447 0.813880
0.206219 0.821403 0.071769 0.218457 -0.743302 0.632280
0.180647 0.375962 0.082928 -0.097827 0.062867 0.993216
0.110266 0.634191 0.117375 0.232418 -0.130150 -0.963869
0.313721 0.885796 0.154385 -0.669111 0.255024 -0.698035
0.195111 0.693558 0.067254 0.839586 0.406762 0.360055
0.251131 0.025870 0.143978 0.054161 0.997687 -0.041071
0.562146 0.452173 0.101408 -0.994298 -0.083762 -0.066003
0.202589 0.816017 0.065874 0.213755 -0.668497 0.712335
0.299653 0.419218 0.125091 0.987138 -0.052834 -0.150889
0.174475 0.352382 0.081553 0.813645 -0.024737 0.580836
0.447156 0.721715 0.065342 -0.191437 -0.034529 0.980897
0.518533 0.568465 0.085923 -0.835877 -0.169047 0.522239
0.261236 0.826433 0.067581 0.139643 -0.554597 0.820318
0.239994 0.711397 0.173043 0.414929 0.409714 -0.812384
0.330938 0.602139 0.144805 -0.682494 0.006994 -0.730858
0.180670 0.502818 0.075314 0.997560 0.041727 0.055972
0.061448 0.444701 0.103040 0.092425 -0.258744 0.961514
0.328482 0.032814 0.116631 0.300911 0.949033 0.093745
0.312461 0.460431 0.149248 0.182645 0.138324 -0.973400
0.196349 0.509100 0.087501 -0.597602 0.008746 0.801745
0.062555 0.438302 0.106739 -0.636581 0.415800 0.649519
0.221889 0.740759 0.170243 0.382378 -0.158075 -0.910384
0.532565 0.519787 0.108920 -0.936874 -0.160321 -0.310748
0.308490 0.788836 0.147995 -0.052759 -0.579995 -0.812910
0.176126 0.412717 0.094934 0.749970 0.058450 -0.658884
0.229952 0.626742 0.101995 0.886682 0.367256 -0.280923
0.410264 0.747989 0.132527 0.139923 0.189521 -0.971855
0.076128 0.579320 0.082245 0.779178 -0.159150 0.606261
0.176639 0.691827 0.077374 -0.724188 0.342023 0.598809
0.174591 0.503554 0.100508 0.334442 -0.128927 0.933556
0.327023 0.405886 0.153139 -0.011168 0.068600 -0.997582
0.278789 0.921729 0.164776 -0.053392 -0.998497 0.012379
0.531267 0.477668 0.083973 0.827647 0.358170 0.432106
0.135265 0.705146 0.064801 0.179824 0.005693 0.983682
0.356926 0.645692 0.052597 -0.413840 0.376316 0.828928
0.269451 0.920524 0.161021 -0.408842 0.582668 0.702386
0.216527 0.817242 0.109172 0.155685 -0.770943 -0.617583
0.282582 0.554063 0.034580 -0.049514 -0.245203 0.968207
0.199886 0.542922 0.101362 0.177394 -0.033736 -0.983562
0.409166 0.747620 0.106583 0.114597 -0.918674 -0.378030
0.380997 0.566623 0.110892 0.991589 0.120184 -0.048035
0.395499 0.727228 0.118761 -0.863239 0.426522 -0.269993
0.411311 0.720176 0.117406 0.661797 0.226165 -0.714755
0.052098 0.424146 0.105494 -0.079469 0.747657 -0.659313
0.170005 0.444441 0.098561 0.849473 0.013701 0.527454
0.425918 0.790575 0.060443 -0.568090 -0.313718 0.760825
0.248672 0.493924 0.146315 0.441743 0.011017 -0.897074
0.229418 0.426465 0.142472 0.688086 0.089075 -0.720141
0.283350 0.286415 0.095420 -0.957998 0.103357 -0.267502
0.373372 0.681074 0.046049 -0.625244 0.372422 0.685837
0.514633 0.562473 0.125183 -0.551582 0.022664 -0.833813
0.280496 0.503043 0.156280 0.190939 0.020498 -0.981388
0.263824 0.663698 0.162773 0.122771 0.412186 -0.902790
0.173563 0.546615 0.087440 0.874565 -0.387558 0.291435
0.524487 0.554724 0.100818 -0.976114 -0.212112 -0.047006
0.186361 0.516569 0.070533 -0.979133 -0.196617 -0.051385
0.387199 0.494613 0.100825 -0.993164 -0.047050 -0.106825
0.305541 0.532785 0.164818 0.000000 0.000000 1.000000
0.455022 0.632228 0.113855 0.653657 0.329349 -0.681368
0.356530 0.033053 0.153353 -0.973579 0.015927 -0.227795
0.147194 0.662910 0.073891 -0.287443 0.350286 0.891446
0.178711 0.453414 0.099238 0.473466 0.056041 -0.879028
0.251674 0.721744 0.028077 0.047807 -0.022393 0.998606
0.317973 0.262112 0.046662 0.381006 -0.213709 0.899535
0.144778 0.601724 0.124204 -0.719342 0.575263 -0.389383
0.366171 0.590557 0.092678 -0.942944 -0.257008 -0.211666
0.253964 0.720253 0.028026 0.043020 -0.005778 0.999057
0.134957 0.756635 0.109406 0.795290 -0.221873 -0.564168
0.293019 0.731205 0.031707 -0.034462 0.014906 0.999295
0.547900 0.435708 0.078015 -0.488666 0.564286 0.665422
0.381908 0.520488 0.110589 -0.921611 -0.142442 -0.361031
0.388542 0.820279 0.109022 -0.142910 -0.799389 -0.583570
0.310348 0.033049 0.133597 0.410046 0.904192 0.119578
0.175709 0.378406 0.086730 0.909300 0.288207 0.300185
0.351551 0.766915 0.163656 -0.137475 -0.491676 -0.859858
0.326444 0.938463 0.073561 0.475396 0.346757 -0.808553
0.267474 0.455042 0.058824 -0.714205 0.014048 0.699795
0.096813 0.552175 0.070974 -0.451858 0.437202 0.777611
0.135167 0.626584 0.080457 -0.685019 0.283759 0.670992
0.212981 0.548331 0.106876 0.945442 -0.238632 -0.221800
0.067115 0.581963 0.100112 0.974933 -0.166706 0.147358
0.355714 0.368955 0.134620 -0.660066 0.342187 -0.668746
0.393564 0.785597 0.140859 -0.133414 -0.571023 -0.810021
0.204648 0.502789 0.104454 0.948612 -0.062458 -0.310216
0.369149 0.631195 0.105896 0.871656 0.144881 0.468215
0.310912 0.601651 0.163517 -0.747048 -0.176200 0.640993
0.184945 0.467560 0.105705 -0.104029 0.081617 -0.991220
0.449165 0.597237 0.103224 0.800785 0.559303 0.214301
0.184887 0.734491 0.050593 0.761424 0.039160 0.647070
0.203088 0.718133 0.040046 0.568365 0.167561 0.805534
0.191460 0.540072 0.101885 -0.538271 -0.046731 -0.841475
0.068605 0.553780 0.088453 0.853303 -0.163515 0.495114
0.538299 0.446627 0.115682 0.259675 -0.307344 -0.915483
0.301814 0.620241 0.058981 0.096495 0.160724 0.982271
0.067350 0.438513 0.124113 -0.357395 0.733675 -0.577919
0.187069 0.715189 0.058127 0.767351 0.273397 0.580023
0.313033 0.600587 0.057615 0.057740 -0.311989 0.948330
0.180005 0.533984 0.101460 0.191967 0.039461 -0.980608
0.219943 0.404246 0.055763 0.698498 0.104612 0.707924
0.269657 0.866291 0.121549 0.891410 0.434973 -0.127227
0.125126 0.746574 0.093701 0.881474 -0.464299 0.086195
0.072671 0.583871 0.084135 0.931754 -0.139957 0.335031
0.297117 0.742712 0.172117 0.009773 -0.374284 -0.927263
0.284545 0.867809 0.154332 0.421689 0.191094 -0.886376
0.268151 0.967508 0.106805 -0.369715 0.847660 -0.380505
0.286386 0.916619 0.166570 0.548199 0.793927 -0.262978
0.290849 0.444726 0.114277 -0.960442 0.193894 0.199891
0.312197 0.254131 0.098001 0.884632 0.051045 -0.463487
0.403889 0.770540 0.048653 -0.533590 -0.020372 0.845498
0.251974 0.951088 0.095646 -0.646915 0.622898 -0.439885
0.283400 0.525008 0.161602 0.000000 0.000000 -1.000000
0.096171 0.539185 0.095901 -0.835859 0.548409 0.024239
0.339760 0.404706 0.148617 -0.216871 0.098805 -0.971187
0.101460 0.574194 0.134095 0.057698 0.233875 -0.970553
0.145311 0.704823 0.131531 0.089300 -0.059191 -0.994244
0.272144 0.289571 0.052128 -0.624202 -0.200351 0.755137
0.145457 0.639981 0.089189 -0.861046 0.401558 0.312010
0.268837 0.608743 0.055859 -0.053733 0.094340 0.994089
0.160493 0.742437 0.065107 0.114224 0.088418 0.989513
0.176317 0.433995 0.086713 0.779383 -0.041370 0.625181
0.474187 0.615876 0.048965 -0.085536 0.265056 0.960432
0.277650 0.542843 0.161602 0.000000 0.000000 -1.000000
0.200961 0.523822 0.095708 -0.967762 0.011183 0.251617
0.505342 0.580487 0.076158 -0.404110 -0.024157 0.914391
0.324024 0.852055 0.086131 -0.539809 -0.696062 0.473396
0.288105 0.215590 0.073599 -0.992795 0.069152 -0.097859
0.325808 0.644840 0.155805 -0.254403 0.303622 -0.918201
0.344469 0.561799 0.146983 -0.642763 -0.120958 -0.756456
0.323706 0.065234 0.119472 -0.150523 -0.774335 -0.614612
0.294085 0.414882 0.109100 -0.975713 -0.079794 0.204003
0.373501 0.568456 0.093857 -0.892515 -0.436225 -0.114562
0.212924 0.396505 0.073110 0.948742 0.172922 0.264549
0.493397 0.535666 0.120278 0.703242 0.566899 -0.429042
0.302249 0.582759 0.050681 0.025450 -0.438535 0.898354
0.302416 0.711899 0.030596 0.090643 0.092490 0.991579
0.390377 0.725401 0.146965 -0.667233 0.449206 -0.594149
0.176133 0.551913 0.084479 0.263158 -0.264144 0.927888
0.298501 0.548663 0.157758 -0.019686 -0.002822 -0.999802
0.288039 0.660724 0.161463 0.033565 0.292082 -0.955804
0.266851 0.451250 0.151250 0.112489 -0.003063 -0.993648
0.277419 0.301166 0.062381 -0.754318 -0.119193 0.645599
0.193476 0.540141 0.098483 -0.877225 -0.183275 -0.443718
0.353747 0.565430 0.126868 -0.740057 -0.211567 -0.638400
0.260557 0.938960 0.137350 -0.813369 -0.337859 0.473585
0.268399 0.840720 0.070502 0.184342 -0.559101 0.808347
0.368152 0.485172 0.044268 -0.524673 0.288647 0.800875
0.201335 0.499458 0.092557 -0.820108 0.058504 0.569210
0.552869 0.436617 0.086807 -0.549394 0.578312 0.603094
0.518471 0.551750 0.122350 -0.566948 0.012464 -0.823659
0.076197 0.509542 0.097910 -0.864344 0.500600 0.048062
0.277196 0.267102 0.109039 -0.856735 0.119773 -0.501658
0.533980 0.443970 0.115842 0.506589 -0.296132 -0.809736
0.304193 0.796580 0.145492 -0.027367 -0.576348 -0.816746
0.534746 0.511367 0.096961 -0.942569 -0.184540 0.278404
0.138165 0.681277 0.134042 0.072764 0.182304 -0.980546
0.486158 0.546615 0.088114 0.782626 0.553086 0.285643
0.274570 0.874239 0.150676 0.641242 0.227112 -0.732959
0.136440 0.628331 0.111787 -0.707781 0.348620 -0.614418
0.480985 0.636617 0.116972 -0.242299 -0.136447 -0.960559
0.515458 0.571804 0.113904 -0.650078 -0.128969 -0.748843
0.312749 0.896817 0.158049 -0.565242 0.092469 -0.819726
0.231237 0.580197 0.116211 0.819102 -0.154216 -0.552530
0.184696 0.750676 0.132518 -0.167268 0.073764 -0.983148
0.235640 0.215989 0.046417 0.663292 0.177704 0.726956
0.256856 0.073549 0.095737 0.911432 -0.233431 -0.338823
0.251207 0.923267 0.116960 -0.976358 0.040584 0.212315
0.471206 0.705473 0.072592 -0.502160 -0.104099 0.858486
0.283467 0.319918 0.115541 -0.859489 0.206299 -0.467674
0.205970 0.493993 0.088120 0.998189 -0.055250 -0.023809
0.375748 0.601671 0.106437 0.943917 0.330181 0.000719
0.187532 0.703416 0.097856 -0.951406 0.297347 0.080069
0.490324 0.627689 0.073365 -0.506017 -0.159573 0.847634
0.327421 0.471178 0.049098 0.533153 0.459734 0.710206
0.268784 0.845405 0.075236 0.286976 -0.628609 0.722838
0.269609 0.218635 0.110994 -0.440605 0.059953 -0.895697
0.520943 0.586285 0.113569 -0.944394 -0.134990 -0.299829
0.380607 0.570441 0.106190 -0.991930 -0.121336 0.036782
0.299594 0.822190 0.068745 0.085257 -0.335827 0.938057
0.263964 0.919333 0.069319 -0.478385 -0.035208 -0.877444
0.183884 0.477669 0.086229 -0.939263 0.277399 0.202076
0.274863 0.494120 0.030728 -0.021452 0.320716 0.946932
0.146041 0.792618 0.087824 0.829093 -0.411492 0.378521
0.242406 0.798328 0.133842 0.192375 -0.651384 -0.733955
0.265798 0.961091 0.145187 -0.724258 0.461172 0.512612
0.078794 0.525432 0.083284 -0.554836 0.410655 0.723546
0.148574 0.799655 0.109281 0.707796 -0.519920 -0.478235
0.341584 0.338820 0.053790 -0.345065 0.187101 0.919741
0.326846 0.881284 0.133114 -0.943800 0.245218 -0.221607
0.472030 0.597494 0.075697 0.462667 0.269112 0.844700
0.368961 0.507161 0.133564 -0.723171 -0.077899 -0.686262
0.463110 0.607805 0.111211 0.685405 0.329274 -0.649460
0.387907 0.822422 0.075077 -0.243474 -0.780760 0.575443
0.366430 0.805865 0.054161 -0.147435 -0.527241 0.836828
0.234648 0.656980 0.147420 0.639159 0.431593 -0.636556
0.275785 0.254199 0.046146 -0.551073 -0.226119 0.803236
0.252958 0.047363 0.134505 0.480329 -0.818637 -0.314829
0.358307 0.186556 0.074585 -0.970219 0.225372 -0.088779
0.296744 0.735207 0.173903 0.010056 -0.286568 -0.958007
0.137885 0.772714 0.109657 0.727662 -0.260409 -0.634582
0.265373 0.328475 0.133436 -0.102435 0.305831 -0.946559
0.083522 0.637239 0.078054 0.934587 -0.111858 0.337689
0.347648 0.394291 0.041807 -0.236043 0.114524 0.964971
0.293290 0.224459 0.057397 -0.985452 -0.070741 0.154531
0.386068 0.478852 0.087654 -0.987384 -0.013862 0.157739
0.267264 0.089640 0.105159 0.101659 -0.021657 -0.994584
0.279288 0.330167 0.065941 -0.851897 0.109220 0.512195
0.408217 0.799951 0.054222 -0.264816 -0.464550 0.845024
0.192707 0.531702 0.085942 -0.780238 -0.053480 0.623193
0.283485 0.327836 0.120344 -0.861068 0.214565 -0.461003
0.291394 0.373618 0.121215 -0.927849 0.110413 -0.356237
0.371949 0.554513 0.069428 -0.947433 -0.229535 0.222898
0.271530 0.966898 0.143838 -0.474222 0.785046 0.398517
0.353108 0.795219 0.044814 -0.106719 -0.471134 0.875582
0.283505 0.468359 0.153778 0.304626 0.300803 -0.903726
0.305202 0.775632 0.035744 0.011263 -0.421897 0.906574
0.324138 0.133358 0.057302 0.058844 0.308040 0.949552
0.197588 0.802028 0.125628 0.049943 -0.580075 -0.813030
0.310668 0.882027 0.099442 0.118758 -0.826623 -0.550082
0.312452 0.320958 0.067935 0.800694 -0.031125 0.598264
0.112515 0.586771 0.075447 -0.391683 0.289525 0.873361
0.128839 0.587523 0.093482 -0.883973 0.461590 0.074336
0.194428 0.738846 0.071276 -0.516466 0.425187 0.743289
0.226857 0.333354 0.091404 0.936156 0.242426 -0.254641
0.467869 0.617764 0.049723 0.263123 0.394754 0.880304
0.262370 0.030852 0.114790 -0.161658 0.983208 0.084669
0.056411 0.516852 0.099803 0.952995 -0.187465 0.238028
0.217270 0.370345 0.093466 0.935121 0.261561 -0.239030
0.357364 0.349128 0.111055 -0.858372 0.285569 -0.426201
0.325469 0.334369 0.054402 0.284994 0.179703 0.941533
0.169991 0.769411 0.054481 0.485767 -0.065137 0.871658
0.051127 0.464213 0.077070 -0.732564 0.384148 0.561943
0.267588 0.927213 0.068373 -0.349032 0.144876 -0.925844
0.302794 0.938487 0.065136 0.101780 0.320227 -0.941858
0.385329 0.674470 0.109920 -0.803020 0.533046 -0.266497
0.328966 0.028916 0.083790 0.123407 0.990441 -0.061628
0.288080 0.327285 0.102534 -0.970300 0.182588 -0.158683
0.331912 0.915169 0.102817 -0.984647 0.171996 0.029798
0.239481 0.546052 0.141818 0.659992 -0.233865 -0.713945
0.170535 0.549658 0.102672 -0.391973 -0.088759 -0.915685
0.380514 0.386792 0.082705 -0.968511 0.246200 -0.037031
0.290253 0.440703 0.113541 -0.985236 0.079026 0.151874
0.187190 0.557543 0.100199 -0.140038 -0.525147 -0.839410
0.270035 0.867257 0.087566 0.889461 -0.036544 0.455548
0.261239 0.844705 0.093715 0.546256 -0.690054 -0.474795
0.296011 0.404701 0.109074 0.982108 -0.061647 0.177941
0.380737 0.492404 0.114188 -0.906906 -0.036467 -0.419752
0.295930 0.528447 0.161602 0.000000 0.000000 -1.000000
0.083208 0.626276 0.073464 0.908283 -0.106691 0.404523
0.482050 0.692201 0.088489 -0.951904 -0.134767 0.275167
0.381363 0.446508 0.110812 -0.938862 0.058781 -0.339239
0.187430 0.526901 0.082730 -0.469234 0.139481 0.871989
0.242715 0.749875 0.027923 0.087641 -0.187924 0.978266
0.186597 0.459097 0.096621 -0.169796 -0.071371 0.982891
0.240547 0.766403 0.162950 0.134509 -0.498700 -0.856274
0.316055 0.878156 0.084066 -0.631163 -0.040945 0.774568
0.265741 0.162211 0.047663 0.062857 0.309279 0.948892
0.310951 0.159925 0.092711 0.892392 0.040422 -0.449446
0.335714 0.783777 0.035161 -0.073775 -0.378515 0.922650
0.219647 0.802691 0.120879 0.121948 -0.705890 -0.697745
0.231909 0.298070 0.079005 0.969809 0.085503 -0.228383
0.296163 0.612104 0.154930 -0.001627 0.069361 -0.997590
0.360671 0.749464 0.027882 -0.195318 -0.052395 0.979339
0.376149 0.622264 0.105847 -0.925883 0.058218 0.373297
0.116572 0.558631 0.107954 -0.815668 0.562256 0.136216
0.303058 0.388699 0.132205 0.895844 0.115830 -0.429007
0.232172 0.286562 0.065808 0.899250 -0.167175 0.404230
0.383583 0.541863 0.103009 0.992338 0.119925 -0.029734
0.197340 0.552299 0.090842 -0.591723 -0.192895 0.782723
0.250224 0.427289 0.038521 0.053467 -0.006323 0.998550
0.172591 0.525734 0.085960 0.905789 0.133229 0.402239
0.093537 0.611906 0.115648 0.421011 -0.155362 -0.893651
0.354376 0.757993 0.166416 -0.215302 -0.375995 -0.901262
0.216564 0.511138 0.041634 0.823198 -0.067274 0.563755
0.189376 0.815597 0.112738 0.141358 -0.835735 -0.530626
0.300793 0.689290 0.169109 0.067562 -0.046985 -0.996608
0.176423 0.534090 0.114809 -0.210165 0.177138 0.961485
0.370829 0.357169 0.075107 -0.925790 0.248346 0.285021
0.266442 0.027897 0.085493 -0.255737 0.960931 -0.105879
0.283778 0.367580 0.077641 -0.911540 0.034457 0.409766
0.083084 0.614503 0.103781 0.919966 -0.294101 -0.259165
0.491535 0.545785 0.090746 0.806025 0.536300 0.250412
0.244337 0.330031 0.121241 0.778828 0.275854 -0.563322
0.109749 0.608576 0.072716 -0.105942 0.106471 0.988656
0.263261 0.881394 0.108372 0.953751 0.299945 -0.019791
0.272752 0.821244 0.126350 0.168076 -0.521202 -0.836719
0.061333 0.444722 0.103093 0.097781 -0.251240 0.962973
0.115637 0.618755 0.120068 0.009302 -0.007163 -0.999931
0.245327 0.037633 0.076313 0.930397 -0.341243 0.133846
0.283970 0.496909 0.030422 -0.020982 0.422728 0.906014
0.085310 0.615116 0.079619 0.830658 -0.239208 0.502779
0.309674 0.271975 0.092987 0.945506 0.042765 -0.322784
0.193215 0.525841 0.088795 -0.968905 0.169744 0.180027
0.172704 0.544716 0.098556 -0.634874 -0.043057 -0.771415
0.288179 0.856535 0.071991 -0.344646 -0.713943 -0.609512
0.153820 0.803048 0.082129 0.771542 -0.441203 0.458326
0.327696 0.888538 0.110267 -0.719683 0.693062 0.041495
0.290270 0.719564 0.175856 -0.072506 0.117236 -0.990454
0.249485 0.245198 0.041970 0.238324 -0.193001 0.951815
0.329828 0.094947 0.099342 -0.576795 -0.013799 -0.816772
0.255717 0.916559 0.076914 -0.754126 -0.233580 -0.613787
0.380359 0.419509 0.106377 -0.911807 0.126837 -0.390539
0.278707 0.478663 0.154960 0.420717 0.205184 -0.883684
0.108012 0.665539 0.081704 0.749048 -0.268640 0.605607
0.128065 0.576278 0.104038 -0.806608 0.556823 0.198323
0.437692 0.809803 0.095320 -0.689418 -0.723267 0.039843
0.319335 0.862358 0.111822 -0.981059 0.005631 -0.193630
0.291669 0.604954 0.164513 -0.520665 0.191870 0.831922
0.253409 0.914533 0.093982 -0.809186 -0.567180 0.153381
0.051114 0.441670 0.126442 0.501144 0.815184 -0.290396
0.500305 0.576645 0.119498 -0.215250 0.032375 -0.976022
0.275697 0.532904 0.166288 0.000000 0.000000 -1.000000
0.318253 0.236790 0.110472 0.765715 0.035862 -0.642180
0.351799 0.552913 0.140702 -0.692240 -0.106327 -0.713791
0.387835 0.451980 0.096545 -0.994294 0.046599 -0.095954
0.481505 0.610274 0.120922 -0.097036 -0.047320 -0.994155
0.273922 0.379050 0.145432 -0.353962 0.202129 -0.913156
0.196258 0.546595 0.102743 0.392765 -0.092233 -0.915002
0.544300 0.426271 0.099597 -0.489860 0.821407 0.292111
0.378588 0.707680 0.138488 -0.777447 0.496381 -0.386242
0.378032 0.382180 0.093145 -0.938353 0.256483 -0.231755
0.268709 0.828002 0.067448 0.070650 -0.503975 0.860824
0.376580 0.808369 0.117001 -0.133789 -0.739395 -0.659845
0.304749 0.570232 0.158135 -0.088345 -0.035847 -0.995445
0.368179 0.486201 0.138347 -0.686285 -0.026429 -0.726852
0.283572 0.500779 0.029872 -0.020060 0.386152 0.922217
0.272178 0.456879 0.152062 0.063968 0.008756 -0.997914
0.389996 0.489479 0.100608 -0.998212 0.028158 0.052719
0.045413 0.466464 0.076109 0.022639 -0.118096 0.992744
0.175549 0.443490 0.095263 0.910021 0.015110 -0.414287
0.227510 0.372956 0.120488 0.774861 0.304673 -0.553864
0.065723 0.552654 0.098757 0.972718 -0.214438 0.088518
0.258986 0.517768 0.026773 0.010787 0.051327 0.998624
0.478183 0.673102 0.079352 -0.755018 -0.151241 0.638023
0.262416 0.782268 0.035631 0.053768 -0.353487 0.933893
0.146559 0.605950 0.096403 -0.785661 0.560019 0.262898
0.239909 0.026258 0.142999 0.191348 0.981061 -0.030074
0.209327 0.533645 0.100823 0.955518 -0.180550 -0.233209
0.256422 0.316378 0.128550 0.293701 0.228526 -0.928178
0.297906 0.352711 0.095272 0.978638 0.076047 0.191010
0.269813 0.560375 0.161602 -0.000000 0.000000 1.000000
0.370514 0.675602 0.147102 -0.772539 0.246520 -0.585160
0.516234 0.577725 0.113505 -0.698246 -0.161376 -0.697432
0.491365 0.554345 0.081719 0.630543 0.428901 0.646885
0.282695 0.860360 0.073764 -0.399005 -0.842752 -0.361337
0.185190 0.429894 0.101045 -0.179337 0.229839 -0.956563
0.111692 0.552813 0.115213 -0.754555 0.573756 -0.318515
0.115701 0.586011 0.114286 -0.594483 0.316481 -0.739209
0.313345 0.573434 0.165195 -0.000000 0.000000 -1.000000
0.335485 0.664085 0.162614 -0.211635 0.441924 -0.871730
0.378431 0.493376 0.118519 -0.875248 -0.037677 -0.482204
0.304101 0.190091 0.056349 0.944060 0.175809 0.279001
0.514573 0.504162 0.099416 -0.861170 -0.507973 -0.018714
0.448401 0.603095 0.086791 0.764850 0.557394 0.322981
0.267253 0.458954 0.151003 0.129570 0.005733 -0.991554
0.314323 0.677958 0.170299 -0.044061 0.215284 -0.975557
0.380546 0.468601 0.065988 -0.843381 -0.002076 0.537311
0.463984 0.581715 0.095498 0.874624 0.483729 -0.032225
0.182531 0.473958 0.101405 -0.083656 0.061763 -0.994579
0.321935 0.395499 0.049009 0.723361 0.010126 0.690396
0.224201 0.327580 0.077306 0.968129 0.248141 -0.033937
0.291517 0.474532 0.082148 -0.142219 0.868210 0.475378
0.257564 0.961097 0.127108 -0.766244 0.602206 0.224094
0.121496 0.734620 0.107934 0.776601 -0.448794 -0.442126
0.328499 0.526117 0.028582 -0.007295 -0.044385 0.998988
0.189238 0.546666 0.100523 -0.112982 -0.004403 -0.993587
0.298064 0.879801 0.076267 -0.112529 0.051561 0.992310
0.110926 0.676202 0.111046 0.858310 0.063275 -0.509216
0.351823 0.325731 0.111960 -0.851628 0.246574 -0.462527
0.186453 0.520265 0.084201 -0.607295 0.513824 0.605952
0.426210 0.762019 0.057975 -0.401794 0.028156 0.915297
0.366080 0.702228 0.152262 -0.663147 0.514491 -0.543632
0.340614 0.396415 0.146828 -0.233066 0.145749 -0.961477
0.348773 0.617632 0.115074 -0.829647 0.182389 -0.527655
0.264369 0.420625 0.152408 0.105599 0.036167 -0.993751
0.277274 0.034843 0.101795 -0.475631 0.879636 0.004068
0.228006 0.377422 0.054751 0.565421 0.219795 0.794978
0.253104 0.126921 0.070952 0.795750 0.302302 0.524781
0.542696 0.444945 0.086256 0.086611 -0.033490 -0.995679
0.306046 0.584682 0.051353 0.048533 -0.409254 0.911129
0.382297 0.407284 0.097386 -0.953144 0.157742 -0.258137
0.368161 0.537344 0.127148 -0.784592 -0.225879 -0.577403
0.369159 0.512437 0.034402 -0.611832 -0.010018 0.790924
0.296663 0.853440 0.153419 -0.041009 0.885439 -0.462943
0.327346 0.079871 0.104113 -0.702353 -0.312056 -0.639782
0.518310 0.595694 0.117306 -0.922785 -0.120495 -0.365990
0.184413 0.509948 0.059078 -0.772014 0.328536 0.544113
0.310177 0.133976 0.085739 0.967768 0.026825 -0.250412
0.103781 0.636709 0.073045 0.533027 -0.190334 0.824412
0.216435 0.361429 0.080832 0.970193 0.240872 0.026557
0.330538 0.954767 0.089316 0.652642 0.589824 -0.475569
0.482666 0.547259 0.105998 0.815015 0.561998 0.141097
0.296917 0.743622 0.031492 0.019782 -0.029010 0.999383
0.231847 0.319701 0.066187 0.624928 0.031509 0.780046
0.370587 0.441458 0.135340 -0.718334 0.060335 -0.693077
0.291935 0.466144 0.099798 -0.391104 0.799000 0.456768
0.254984 0.238638 0.109360 0.462064 0.014102 -0.886734
0.407602 0.713608 0.113866 0.736408 0.226700 -0.637425
0.216454 0.829174 0.079559 0.278957 -0.832760 0.478220
0.180077 0.412110 0.097005 0.140233 0.095560 -0.985496
0.396583 0.690920 0.105671 -0.858946 0.324795 -0.395878
0.193885 0.502690 0.083066 -0.729463 0.033444 0.683202
0.325926 0.086006 0.074463 -0.648138 -0.019902 0.761263
0.152207 0.803593 0.111990 0.660086 -0.546228 -0.515676
0.219425 0.559538 0.068617 0.921473 -0.267478 0.281680
0.318722 0.954496 0.154115 0.689286 0.026833 0.723992
0.211694 0.482306 0.117519 0.847702 -0.032200 -0.529495
0.153703 0.659929 0.116854 -0.355447 0.574657 -0.737175
0.240780 0.623198 0.119249 0.818544 0.361416 -0.446503
0.205734 0.510123 0.105539 0.938117 -0.089580 -0.334532
0.299937 0.868156 0.157171 -0.230877 0.279210 -0.932061
0.410287 0.749259 0.103969 0.124870 -0.922455 -0.365354
0.327827 0.430951 0.049109 0.530449 -0.069179 0.844890
0.068890 0.490741 0.100200 -0.816051 0.566366 0.115285
0.183431 0.702640 0.112575 -0.798696 0.213757 -0.562489
0.329492 0.030527 0.126384 0.243960 0.964372 0.102321
0.313874 0.875817 0.150793 -0.612459 0.214837 -0.760749
0.242294 0.398546 0.041134 0.246804 0.111297 0.962653
0.177110 0.448243 0.108048 0.838693 -0.152298 0.522876
0.296220 0.817571 0.065117 0.039708 -0.608566 0.792509
0.231162 0.718326 0.030682 0.237037 0.115566 0.964603
0.324001 0.583308 0.050148 -0.022340 -0.347749 0.937321
0.250372 0.341719 0.133748 0.490336 0.341948 -0.801649
0.077819 0.525840 0.120638 0.111801 0.194696 -0.974471
0.262510 0.420512 0.044983 -0.494161 -0.061052 0.867224
0.354839 0.314221 0.064283 -0.643735 0.036664 0.764370
0.322577 0.536025 0.156018 -0.270685 -0.015194 -0.962548
0.163809 0.800298 0.120328 0.472799 -0.540897 -0.695623
0.063049 0.503571 0.113804 0.435614 0.052566 -0.898597
0.375780 0.649665 0.085449 -0.854004 0.520186 0.009209
0.335212 0.184929 0.044681 -0.308201 0.291633 0.905518
0.267306 0.873202 0.075982 -0.637537 -0.669789 -0.380697
0.320189 0.772653 0.032401 0.101793 -0.232737 0.967198
0.187809 0.415872 0.093440 -0.540625 0.020994 0.841002
0.495338 0.569029 0.132155 -0.111292 0.209864 -0.971376
0.323204 0.121527 0.061012 0.143499 0.274520 0.950814
0.329583 0.562109 0.155250 -0.479212 -0.104130 -0.871500
0.317849 0.225473 0.109904 0.804303 0.009459 -0.594144
0.178529 0.554162 0.089756 -0.931109 -0.020967 -0.364137
0.308980 0.577747 0.051755 0.029883 -0.422199 0.906011
0.226062 0.428660 0.050845 0.590913 0.040820 0.805702
0.295369 0.551935 0.039052 -0.003682 -0.367666 0.929951
0.355149 0.186171 0.087868 -0.897986 0.215874 -0.383431
0.171796 0.485812 0.100468 0.609883 -0.092704 0.787051
0.168182 0.704230 0.067989 -0.306196 0.110440 0.945541
0.402123 0.775973 0.047657 -0.474969 -0.076402 0.876680
0.177957 0.685959 0.089936 -0.835235 0.466888 0.290514
0.315297 0.421999 0.066979 0.881348 -0.083827 0.464973
0.225065 0.377435 0.118107 0.807446 0.242945 -0.537596
0.193516 0.734716 0.043253 0.609034 0.034110 0.792410
0.260600 0.664518 0.040900 0.004027 0.330417 0.943826
0.375225 0.393912 0.063107 -0.800783 0.167341 0.575103
0.243574 0.151464 0.083511 0.939936 0.195598 -0.279753
0.163823 0.689018 0.067946 -0.417809 0.316532 0.851612
0.289414 0.606575 0.060847 -0.094857 0.141864 0.985331
0.295292 0.791213 0.039145 0.000109 -0.401611 0.915810
0.325217 0.688455 0.034286 0.005860 0.211992 0.977254
0.527663 0.534740 0.092571 -0.932470 -0.175243 0.315895
0.309002 0.043581 0.083470 0.870103 0.492864 -0.002306
0.463925 0.618348 0.146125 0.088215 0.325457 -0.941433
0.278450 0.366165 0.065412 -0.822730 0.022915 0.567971
0.359281 0.416021 0.142152 -0.544423 0.097541 -0.833120
0.222397 0.704140 0.151120 0.665720 0.511125 -0.543662
0.358065 0.387492 0.140363 -0.720942 0.189891 -0.666472
0.172095 0.525170 0.083644 0.532150 -0.116782 0.838557
0.234754 0.698204 0.159060 0.603400 0.506701 -0.615761
0.124909 0.733729 0.114013 0.683943 -0.414429 -0.600393
0.318097 0.380144 0.146043 0.353410 0.204211 -0.912907
0.317709 0.567856 0.164581 0.000000 0.000000 1.000000
0.355142 0.239726 0.101441 -0.725127 0.038957 -0.687513
0.278594 0.026001 0.155053 -0.322304 0.942898 0.084049
0.245647 0.035228 0.078390 0.984274 -0.008313 0.176455
0.249174 0.766816 0.031468 0.076132 -0.294112 0.952734
0.079876 0.619419 0.080153 0.933993 -0.121469 0.336011
0.257044 0.404356 0.150780 0.279494 0.118789 -0.952771
0.305782 0.045063 0.105393 0.985232 0.148887 0.084560
0.280462 0.275602 0.058579 -0.743697 -0.248455 0.620633
0.289552 0.566674 0.166873 -0.000000 0.000000 1.000000
0.221963 0.539103 0.138245 0.730062 0.121787 -0.672442
0.177687 0.447123 0.098131 0.616700 0.050298 -0.785589
0.071036 0.569319 0.093749 0.951121 -0.215759 0.220947
0.527880 0.494186 0.084953 0.109388 0.284946 0.952282
0.255439 0.929499 0.076244 -0.697870 0.171612 -0.695361
0.271819 0.766248 0.164528 0.070069 -0.465582 -0.882227
0.327340 0.239300 0.037837 -0.042570 -0.119301 0.991945
0.318731 0.536532 0.164232 0.000000 0.000000 1.000000
0.249390 0.915452 0.088426 -0.851189 -0.513770 0.107321
0.281962 0.787484 0.041258 -0.154276 -0.395197 0.905548
0.305130 0.464597 0.154205 -0.252321 0.291323 -0.922749
0.205668 0.465805 0.083484 0.982712 0.023354 0.183663
0.078046 0.533960 0.114450 0.104995 0.123826 -0.986734
0.296092 0.570570 0.162524 -0.005580 0.778080 -0.628140
0.438545 0.717451 0.066042 -0.045848 -0.018653 0.998774
0.307363 0.973853 0.122241 0.084702 0.996400 0.003500
0.335885 0.398978 0.041637 0.172732 0.062710 0.982971
0.367716 0.660770 0.051871 -0.603369 0.411210 0.683265
0.400462 0.728715 0.084197 0.871394 0.390821 0.296531
0.182635 0.565307 0.087196 0.112527 -0.538839 0.834859
0.233126 0.454625 0.143467 0.507226 -0.007119 -0.861784
0.447806 0.634768 0.103615 0.903089 0.384971 -0.190334
0.254891 0.063155 0.096386 0.942762 -0.328063 -0.059786
0.163870 0.512216 0.093361 0.872901 -0.020023 0.487487
0.045598 0.446263 0.076586 0.107971 0.084287 0.990574
0.467501 0.618027 0.049706 0.277193 0.399093 0.874007
0.052162 0.455265 0.112420 -0.434044 0.400880 0.806784
0.261427 0.579185 0.149129 0.548195 -0.111972 -0.828821
0.062118 0.439266 0.106526 -0.612267 0.346443 0.710708
0.277080 0.373767 0.064071 -0.858146 0.043182 0.511586
0.335066 0.194918 0.106412 -0.461297 0.136009 -0.876759
0.434427 0.675463 0.126908 0.371400 0.298002 -0.879350
0.331659 0.814457 0.129535 -0.283895 -0.629121 -0.723609
0.266995 0.536435 0.027372 -0.103917 -0.252938 0.961885
0.327569 0.596466 0.056587 -0.040772 -0.196009 0.979754
0.362383 0.335156 0.066231 -0.764828 0.174014 0.620288
0.347888 0.622131 0.055078 -0.297488 0.123811 0.946663
0.430071 0.804177 0.069322 -0.655280 -0.474435 0.587810
0.233663 0.546784 0.038103 0.473609 -0.349326 0.808496
0.349064 0.154857 0.083053 -0.942259 0.238592 -0.234993
0.454936 0.735894 0.072843 -0.495492 -0.216839 0.841112
0.213553 0.545931 0.094535 0.972827 -0.229657 -0.029432
0.085252 0.524155 0.105542 -0.735894 0.519607 -0.434130
0.208393 0.417847 0.078719 0.968849 0.105460 0.224074
0.375962 0.600414 0.108000 0.879221 0.476412 -0.001248
0.375437 0.830802 0.094713 -0.218515 -0.859743 -0.461620
0.239681 0.712473 0.173793 0.407391 0.395569 -0.823139
0.313256 0.859472 0.145705 -0.593228 0.682095 -0.427582
0.206083 0.464112 0.082214 0.983493 0.033036 0.177902
0.240157 0.652648 0.149425 0.566807 0.444992 -0.693334
0.323205 0.953652 0.150348 0.734920 0.112814 0.668705
0.230265 0.677772 0.156291 0.634588 0.076799 -0.769025
0.379886 0.606223 0.141336 -0.882095 -0.189154 0.431427
0.247675 0.025834 0.142471 0.073459 0.996491 -0.040126
0.347344 0.191515 0.050544 -0.595899 0.276573 0.753931
0.165697 0.668743 0.093552 -0.790950 0.577978 0.200847
0.106371 0.624911 0.051306 0.520044 0.082501 0.850146
0.147024 0.649907 0.084579 -0.804648 0.465465 0.368624
0.175381 0.768025 0.052821 0.510694 -0.009778 0.859707
0.171711 0.448354 0.097527 0.540755 -0.056217 0.839300
0.292481 0.594931 0.056275 0.016110 -0.458724 0.888433
0.430670 0.726315 0.128595 -0.073370 -0.163112 -0.983876
0.179318 0.714157 0.096836 0.912672 0.344897 -0.219260
0.457450 0.633595 0.116152 0.558911 0.287314 -0.777862
0.367799 0.640975 0.070534 -0.869757 0.340636 0.357058
0.285749 0.588793 0.156183 0.065977 -0.082010 -0.994445
0.117977 0.576345 0.069021 -0.595363 0.501150 0.628006
0.032956 0.437797 0.094794 0.637250 0.737958 0.222106
0.238115 0.422852 0.045667 0.332489 0.021650 0.942859
0.444920 0.711838 0.065331 -0.078270 -0.005532 0.996917
0.293769 0.560689 0.158021 0.024378 -0.015414 -0.999584
0.292783 0.356070 0.107872 -0.982903 0.124351 -0.135791
0.184025 0.712817 0.112744 -0.762497 0.222695 -0.607458
0.532081 0.535845 0.102112 -0.970586 -0.183817 0.155477
0.434685 0.761613 0.061921 -0.545670 -0.079494 0.834221
0.308069 0.972718 0.105038 0.080500 0.976813 -0.198383
0.189155 0.738572 0.125864 0.865454 0.420976 -0.271602
0.353797 0.285113 0.098829 -0.930616 -0.062748 -0.360577
0.181777 0.816558 0.101970 0.349933 -0.899211 -0.262615
0.175834 0.544848 0.102219 0.602177 -0.258380 -0.755396
0.310536 0.263441 0.094289 0.924081 0.042130 -0.379869
0.234991 0.503409 0.027994 0.264830 0.160265 0.950884
0.204821 0.780951 0.043102 0.272990 -0.321292 0.906779
0.284430 0.166066 0.079741 -0.988950 0.060117 -0.135515
0.508324 0.520587 0.110452 0.588941 0.461347 -0.663557
0.295189 0.531341 0.161602 0.000000 0.000000 1.000000
0.377250 0.603829 0.129543 -0.216747 0.975140 0.046072
0.314476 0.140157 0.100743 0.818550 0.041317 -0.572947
0.297107 0.648468 0.050622 0.010201 0.315937 0.948725
0.414308 0.731447 0.120648 0.577317 0.250079 -0.777281
0.489006 0.540361 0.116819 0.735637 0.571599 -0.363474
0.194400 0.533293 0.099588 -0.149855 0.076540 -0.985741
0.179759 0.549902 0.089782 -0.986409 -0.164061 0.009045
0.313897 0.868221 0.072309 0.310208 -0.398931 -0.862916
0.196088 0.727314 0.126288 0.847097 0.432065 -0.309430
0.373504 0.493558 0.127548 -0.781300 -0.034185 -0.623219
0.119923 0.676187 0.073307 0.627283 -0.056527 0.776737
0.327387 0.946343 0.142292 0.685097 -0.347287 0.640339
0.324851 0.038789 0.059135 0.117586 0.112019 0.986725
0.357090 0.274394 0.088895 -0.950252 -0.082855 -0.300260
0.311647 0.277352 0.056218 0.724441 -0.276118 0.631621
0.185071 0.462756 0.096722 -0.111715 -0.072085 0.991122
0.181028 0.442535 0.105430 -0.134656 -0.095357 0.986293
0.297258 0.972295 0.115940 -0.022657 0.999080 -0.036419
0.286479 0.895779 0.066367 -0.165781 -0.289668 -0.942661
0.259822 0.419729 0.151485 0.170550 0.051930 -0.983980
0.387390 0.510665 0.105876 0.991496 0.121595 -0.046374
0.102306 0.556336 0.083136 -0.673902 0.453860 0.582982
0.352711 0.818154 0.111601 -0.268743 -0.701035 -0.660551
0.469151 0.580715 0.086784 0.796885 0.492150 0.350374
0.138757 0.696475 0.132559 0.099199 -0.014744 -0.994958
0.328788 0.882786 0.127321 -0.977071 0.201629 -0.068391
0.331845 0.225802 0.110708 -0.332707 0.069689 -0.940452
0.269552 0.866921 0.088860 0.909464 -0.031047 0.414623
0.328485 0.327846 0.054822 0.004588 0.178226 0.983979
0.283565 0.034630 0.127396 -0.638995 0.761085 0.111511
0.524445 0.577129 0.098829 -0.971409 -0.166489 0.169250
0.379877 0.578403 0.110274 -0.992112 -0.122159 0.028110
0.526059 0.497854 0.083941 0.257266 0.344656 0.902788
0.351089 0.042075 0.127963 -0.689159 -0.723409 0.041709
0.226089 0.520699 0.134791 0.688855 -0.127830 -0.713539
0.314059 0.614957 0.057070 0.069437 0.123481 0.989915
0.329552 0.255681 0.113258 -0.349074 0.098720 -0.931881
0.378816 0.480498 0.057953 -0.836419 -0.004580 0.548071
0.344593 0.040282 0.071782 -0.910235 -0.398394 0.112930
0.334976 0.921079 0.117307 -0.987891 0.149698 -0.040769
0.263376 0.587481 0.155123 0.576990 -0.121685 -0.807636
0.513922 0.591193 0.090590 -0.937669 -0.237997 0.253249
0.102542 0.542169 0.090772 -0.789360 0.553140 0.266358
0.440730 0.680837 0.066992 0.166576 0.204475 0.964595
0.100061 0.646222 0.081829 0.769364 -0.324230 0.550412
0.413007 0.750484 0.101243 -0.303650 -0.875428 -0.376062
0.424899 0.682171 0.122912 0.529592 0.280296 -0.800604
0.273459 0.409881 0.057634 -0.841846 -0.073296 0.534717
0.310578 0.590483 0.159811 -0.147653 -0.156413 -0.976593
0.281714 0.575502 0.051073 -0.042322 -0.438705 0.897634
0.227551 0.238537 0.093082 0.943882 0.006654 -0.330216
0.219933 0.404697 0.120456 0.911442 0.158640 -0.379614
0.186856 0.425900 0.094053 -0.315793 0.000796 0.948828
0.363544 0.239467 0.051214 -0.899714 -0.040465 0.434601
0.461520 0.614842 0.076762 0.579077 0.238144 0.779716
0.186377 0.436597 0.086962 -0.785618 -0.015320 0.618522
0.432709 0.757258 0.059502 -0.443625 -0.045418 0.895061
0.444974 0.781502 0.081413 -0.790589 -0.339949 0.509317
0.300659 0.862910 0.070288 -0.080624 -0.543081 -0.835801
0.131410 0.593269 0.099786 -0.888302 0.423383 -0.177951
0.221735 0.651944 0.119190 0.823508 0.483887 -0.296123
0.332858 0.915116 0.129340 -0.982200 0.132671 -0.132976
0.046123 0.437150 0.096321 -0.402007 0.005963 -0.915617
0.416214 0.724616 0.070255 -0.900935 0.240735 0.361057
0.257006 0.590169 0.143228 0.681703 -0.139356 -0.718235
0.191278 0.454060 0.103074 -0.507113 0.128891 -0.852188
0.107149 0.546399 0.114759 -0.753936 0.573207 -0.320959
0.538366 0.459096 0.126837 -0.062381 -0.308232 -0.949264
0.512214 0.642063 0.114292 -0.968282 -0.123194 -0.217376
0.459651 0.589505 0.096741 0.895236 0.442178 -0.055051
0.174560 0.537480 0.101704 0.592093 -0.034691 -0.805122
0.300805 0.786677 0.150670 -0.014769 -0.562377 -0.826749
0.510764 0.519399 0.080149 0.459301 0.426996 0.778920
0.316012 0.097122 0.099885 0.792390 -0.070453 -0.605933
0.368136 0.496812 0.038653 -0.578624 0.241735 0.778947
0.077849 0.585304 0.114456 0.671445 -0.163287 -0.722841
0.322671 0.920743 0.067170 0.355780 -0.034982 -0.933915
0.226686 0.541952 0.129872 0.761050 -0.198734 -0.617501
0.334567 0.054475 0.064721 -0.587488 -0.388768 0.709730
0.270090 0.385175 0.049605 -0.754385 0.003937 0.656421
0.213587 0.661106 0.064753 0.735084 0.512952 0.443318
0.209667 0.462135 0.112774 0.903653 0.024073 -0.427589
0.347631 0.597133 0.121526 -0.800281 -0.278857 -0.530839
0.276863 0.299054 0.060290 -0.781817 -0.126249 0.610593
0.381453 0.677804 0.127746 -0.827537 0.318168 -0.462549
0.109820 0.601773 0.119452 -0.110163 0.059486 -0.992132
0.392834 0.723182 0.131002 -0.833417 0.423683 -0.354837
0.326583 0.655322 0.159356 -0.195367 0.367695 -0.909193
0.286682 0.032460 0.167969 -0.935198 -0.105866 -0.337930
0.224714 0.539628 0.141326 0.691980 0.119507 -0.711956
0.191804 0.711901 0.109704 0.788905 0.121562 -0.602371
0.290562 0.329754 0.090990 -0.987077 0.141334 0.075527
0.104635 0.556348 0.072848 -0.547717 0.476574 0.687665
0.292201 0.796149 0.046316 -0.003670 -0.528991 0.848620
0.241160 0.788209 0.146023 0.177313 -0.614134 -0.769025
0.336069 0.440906 0.040086 0.095525 -0.036782 0.994747
