0.134260 0.748584 0.340071 -0.157273 -0.426329 0.890791
0.250802 0.025062 0.264096 0.000002 1.000000 -0.000763
0.133924 0.901694 0.194446 -0.896352 -0.443343 0.000537
0.251347 0.169355 0.261736 -0.025093 -0.999188 0.031522
0.305117 0.193563 0.169239 0.474923 -0.097487 -0.874611
0.210608 0.029049 0.309868 -0.474888 -0.620374 0.624194
0.239638 0.482817 0.130275 -0.535781 -0.841989 -0.063190
0.256832 0.281231 0.260564 0.280673 -0.000750 -0.959803
0.160369 0.159487 0.254937 -0.987888 0.152499 -0.028664
0.260524 0.169410 0.341751 -0.001968 -0.928590 0.371103
0.167043 0.155224 0.293914 -0.390528 -0.910397 0.136618
0.260085 0.246951 0.254143 -0.981966 -0.036838 -0.185436
0.274799 0.557135 0.049548 -0.807713 -0.584067 -0.080405
0.244230 0.174474 0.151930 0.154225 0.000896 0.988035
0.235772 0.745139 0.253939 -0.585144 -0.482263 -0.651942
0.195156 0.824490 0.215104 -0.964501 -0.260527 -0.043168
0.128317 0.578707 0.126266 -0.815583 -0.577531 -0.035817
0.192949 0.473291 0.319943 -0.003393 -0.672666 0.739938
0.294090 0.661589 0.162879 0.062802 0.585833 0.807995
0.307014 0.144129 0.326397 0.502183 -0.422766 0.754375
0.313124 0.123075 0.190996 0.658553 -0.166182 -0.733956
0.174809 0.769957 0.157702 -0.752391 -0.658630 0.010664
0.426661 0.761545 0.256944 -0.014889 -0.988355 -0.151436
0.322988 0.144642 0.196888 0.698422 -0.437894 -0.566088
0.168212 0.159884 0.304742 0.859394 -0.000395 -0.511313
0.164406 0.176309 0.210944 0.911670 0.037284 0.409227
0.219473 0.025022 0.212571 -0.100601 -0.986932 -0.125878
0.305505 0.524770 0.097851 -0.416428 -0.456678 -0.786151
0.220501 0.895533 0.096966 -0.561824 -0.636015 -0.528998
0.244752 0.186213 0.288929 -0.043081 0.987652 0.150622
0.351889 0.155186 0.244576 0.499325 -0.866323 0.012572
0.212946 0.169396 0.275288 -0.182045 -0.979692 0.084043
0.230777 0.253912 0.252663 0.576893 0.244003 0.779523
0.266425 0.770214 0.190393 -0.621864 -0.448422 -0.642030
0.348267 0.435805 0.262065 0.473742 -0.589776 0.654013
0.215126 0.420205 0.219746 0.770454 0.436159 0.464937
0.297815 0.375414 0.283845 -0.878101 0.396566 -0.267720
0.227832 0.138876 0.336444 -0.331008 -0.309654 0.891374
0.228148 0.727830 0.477617 0.543039 -0.821210 0.175278
0.197022 0.186233 0.267005 -0.237805 0.969269 0.062976
0.174289 0.772764 0.331326 -0.287952 -0.951615 0.107301
0.154739 0.156999 0.254162 0.973825 0.215790 -0.071413
0.339151 0.107040 0.259094 0.989103 -0.136224 0.055836
0.331185 0.076014 0.230076 0.942691 -0.136617 -0.304416
0.259712 0.186201 0.289107 0.016309 0.988789 0.148429
0.236698 0.025009 0.195397 -0.124976 -0.951797 -0.280113
0.152614 0.632645 0.367214 0.188037 -0.871433 0.453042
0.374367 0.657396 0.165855 0.236380 -0.970873 -0.039131
0.319539 0.092832 0.203802 0.772011 -0.136786 -0.620716
0.211689 0.435659 0.217870 -0.051695 -0.398542 -0.915692
0.323728 0.493755 0.299064 0.090436 -0.642519 0.760914
0.244366 0.401344 0.268797 0.404751 0.274508 -0.872251
0.217734 0.041675 0.191552 -0.515330 -0.308777 -0.799432
0.244032 0.169323 0.213014 -0.046240 -0.982662 -0.179549
0.380734 0.507171 0.334474 0.476315 0.024402 -0.878936
0.450093 0.565914 0.363914 0.318733 -0.936103 -0.148729
0.171490 0.170132 0.209532 -0.882876 0.085091 -0.461834
0.336692 0.097307 0.238371 0.972027 -0.135970 -0.191511
0.143370 0.679761 0.226462 -0.816098 -0.170375 0.552228
0.192313 0.155135 0.180632 -0.222704 -0.914491 -0.337801
0.163071 0.155189 0.247776 -0.585231 -0.805935 -0.089291
0.290078 0.650677 0.176092 0.018215 -0.584765 -0.810998
0.287798 0.186102 0.189126 0.111413 0.952120 -0.284701
0.297281 0.766912 0.338630 0.926802 -0.023239 0.374831
0.302024 0.184585 0.330310 0.222681 0.898982 0.377153
0.316961 0.494102 0.299251 0.324539 -0.775280 0.541862
0.305083 0.575264 0.121806 0.138975 -0.971081 -0.194134
0.296791 0.581439 0.343956 -0.042306 -0.939563 0.339753
0.382574 0.767307 0.228257 0.087940 -0.246484 -0.965149
0.165910 0.785092 0.310775 -0.535845 -0.769974 0.346426
0.290068 0.186133 0.232380 0.128914 0.986556 -0.100445
0.324757 0.460817 0.347580 0.698178 -0.715891 0.006920
0.255746 0.114865 0.338341 -0.009610 -0.142879 0.989693
0.286414 0.820298 0.317643 0.973414 -0.060897 -0.220807
0.328814 0.169252 0.206973 0.290191 -0.938033 -0.189426
0.256948 0.436459 0.260460 0.471843 -0.000708 -0.881682
0.061978 0.963855 0.193616 -0.550073 -0.703799 0.449540
0.360658 0.481933 0.318271 -0.288828 -0.195776 0.937150
0.171394 0.662198 0.082092 0.015591 -0.984189 -0.176433
0.259871 0.188941 0.257372 -0.955111 0.000230 0.296248
0.266655 0.358982 0.244386 0.148216 0.221647 0.963797
0.282673 0.054186 0.325309 0.341380 -0.163990 0.925509
0.260793 0.360658 0.212771 0.236961 0.387123 0.891058
0.315651 0.186118 0.237848 0.231848 0.969424 -0.080394
0.262131 0.115053 0.337898 0.063602 -0.143818 0.987558
0.262185 0.163861 0.351925 -0.000029 0.089181 0.996015
0.238581 0.411401 0.301676 0.930184 0.002102 0.367088
0.203477 0.180757 0.342181 0.534022 -0.058996 -0.843410
0.303355 0.552943 0.363594 0.362054 0.477817 -0.800380
0.202368 0.667454 0.313140 0.399580 -0.251842 0.881426
0.255364 0.380680 0.257820 0.979846 0.000160 0.199756
0.261024 0.186197 0.285456 0.020829 0.990983 0.132357
0.188463 0.186215 0.235097 -0.277661 0.958031 -0.071275
0.219420 0.762666 0.212609 -0.631501 -0.671799 -0.387160
0.189921 0.699155 0.332872 -0.901318 -0.420278 -0.104842
0.265040 0.756552 0.274873 -0.493939 -0.381648 0.781262
0.163084 0.155096 0.283758 -0.800177 0.576638 0.164940
0.304940 0.173496 0.345820 -0.471798 0.003379 -0.881700
0.367440 0.706882 0.257535 0.141561 -0.849730 -0.507857
0.297081 0.025017 0.205679 0.254763 -0.889993 -0.378164
0.268096 0.036311 0.182181 0.118932 -0.365138 -0.923325
0.313782 0.073494 0.200964 0.723375 -0.136587 -0.676811
0.260033 0.236765 0.221726 -0.827357 -0.378750 -0.414763
0.365674 0.815103 0.327970 0.363839 -0.813245 0.454151
0.273757 0.186187 0.285413 0.071728 0.988867 0.130375
0.174363 0.545527 0.380044 0.000392 -0.762980 0.646422
0.242902 0.186147 0.203324 -0.063974 0.974019 -0.217243
0.328996 0.192906 0.320316 0.757951 0.023429 0.651890
0.192021 0.155132 0.329975 -0.035604 0.999343 0.006720
0.218274 0.085601 0.184439 -0.475679 -0.137046 -0.868877
0.339410 0.110397 0.261067 0.987601 -0.136304 0.077878
0.198588 0.721668 0.273487 -0.900376 -0.426791 -0.084694
0.353418 0.469526 0.316525 -0.561719 0.642363 -0.521385
0.272023 0.869969 0.367487 -0.503381 0.591688 -0.629692
0.275687 0.074510 0.330350 0.238270 -0.135475 0.961704
0.280412 0.170774 0.159234 0.268927 0.036560 -0.962466
0.318466 0.474745 0.403060 0.480393 -0.853652 -0.201249
0.203375 0.154117 0.182794 -0.441294 -0.623382 -0.645488
0.116904 0.827727 0.143838 -0.868560 -0.458598 -0.187861
0.316203 0.177429 0.169289 -0.559722 -0.001914 0.828678
0.239321 0.186130 0.177028 -0.081224 0.941937 -0.325818
0.314694 0.097814 0.196861 0.703391 -0.136298 -0.697613
0.272114 0.857762 0.183357 -0.993923 0.093523 0.058048
0.299002 0.780604 0.269121 0.516482 -0.799136 -0.307616
0.299397 0.733708 0.094004 -0.333496 -0.864868 -0.375212
0.265399 0.099363 0.335440 0.104616 -0.135695 0.985212
0.211582 0.916969 0.074129 -0.645726 -0.556944 -0.522352
0.200188 0.803145 0.195877 -0.566554 -0.807266 -0.165340
0.303080 0.809202 0.200029 -0.497283 -0.422414 -0.757810
0.272379 0.375802 0.332089 0.993345 -0.099621 -0.057797
0.205327 0.025070 0.273530 -0.055694 -0.997435 0.044964
0.266216 0.124750 0.338801 0.105493 -0.168942 0.979964
0.255408 0.503405 0.334661 0.776005 -0.125835 0.618047
0.206138 0.556142 0.328660 0.192103 -0.827291 0.527907
0.155207 0.572682 0.282362 -0.024594 0.061623 0.997796
0.272832 0.169269 0.172586 0.072890 -0.936600 -0.342736
0.314353 0.595635 0.090985 0.378613 -0.920809 -0.093612
0.201150 0.075231 0.198581 -0.699254 -0.136261 -0.701767
0.270883 0.567566 0.397429 0.718321 -0.631456 0.292025
0.268611 0.664744 0.154858 -0.294653 -0.841655 -0.452544
0.206369 0.535963 0.386182 0.963987 0.248948 0.093564
0.234011 0.279236 0.234715 -0.704437 -0.428940 -0.565490
0.387141 0.866399 0.262709 0.712472 -0.673248 -0.197792
0.283801 0.169315 0.241843 0.107988 -0.992967 -0.048521
0.208891 0.186770 0.345141 0.485282 -0.140576 -0.862983
0.214196 0.065815 0.189725 -0.543718 -0.142959 -0.827002
0.249268 0.093327 0.334767 -0.087704 -0.135682 0.986863
0.379198 0.466245 0.269775 0.292979 -0.852741 0.432431
0.271166 0.025074 0.279519 0.000013 1.000000 -0.000736
0.255576 0.460798 0.253949 -0.199675 -0.258773 -0.945075
0.170508 0.184957 0.297235 -0.893015 -0.072884 0.444086
0.234526 0.652798 0.087201 -0.493198 -0.348580 -0.797024
0.192082 0.169375 0.227131 -0.255894 -0.958484 -0.125805
0.246698 0.183137 0.351282 -0.115583 0.073558 0.990570
0.320118 0.876890 0.304707 -0.271461 -0.116085 0.955423
0.285628 0.186167 0.271450 0.117542 0.990692 0.068646
0.272074 0.367984 0.329155 0.593457 0.360693 -0.719520
0.304422 0.636032 0.466309 0.655487 -0.733386 0.180229
0.208222 0.712920 0.370977 0.303023 -0.948072 0.096630
0.237961 0.078588 0.177667 -0.231305 -0.136897 -0.963202
0.184511 0.036455 0.267312 -0.948446 -0.261013 0.179783
0.207746 0.504319 0.146413 -0.715574 -0.684790 -0.137901
0.196279 0.491439 0.331575 0.015005 -0.368571 0.929478
0.241118 0.502630 0.208566 0.328207 0.142003 -0.933871
0.244438 0.247990 0.234120 -0.841449 -0.151208 -0.518749
0.261930 0.562458 0.251151 0.963402 -0.267986 0.006374
0.115595 0.835057 0.118756 -0.897320 -0.336228 0.285952
0.243985 0.056639 0.329258 -0.157468 -0.162506 0.974061
0.064872 0.884186 0.311731 -0.434813 -0.788191 0.435536
0.080674 0.955669 0.165989 -0.612460 -0.788595 0.054867
0.256133 0.481311 0.245419 0.991112 -0.111819 0.072059
0.435030 0.833775 0.188864 0.229224 -0.317564 -0.920114
0.316400 0.842360 0.286096 0.751885 -0.654803 0.076823
0.304406 0.085263 0.190487 0.593326 -0.136808 -0.793251
0.342166 0.127157 0.252277 0.984251 -0.175613 -0.020232
0.259588 0.350147 0.259846 -0.677033 -0.000590 -0.735953
0.210660 0.662936 0.388341 0.129387 -0.556847 0.820476
0.276832 0.550190 0.371410 0.877790 0.007673 0.478984
0.230544 0.464833 0.279273 -0.921789 -0.184217 -0.341129
0.247408 0.342732 0.279939 0.990030 0.132477 -0.047870
0.340673 0.120657 0.262404 0.982630 -0.159199 0.095364
0.286907 0.199072 0.161149 0.271366 -0.134091 -0.953090
0.182047 0.606132 0.469475 0.387414 -0.877003 0.284210
0.162832 0.652889 0.258139 0.053128 0.026646 0.998232
0.122557 0.820879 0.291558 0.325458 0.066294 0.943230
0.227374 0.025008 0.193199 -0.287297 -0.777318 -0.559676
0.154936 0.174119 0.252183 0.999956 0.006934 -0.006378
0.147980 0.670172 0.258651 0.173749 0.132165 0.975881
0.270673 0.845491 0.190079 -0.586724 -0.270677 -0.763209
0.191571 0.690553 0.419539 0.505531 -0.412025 0.758072
0.181599 0.135888 0.211045 -0.834443 -0.246473 -0.492905
0.291843 0.186129 0.228271 0.135421 0.983679 -0.118480
0.176295 0.833711 0.235230 0.268913 -0.041624 -0.962265
0.269497 0.520692 0.260159 0.650144 -0.268823 0.710667
0.182671 0.757465 0.301820 -0.270554 -0.778528 0.566299
0.247744 0.670869 0.235259 0.325574 0.313734 0.891949
0.249164 0.643855 0.099693 -0.380546 -0.549612 -0.743714
0.141363 0.442279 0.206905 -0.842154 -0.535217 0.065716
0.090866 0.836325 0.254500 -0.372134 -0.463983 0.803888
0.327330 0.606474 0.192237 0.375766 -0.891862 -0.251759
0.258264 0.534084 0.256907 -0.943344 0.219878 -0.248507
0.379652 0.822519 0.130920 0.443677 -0.882589 -0.155525
0.176482 0.095365 0.267281 -0.978376 -0.136067 0.155776
0.286583 0.097480 0.178483 0.361523 -0.136754 -0.922280
0.112953 0.709062 0.283907 -0.174126 -0.853887 0.490467
0.303995 0.169274 0.210327 0.193206 -0.964328 -0.180952
0.312391 0.028555 0.208901 0.589596 -0.618179 -0.519837
0.204196 0.167325 0.342586 0.505904 -0.069771 -0.859763
0.156573 0.187636 0.235776 0.980626 -0.033449 0.193014
0.316802 0.510143 0.101567 -0.499557 -0.661226 -0.559664
0.196741 0.736059 0.177099 -0.982371 0.017246 0.186146
0.210004 0.169410 0.291030 -0.195610 -0.968914 0.151469
0.178477 0.081872 0.268831 -0.974628 -0.135819 0.177917
0.203428 0.555457 0.404929 -0.880165 0.115928 -0.460293
0.300584 0.674865 0.156145 -0.906700 -0.009955 -0.421658
0.351979 0.826853 0.260600 0.730193 -0.605738 0.316068
0.286273 0.286755 0.235652 0.911912 -0.251422 0.324350
0.255381 0.179723 0.258468 0.999015 0.000037 0.044384
0.235722 0.535653 0.080887 -0.209153 -0.937425 -0.278369
0.274105 0.103077 0.334882 0.207933 -0.135195 0.968755
0.292853 0.186129 0.229169 0.139600 0.983535 -0.114762
0.340720 0.816485 0.291988 0.873551 -0.037267 -0.485305
0.337810 0.849194 0.401997 0.981708 -0.090632 0.167435
0.175454 0.644029 0.294220 -0.382047 -0.861289 0.334995
0.240787 0.074155 0.177426 -0.197157 -0.136517 -0.970820
0.266346 0.589867 0.335742 0.238840 -0.715802 0.656188
0.264354 0.535041 0.356776 0.667775 -0.476732 0.571667
0.260023 0.463783 0.256896 -0.889879 0.000362 0.456197
0.333384 0.578235 0.262198 0.564685 0.186864 -0.803873
0.247502 0.495039 0.264419 0.480766 0.308221 -0.820893
0.250132 0.360844 0.256304 0.980155 0.108422 0.165953
0.170805 0.476301 0.218338 -0.415295 -0.872341 0.257974
0.407851 0.812332 0.201510 0.413005 -0.421333 -0.807406
0.162300 0.409040 0.217825 -0.972073 -0.195336 0.130071
0.259363 0.751889 0.270498 0.031015 -0.417197 0.908287
0.334370 0.619474 0.077772 -0.016805 -0.999386 -0.030746
0.223689 0.688268 0.356512 0.161018 -0.969955 0.182376
0.237206 0.181228 0.152639 0.203717 -0.036201 0.978360
0.442336 0.799198 0.349874 0.452739 -0.878210 -0.154187
0.232125 0.186261 0.338162 -0.083486 0.929636 0.358896
0.187525 0.356985 0.244273 0.862580 0.505840 0.009089
0.238109 0.555272 0.277216 -0.973414 -0.223408 0.050545
0.197480 0.166037 0.170435 0.604364 -0.039169 0.795745
0.239662 0.186125 0.171831 -0.080320 0.934552 -0.346642
0.253658 0.549297 0.313091 0.741780 -0.516963 -0.427214
0.262656 0.716935 0.238379 -0.998274 0.058568 0.004384
0.272756 0.147489 0.341227 0.130013 -0.491624 0.861047
0.317631 0.639279 0.258740 0.683881 -0.691236 -0.233454
0.201233 0.339530 0.245441 -0.586045 -0.222990 0.778991
0.390909 0.648362 0.076633 -0.124514 -0.932073 -0.340200
0.097868 0.844870 0.301329 0.525910 0.675262 -0.517146
0.096064 0.937585 0.163409 -0.513497 -0.845529 0.146294
0.261045 0.236930 0.271134 0.010533 -0.306504 0.951811
0.315433 0.169763 0.187296 0.251805 -0.923269 -0.290119
0.109543 0.839870 0.116742 -0.542295 -0.839332 0.037916
0.269619 0.155269 0.352087 -0.003570 -0.932280 0.361719
0.237018 0.683095 0.252267 0.649639 0.278415 0.707427
0.259307 0.666878 0.256027 -0.750935 -0.165843 -0.639212
0.343443 0.719809 0.253356 0.329458 -0.375168 -0.866433
0.178087 0.371696 0.263763 -0.585489 -0.756533 0.291307
0.363954 0.628552 0.240825 0.761356 -0.225525 -0.607845
0.221729 0.804051 0.179234 0.827433 0.475083 0.299418
0.237301 0.186196 0.260671 -0.077555 0.996548 0.029614
0.187332 0.662980 0.292511 -0.282911 -0.030779 0.958652
0.265138 0.146018 0.341796 0.053202 -0.462266 0.885144
0.190108 0.103646 0.205810 -0.800504 -0.136558 -0.583563
0.309988 0.605590 0.220639 -0.011628 -0.377032 -0.926127
0.257745 0.684920 0.248599 0.994762 -0.024208 0.099310
0.180036 0.538531 0.372146 0.129228 -0.234584 0.963468
0.306223 0.575128 0.124469 0.084444 -0.976792 -0.196843
0.348272 0.169289 0.219906 0.949281 0.045215 -0.311162
0.228857 0.025041 0.237611 0.000019 1.000000 -0.000786
0.198445 0.093068 0.310736 -0.710663 -0.135347 0.690391
0.245524 0.295989 0.251852 0.784370 0.307945 0.538455
0.167866 0.526461 0.365845 0.253830 -0.653132 0.713434
0.261365 0.257772 0.278280 0.578752 -0.286970 0.763344
0.231858 0.915007 0.415262 0.594969 -0.621492 0.509666
0.127437 0.813473 0.291801 0.757092 0.600906 0.256366
0.197808 0.157542 0.177437 -0.582870 0.074102 -0.809179
0.128327 0.756133 0.241320 -0.236306 -0.914539 -0.328295
0.314329 0.159628 0.175007 0.633095 0.101084 -0.767446
0.232834 0.042889 0.324425 -0.292511 -0.278000 0.914961
0.259923 0.232087 0.223780 -0.993615 0.075752 -0.083608
0.330395 0.640929 0.198378 -0.279955 -0.385043 -0.879413
0.308435 0.186102 0.210943 0.198288 0.960552 -0.194989
0.095745 0.457144 0.278349 -0.270304 -0.926010 -0.263518
0.291303 0.045950 0.320159 0.461879 -0.209787 0.861776
0.275035 0.186128 0.209501 0.064439 0.978314 -0.196847
0.253794 0.640478 0.248630 -0.517435 -0.310655 -0.797342
0.161745 0.845435 0.267419 -0.553642 -0.831256 -0.049945
0.330555 0.169276 0.239923 0.295035 -0.954281 -0.047975
0.239241 0.594165 0.245664 -0.906249 -0.304772 -0.292963
0.225837 0.865475 0.365948 0.678837 -0.423492 0.599863
0.276191 0.589101 0.208356 -0.829983 0.364511 0.422209
0.281939 0.582213 0.398266 0.845118 -0.260560 0.466780
0.184443 0.181832 0.327159 0.720164 -0.000535 -0.693804
0.321709 0.832764 0.389830 0.826057 -0.509963 0.239933
0.173256 0.117566 0.243351 -0.980084 -0.151417 -0.128486
0.159533 0.758270 0.237990 -0.340178 -0.065980 0.938043
0.161323 0.188201 0.244107 -0.991504 -0.096264 -0.087480
0.217028 0.628953 0.296421 0.464607 -0.173131 0.868428
0.298468 0.888897 0.377076 0.499782 -0.851218 0.160145
0.257743 0.620599 0.121592 -0.501738 -0.388158 -0.773041
0.326745 0.093845 0.294630 0.859789 -0.135945 0.492221
0.380049 0.816256 0.147013 0.207215 -0.870287 -0.446836
0.220763 0.451499 0.196923 -0.903868 0.001295 -0.427810
0.279091 0.654478 0.279576 -0.658570 -0.046894 0.751057
0.260386 0.186331 0.150859 -0.030555 -0.053062 0.998124
0.435433 0.907779 0.223234 0.025371 -0.982195 -0.186145
0.230878 0.199070 0.158052 0.204213 -0.782269 0.588518
0.400190 0.548407 0.389824 0.859781 -0.474231 -0.189425
0.345231 0.413653 0.248285 0.417282 -0.715552 0.560232
0.405682 0.809048 0.201481 0.381192 -0.171574 -0.908436
0.169286 0.150679 0.237851 -0.808533 -0.560800 -0.178260
0.310255 0.141081 0.185444 0.588920 -0.361619 -0.722776
0.237084 0.874456 0.109507 -0.795179 -0.451700 -0.404545
0.162501 0.190709 0.233803 -0.974302 -0.119009 -0.191237
0.174682 0.196178 0.203577 -0.862758 -0.169276 -0.476438
0.322840 0.186101 0.223398 0.257178 0.955682 -0.143291
0.315329 0.190775 0.340023 -0.545350 -0.000647 -0.838208
0.443063 0.913477 0.302236 0.617303 -0.051603 -0.785032
0.258947 0.504315 0.371898 -0.382960 -0.770385 0.509754
0.370189 0.722985 0.288468 0.662701 -0.662242 0.349662
0.197045 0.186254 0.293942 -0.232528 0.956045 0.178628
0.350206 0.168684 0.282417 0.954555 -0.000062 0.298036
0.256945 0.245565 0.260769 0.256893 -0.000774 -0.966440
0.164280 0.741117 0.358560 -0.167883 -0.641530 0.748501
0.308408 0.798753 0.361356 0.950834 -0.075054 0.300469
0.229672 0.186202 0.260008 -0.108337 0.993722 0.027937
0.247727 0.662475 0.075959 -0.565654 -0.288652 -0.772474
0.341076 0.172304 0.314366 -0.821814 -0.000440 -0.569756
0.300767 0.535494 0.243595 0.907353 -0.399960 -0.129393
0.270104 0.104749 0.172994 0.158453 -0.136926 -0.977826
0.114670 0.598488 0.114080 -0.610040 -0.791076 -0.045264
0.180913 0.197301 0.322831 0.774198 -0.000488 -0.632944
0.309561 0.169274 0.215660 0.214849 -0.963919 -0.157164
0.266476 0.180243 0.351476 0.093721 -0.135511 0.986333
0.087229 0.823150 0.197676 -0.318711 -0.899791 -0.297992
0.298216 0.676052 0.151889 0.432202 0.458991 0.776227
0.045316 0.769185 0.266243 -0.284303 -0.915461 0.284785
0.279086 0.156634 0.158830 0.285896 0.119126 -0.950827
0.417698 0.533459 0.314487 0.428997 -0.898632 0.091775
0.206551 0.186248 0.295268 -0.195031 0.963507 0.183350
0.231575 0.356196 0.237988 0.862345 0.295043 0.411474
0.364374 0.629290 0.223025 -0.739775 0.651420 0.168477
0.340488 0.638764 0.435282 0.650338 -0.731517 0.204799
0.260660 0.104926 0.336672 0.048459 -0.135510 0.989590
0.232693 0.138129 0.170791 -0.243696 -0.296039 -0.923566
0.062624 0.676552 0.339420 -0.095011 -0.700552 0.707248
0.314422 0.545370 0.065613 -0.784994 -0.174132 -0.594527
0.333754 0.128680 0.217048 0.887739 -0.180268 -0.423584
0.280725 0.518862 0.173724 0.159314 -0.808208 -0.566938
0.471309 0.718306 0.235405 0.260905 -0.772129 -0.579436
0.276995 0.626607 0.364998 -0.129633 -0.784069 0.606986
0.276253 0.309432 0.270207 -0.776841 0.120333 0.618092
0.225308 0.725015 0.466236 0.620904 -0.748487 0.232907
0.204950 0.186200 0.232084 -0.212780 0.973146 -0.087813
0.124077 0.826555 0.310327 -0.280679 -0.829724 0.482470
0.314803 0.766518 0.326314 0.059909 0.484835 -0.872551
0.230045 0.620934 0.242474 0.017388 -0.169946 -0.985300
0.243778 0.478604 0.325275 0.841005 -0.099921 0.531720
0.354746 0.170963 0.254341 0.998031 0.058136 0.023526
0.206971 0.150403 0.180511 -0.442084 -0.553822 -0.705580
0.310982 0.637970 0.274305 0.856699 -0.366624 -0.362841
0.261408 0.701479 0.280322 -0.519539 0.284431 -0.805716
0.086091 0.823338 0.192499 -0.140729 -0.949819 0.279354
0.259572 0.730264 0.288831 0.922786 0.086899 -0.375385
0.238847 0.721454 0.250162 -0.773160 -0.516652 -0.367824
0.173896 0.771315 0.151151 -0.845500 -0.508961 0.161518
0.365896 0.802232 0.134532 -0.201284 -0.974586 -0.098325
0.188088 0.696040 0.330199 -0.254615 -0.565969 -0.784124
0.316702 0.780431 0.223527 0.636991 -0.762390 -0.114035
0.360018 0.704638 0.286504 -0.662487 0.616586 -0.425362
0.222509 0.813858 0.175453 -0.756592 -0.521122 -0.394970
0.390165 0.678264 0.171777 0.379393 -0.918292 -0.113141
0.363857 0.631931 0.225168 -0.192467 -0.104647 -0.975708
0.192164 0.072152 0.298682 -0.816061 -0.135350 0.561894
0.186722 0.040036 0.231451 -0.906534 -0.321473 -0.273592
0.218027 0.676072 0.268473 -0.926728 -0.357160 0.116670
0.190028 0.445961 0.306083 0.496733 -0.129234 0.858228
0.292480 0.650204 0.172796 -0.928305 0.360912 0.089398
0.132804 0.760217 0.360138 -0.212884 -0.167089 0.962685
0.289538 0.173578 0.336147 0.201279 -0.782990 0.588569
0.294173 0.186087 0.175627 0.133189 0.930866 -0.340219
0.203473 0.069804 0.197624 -0.677856 -0.136593 -0.722394
0.171569 0.195165 0.310954 0.856492 -0.000398 -0.516160
0.199768 0.198807 0.175772 -0.629503 -0.034325 -0.776239
0.245410 0.686934 0.230522 0.379752 0.314345 0.870044
0.192881 0.609701 0.261806 0.037257 0.028994 -0.998885
0.247418 0.474929 0.259592 -0.832397 -0.271273 -0.483246
0.239701 0.404294 0.299792 0.977799 0.192756 -0.082190
0.345752 0.753034 0.202185 -0.435987 -0.090942 -0.895346
0.331836 0.199092 0.188435 0.711843 -0.453946 -0.535922
0.228566 0.465836 0.177879 -0.978913 -0.119120 -0.165953
0.179107 0.498695 0.183858 0.893664 0.307561 -0.326757
0.247913 0.492030 0.260372 0.828542 0.041376 0.558396
0.245478 0.169361 0.263401 -0.048855 -0.998088 0.037872
0.240186 0.547377 0.179848 -0.384044 0.496543 0.778431
0.059976 0.963603 0.199843 -0.439564 -0.886018 -0.147497
0.284793 0.642363 0.237969 0.818107 -0.359749 -0.448644
0.245654 0.055867 0.329322 -0.136686 -0.164441 0.976871
0.273786 0.512419 0.202299 -0.610944 0.092129 -0.786295
0.275869 0.169368 0.302141 0.065755 -0.975475 0.210057
0.314103 0.132236 0.190183 0.658193 -0.189889 -0.728508
0.234465 0.169371 0.264618 -0.093509 -0.994758 0.041385
0.424749 0.818954 0.198890 0.211179 -0.804638 -0.554942
0.256668 0.600915 0.260356 0.556437 -0.000666 -0.830890
0.266690 0.431872 0.255516 0.822756 -0.307804 -0.477837
0.322197 0.025071 0.274008 0.599108 -0.775998 0.197225
0.346043 0.155157 0.207513 0.230963 -0.969208 -0.085387
0.109146 0.899723 0.258041 -0.217823 -0.975426 -0.033123
0.119874 0.827864 0.295112 -0.744560 -0.627224 -0.228518
0.334674 0.146003 0.294829 0.770359 -0.465289 0.435950
0.392322 0.873741 0.298442 0.729914 -0.556369 -0.397088
0.158127 0.155212 0.279211 -0.219844 -0.975145 0.027597
0.262969 0.176911 0.156759 0.085877 0.010017 -0.996255
0.299828 0.174399 0.177138 0.333975 -0.701849 -0.629182
0.331278 0.078262 0.229344 0.940124 -0.136606 -0.312259
0.194389 0.131020 0.313890 -0.712804 -0.185152 0.676483
0.179178 0.174916 0.187874 0.773467 0.047255 0.632073
0.188113 0.592805 0.155683 -0.047847 -0.933933 -0.354230
0.187219 0.808966 0.265001 -0.695985 -0.706351 0.129123
0.257393 0.264005 0.255921 0.053807 0.000786 0.998551
0.152054 0.905231 0.107991 -0.286037 -0.939084 0.190537
0.215584 0.082442 0.322334 -0.510886 -0.135553 0.848894
0.124387 0.753873 0.344733 -0.093341 -0.761670 0.641207
0.165203 0.155106 0.296731 -0.433542 0.889176 0.146314
0.085038 0.918661 0.256298 -0.345854 -0.820446 -0.455250
0.332005 0.766522 0.063366 0.196907 -0.939360 -0.280768
0.226648 0.169404 0.299705 -0.130010 -0.972903 0.191199
0.191786 0.085870 0.301138 -0.803013 -0.135581 0.580335
0.339766 0.183626 0.192626 -0.802252 -0.037201 0.595825
0.360394 0.837044 0.221539 0.421691 -0.903489 -0.076710
0.293967 0.177168 0.345119 0.376364 0.000158 0.926472
0.375511 0.647813 0.217114 0.518700 -0.211975 0.828261
0.391116 0.888852 0.410377 0.533642 -0.841746 0.081792
0.259383 0.489249 0.257549 0.755043 -0.291438 0.587345
0.308281 0.025069 0.273463 0.059981 -0.997337 0.041480
0.266260 0.325644 0.302965 0.918883 -0.249719 0.305443
0.268453 0.176657 0.151687 -0.085285 0.002199 0.996354
0.325286 0.169248 0.198497 0.276846 -0.934050 -0.225626
0.283742 0.151818 0.169835 0.276876 -0.584744 -0.762505
0.238412 0.026138 0.185025 -0.238751 -0.557533 -0.795082
0.173449 0.114943 0.263668 -0.983583 -0.144443 0.108169
0.276640 0.176783 0.152520 -0.164345 0.001456 0.986402
0.110099 0.598951 0.105755 -0.604141 -0.626847 0.492013
0.358673 0.728001 0.120990 -0.532925 -0.073085 -0.843000
0.279296 0.543191 0.262017 -0.505137 0.084144 0.858928
0.230271 0.169379 0.271369 -0.111444 -0.991300 0.070031
0.368140 0.489750 0.322238 -0.525882 0.030571 0.850008
0.180854 0.676481 0.417838 0.584743 -0.580288 0.566870
0.266117 0.554818 0.222825 0.959584 -0.059323 0.275100
0.228832 0.460617 0.328162 0.975380 0.220400 0.007644
0.279846 0.549079 0.266367 0.086930 0.060458 -0.994378
0.349077 0.691517 0.154764 -0.236276 -0.642674 -0.728796
0.348596 0.825561 0.364929 0.147850 0.515700 -0.843916
0.334656 0.169275 0.242652 0.310300 -0.949968 -0.035709
0.112746 0.709686 0.220357 -0.677095 -0.443974 0.586881
0.348141 0.745407 0.283029 0.230675 -0.958326 0.168521
0.452979 0.725681 0.193458 0.190569 -0.819843 -0.539946
0.292513 0.521104 0.340129 -0.161376 0.601279 -0.782574
0.228107 0.360027 0.338837 0.738126 -0.428854 0.520822
0.211247 0.169437 0.326495 -0.192927 -0.934361 0.299581
0.287034 0.345272 0.277304 -0.939325 0.274420 0.205820
0.258420 0.444209 0.383811 0.348463 -0.656926 0.668597
0.316936 0.659752 0.296984 0.994107 -0.069476 -0.083213
0.304999 0.179117 0.162809 -0.453619 -0.011730 0.891119
0.289695 0.146831 0.172397 0.348256 -0.484885 -0.802249
0.254446 0.373082 0.263184 -0.732507 -0.069584 -0.677194
0.267119 0.411073 0.285065 -0.366324 -0.212880 0.905809
0.217676 0.108293 0.181239 -0.465206 -0.137058 -0.874528
0.197161 0.177259 0.170693 0.591349 -0.044167 0.805205
0.252811 0.040146 0.180879 -0.066170 -0.233542 -0.970092
0.205713 0.525006 0.292487 0.231188 -0.199827 0.952167
0.187450 0.463331 0.217747 -0.678453 -0.724349 -0.122555
0.256698 0.659067 0.263515 0.928760 -0.147776 0.339952
0.256915 0.769786 0.259105 0.217376 0.038971 0.975310
0.156813 0.846738 0.266905 -0.304188 -0.937895 0.166798
0.353471 0.178451 0.290700 -0.936875 -0.000932 -0.349664
0.255907 0.415403 0.256386 0.723240 0.000554 0.690597
0.307577 0.068799 0.196016 0.650719 -0.136858 -0.746883
0.268008 0.422441 0.255068 -0.909853 0.313721 0.271562
0.323504 0.612519 0.213887 -0.386114 -0.216438 -0.896700
0.093723 0.938469 0.154746 -0.691405 -0.586240 0.422234
0.215705 0.490016 0.116470 0.250372 -0.886187 -0.389854
0.300390 0.806429 0.203805 -0.442182 -0.418467 -0.793323
0.240904 0.064161 0.178816 -0.199800 -0.142577 -0.969408
0.300929 0.025072 0.277000 0.042895 -0.998442 0.035692
0.305641 0.066964 0.314006 0.629814 -0.140027 0.764020
0.250432 0.453242 0.279295 -0.211379 0.295525 -0.931656
0.459980 0.711640 0.236914 0.256712 -0.259265 -0.931064
0.225608 0.463060 0.150966 0.123301 -0.806331 -0.578470
0.211576 0.661724 0.387828 0.145906 -0.515234 0.844539
0.278270 0.186171 0.269209 0.087428 0.994358 0.060065
0.189886 0.728670 0.275484 0.846019 0.492660 -0.203807
0.231542 0.460722 0.277897 -0.966458 -0.248700 -0.064092
0.215947 0.176095 0.349014 0.399247 -0.015915 -0.916705
0.207907 0.846624 0.150311 0.783365 -0.202262 -0.587732
0.381459 0.637427 0.255672 0.419704 -0.014986 -0.907537
0.172667 0.194695 0.301241 -0.849312 -0.198234 0.489257
0.179215 0.650331 0.276589 -0.117241 -0.345018 0.931245
0.231012 0.025074 0.279825 0.000006 1.000000 -0.000733
0.256497 0.161764 0.256417 -0.467390 -0.314079 -0.826378
0.236813 0.583582 0.154021 -0.980143 0.027024 0.196441
0.217915 0.671993 0.072911 -0.403311 -0.734873 -0.545254
0.241301 0.577235 0.327808 0.992844 0.010570 0.118947
0.155297 0.731396 0.247939 -0.300767 -0.945990 -0.121002
0.261052 0.676493 0.271697 -0.837627 0.199922 -0.508343
0.258421 0.498510 0.240837 0.973929 -0.174934 -0.144435
0.299547 0.169292 0.228243 0.173490 -0.979230 -0.104931
0.194145 0.712365 0.215536 -0.760870 -0.219638 0.610603
0.352779 0.165086 0.234593 0.986565 0.069267 -0.147957
0.332537 0.732197 0.210227 -0.732363 0.217824 -0.645133
0.184988 0.656269 0.093962 0.037971 -0.843145 -0.536344
0.289808 0.177750 0.172532 0.345145 0.021804 -0.938296
0.340517 0.722832 0.126854 -0.043512 -0.246423 -0.968185
0.223672 0.603018 0.340686 0.227305 -0.117333 0.966729
0.330324 0.608074 0.180323 0.467744 -0.882053 -0.056549
0.157302 0.540744 0.153615 -0.415558 0.813216 0.407421
0.155513 0.176662 0.246398 0.993761 -0.089817 0.066126
0.234777 0.443499 0.315439 0.044146 -0.458859 0.887412
0.309221 0.691701 0.223280 -0.874355 0.463616 0.143400
0.257797 0.025101 0.313456 0.027290 -0.886778 0.461389
0.177953 0.076070 0.252948 -0.990583 -0.135913 -0.016539
0.314257 0.173415 0.186355 0.386396 -0.789864 -0.476249
0.233939 0.345905 0.319007 0.660119 -0.291024 0.692494
0.372164 0.736753 0.108964 -0.437922 -0.504863 -0.743867
0.329495 0.035124 0.251163 0.980136 -0.186093 -0.068573
0.297919 0.632649 0.388412 -0.238638 -0.919578 0.312134
0.173468 0.610273 0.353971 -0.030114 -0.868847 0.494165
0.176005 0.178476 0.293359 -0.871113 0.189278 0.453140
0.177757 0.094949 0.235152 -0.963540 -0.136325 -0.230232
0.258495 0.186127 0.192149 -0.004402 0.963518 -0.267606
0.411382 0.834314 0.158207 0.210328 -0.624250 -0.752379
0.263696 0.085556 0.333738 0.087068 -0.135676 0.986920
0.295690 0.502535 0.431107 0.716140 -0.678485 0.163713
0.200165 0.677965 0.321728 -0.820505 -0.083892 -0.565450
0.122466 0.703867 0.231010 -0.836199 -0.341250 0.429325
0.364645 0.708992 0.251727 0.558860 -0.828777 0.028363
0.175275 0.543828 0.272016 -0.111540 0.157992 0.981120
0.257141 0.466949 0.255812 0.182965 0.000777 0.983119
0.423039 0.700673 0.149221 -0.127444 -0.990837 -0.044725
0.250387 0.169287 0.172578 -0.013874 -0.937494 -0.347724
0.327808 0.635899 0.199233 -0.481891 -0.119134 -0.868095
0.240533 0.529565 0.273158 0.352946 0.297008 -0.887251
0.341270 0.856790 0.406909 0.586255 -0.761379 0.276780
0.216242 0.259299 0.238873 -0.217564 -0.836913 -0.502238
0.340366 0.123633 0.239181 0.971241 -0.166650 -0.170055
0.264725 0.170952 0.357295 -0.085056 0.038695 -0.995625
0.160445 0.155197 0.258219 -0.484948 -0.874256 -0.022412
0.260787 0.568526 0.168078 -0.420726 -0.339660 -0.841202
0.181855 0.568141 0.309313 0.170695 -0.309390 0.935490
0.164698 0.197187 0.210386 0.892013 -0.013116 0.451820
0.259907 0.025086 0.294416 0.000006 1.000000 -0.000702
0.259435 0.559054 0.256236 -0.770375 0.000500 0.637591
0.169265 0.770673 0.146480 -0.872826 -0.328717 0.360721
0.194334 0.051054 0.296828 -0.810071 -0.180730 0.557783
0.321209 0.657044 0.275508 0.832902 -0.533671 0.146524
0.249106 0.778606 0.188800 -0.734060 0.016537 -0.678883
0.323633 0.166646 0.175482 -0.614667 0.059819 0.786515
0.198877 0.186231 0.266711 -0.230543 0.971119 0.061462
0.211531 0.169334 0.194463 -0.172565 -0.949426 -0.262321
0.331887 0.108622 0.289352 0.899132 -0.135817 0.416071
0.255347 0.452452 0.258375 0.991611 -0.000099 -0.129259
0.228348 0.470447 0.175227 -0.875643 -0.413165 -0.250088
0.237395 0.713550 0.250547 -0.619661 -0.784869 -0.000913
0.181645 0.176115 0.314932 -0.785949 -0.099902 0.610167
0.262014 0.269080 0.284908 0.773414 0.142937 -0.617576
0.248709 0.066191 0.331030 -0.098111 -0.140937 0.985145
0.110033 0.774002 0.358854 0.022691 -0.465703 0.884650
0.190415 0.372323 0.204746 -0.852767 -0.270465 0.446808
0.167003 0.199024 0.289395 -0.897381 -0.226551 0.378659
0.249350 0.169337 0.236480 -0.028985 -0.996615 -0.076928
0.207641 0.533115 0.199947 -0.410821 -0.846137 -0.339526
0.322887 0.431902 0.298094 0.423627 -0.518114 0.743033
0.295121 0.525658 0.339522 -0.858743 -0.059740 0.508913
0.278687 0.631762 0.373404 0.152628 -0.967430 0.201948
0.209694 0.602523 0.143493 -0.495928 -0.828436 -0.260287
0.257694 0.471818 0.255742 -0.081105 0.000786 0.996705
0.243890 0.174647 0.157595 -0.130143 -0.063498 -0.989460
0.361327 0.859928 0.396593 0.834139 -0.346195 0.429372
0.185097 0.551703 0.393174 0.043303 -0.254103 0.966207
0.356441 0.726850 0.121686 -0.501387 -0.033051 -0.864591
0.168894 0.566177 0.397870 0.071153 -0.574596 0.815339
0.104386 0.483312 0.204867 -0.921492 -0.375691 0.098532
0.256109 0.436525 0.382315 0.804968 0.119398 0.581180
0.319912 0.025044 0.240522 0.348052 -0.927699 -0.135037
0.208989 0.566450 0.346983 -0.184084 -0.952159 0.243940
0.302917 0.610623 0.269939 -0.916397 0.374708 0.140746
0.236984 0.186198 0.262809 -0.078508 0.996154 0.038893
0.149515 0.587438 0.097553 -0.887250 -0.412741 -0.205990
0.180216 0.650084 0.277062 -0.151598 -0.388099 0.909064
0.349919 0.155096 0.283431 0.038897 0.998876 0.027089
0.263260 0.132255 0.340117 0.070566 -0.188300 0.979573
0.257904 0.673057 0.271069 0.515922 0.247393 -0.820135
0.265364 0.316869 0.299384 0.918787 -0.226883 0.323039
0.237310 0.186195 0.258619 -0.077822 0.996751 0.020763
0.387088 0.740813 0.295761 0.462568 -0.203656 -0.862876
0.270080 0.576307 0.248063 -0.914764 0.302937 0.267276
0.265779 0.938768 0.431893 0.451115 -0.351181 0.820468
0.228108 0.534437 0.259205 -0.915626 -0.300348 -0.267247
0.177341 0.153377 0.213892 -0.689879 -0.611645 -0.387243
0.420847 0.829792 0.184235 0.498933 -0.414103 -0.761304
0.240521 0.587423 0.334592 0.996809 0.051519 0.060974
0.383404 0.716229 0.239522 0.302811 -0.943091 0.137425
0.257550 0.114380 0.170406 0.010416 -0.143460 -0.989601
0.284382 0.701562 0.455032 -0.196044 -0.961334 0.193401
0.255996 0.836476 0.129912 -0.783985 -0.546596 -0.294279
0.237765 0.121284 0.337039 -0.217459 -0.159826 0.962895
0.197432 0.142286 0.318843 -0.640033 -0.384046 0.665482
0.251327 0.073135 0.332235 -0.065108 -0.135589 0.988624
0.292397 0.456235 0.390333 -0.469265 0.830626 -0.299752
0.131783 0.820951 0.336753 0.001624 -0.988669 0.150106
0.255560 0.605887 0.258030 0.992345 -0.000094 -0.123495
0.280940 0.169357 0.293916 0.087823 -0.980573 0.175398
0.192170 0.539969 0.194561 -0.081638 -0.887966 -0.452606
0.307902 0.169333 0.290054 0.196250 -0.966982 0.162578
0.294819 0.169278 0.205270 0.157224 -0.966268 -0.203980
0.187754 0.621391 0.303726 -0.381271 -0.917956 0.109493
0.276379 0.593705 0.205372 -0.542034 0.440038 0.715937
0.102796 0.935567 0.166633 -0.662611 -0.723464 0.193768
0.342264 0.455805 0.307545 -0.565269 0.065823 0.822276
0.317303 0.036886 0.213071 0.737397 -0.426173 -0.524044
0.241998 0.186178 0.241484 -0.061918 0.996655 -0.053341
0.202188 0.698254 0.222127 -0.862134 -0.496122 -0.102901
0.343819 0.141075 0.249832 0.933280 -0.358333 -0.024209
0.454886 0.807397 0.311538 0.468883 -0.841249 -0.269163
0.061807 0.877299 0.278796 -0.531399 -0.763602 0.366779
0.248426 0.083978 0.333414 -0.099950 -0.135678 0.985699
0.211408 0.508914 0.288273 0.700882 0.087758 0.707858
0.285217 0.693648 0.290436 0.800901 -0.384739 0.458840
0.243851 0.382165 0.289745 0.337871 -0.239242 0.910278
0.229346 0.717483 0.251655 -0.652352 -0.278794 -0.704777
0.286407 0.315829 0.274082 0.864832 -0.084190 -0.494952
0.212970 0.684408 0.053823 -0.124691 -0.935399 -0.330880
0.380409 0.637063 0.103267 -0.264097 -0.628283 -0.731788
0.353601 0.875305 0.430601 0.963454 -0.267718 -0.009133
0.342522 0.600681 0.247000 0.772993 -0.120803 -0.622807
0.190034 0.621948 0.303514 -0.538091 -0.842058 0.037364
0.315105 0.721770 0.116377 0.569229 -0.683544 -0.456887
0.269261 0.163952 0.157409 0.176553 0.095150 -0.979681
0.348700 0.695294 0.281417 0.162917 -0.316887 0.934367
0.200968 0.340796 0.245886 -0.778354 -0.364400 0.511250
0.239981 0.169321 0.206505 -0.061375 -0.976163 -0.208180
0.302435 0.169357 0.315395 0.169110 -0.948195 0.268940
0.348981 0.747412 0.102274 0.062223 -0.534118 -0.843117
0.232596 0.155124 0.166361 -0.137002 -0.711845 -0.688845
0.303778 0.186121 0.230026 0.183423 0.976559 -0.112647
0.344763 0.169261 0.235404 0.349447 -0.934745 -0.064338
0.188020 0.644560 0.277193 -0.239249 -0.249542 0.938344
0.048960 0.943379 0.253876 -0.102632 -0.971947 -0.211628
0.266884 0.451425 0.333703 0.185050 -0.881247 0.434926
0.234922 0.158897 0.355338 0.183447 0.190489 -0.964397
0.329351 0.435476 0.301265 -0.842523 0.465028 0.271854
0.316284 0.655525 0.290653 0.996046 -0.039752 -0.079448
0.232412 0.806973 0.320382 0.266429 -0.567778 0.778873
0.307633 0.642429 0.188599 -0.028940 -0.050655 -0.998297
0.409510 0.895845 0.424320 0.385407 -0.917628 -0.097059
0.239915 0.634591 0.369949 -0.891484 -0.346822 0.291497
0.292760 0.490258 0.127548 -0.456341 -0.071828 -0.886901
0.198848 0.184348 0.187378 -0.291188 0.894295 -0.339773
0.287395 0.648525 0.234008 0.630768 -0.051101 0.774287
0.176996 0.159749 0.318070 0.769963 -0.000492 -0.638089
0.221580 0.046889 0.188655 -0.465689 -0.191553 -0.863968
0.391650 0.752911 0.341689 0.751098 -0.441249 -0.491071
0.233724 0.025076 0.283317 0.000005 1.000000 -0.000726
0.429918 0.866233 0.366550 -0.024796 -0.993041 0.115133
0.324025 0.724171 0.210589 0.251714 0.794593 0.552506
0.259829 0.640901 0.258003 -0.892484 -0.107141 0.438170
0.276846 0.684081 0.259210 0.946648 -0.312973 0.076840
0.406014 0.885328 0.283692 0.888612 -0.327284 -0.321330
0.261384 0.323165 0.257057 -0.920028 0.087343 -0.381994
0.163237 0.565690 0.120858 -0.688645 -0.642817 -0.335492
0.369376 0.719027 0.290958 0.116208 0.131697 -0.984455
0.280760 0.528479 0.188719 -0.430986 -0.582257 -0.689368
0.170727 0.140867 0.236875 -0.913686 -0.355457 -0.197052
0.331053 0.683442 0.166079 -0.034505 -0.517540 -0.854963
0.246766 0.682582 0.236042 0.235384 -0.252671 -0.938484
0.233139 0.025072 0.277736 0.000005 1.000000 -0.000737
0.171977 0.186253 0.268586 -0.333960 0.939765 0.072889
0.332474 0.563294 0.158848 0.740429 0.062970 0.669178
0.176310 0.857650 0.154039 -0.428177 -0.902802 0.040170
0.153576 0.859841 0.153180 0.065942 -0.853618 -0.516709
0.149994 0.585401 0.101376 -0.928826 -0.282445 -0.239808
0.254697 0.169328 0.229898 -0.006555 -0.994510 -0.104440
0.225558 0.475573 0.167259 -0.813160 -0.546179 -0.201144
0.187089 0.719116 0.215811 0.495922 -0.037808 -0.867544
0.206587 0.558930 0.333110 0.148068 -0.875158 0.460624
0.323942 0.659443 0.186737 -0.056484 -0.441061 -0.895698
0.146138 0.907400 0.111013 -0.077290 -0.937491 -0.339320
0.253762 0.664197 0.068691 -0.786489 -0.055210 -0.615131
0.357608 0.164291 0.231352 -0.962005 0.066237 0.264876
0.212008 0.590851 0.327648 0.127646 -0.514223 0.848104
0.257744 0.252110 0.259965 0.235494 -0.221552 0.946286
0.393442 0.678954 0.162529 0.413557 -0.909123 0.049661
0.405345 0.677304 0.211582 -0.296428 -0.017364 -0.954898
0.313406 0.559683 0.237511 0.436044 -0.079461 0.896410
0.277686 0.576694 0.149898 -0.911289 -0.060927 -0.407236
0.164096 0.155053 0.227430 -0.912486 0.262986 -0.313380
0.193849 0.155141 0.187971 -0.456419 -0.712824 -0.532507
0.097299 0.844825 0.278283 -0.752451 -0.357546 0.553153
0.285520 0.081996 0.328357 0.359205 -0.135385 0.923387
0.254273 0.148081 0.165925 0.004166 -0.509172 -0.860655
0.400605 0.749706 0.272798 0.507244 -0.839306 -0.195626
0.261525 0.308715 0.233872 -0.925648 -0.096409 -0.365898
0.094502 0.836963 0.255458 -0.430500 -0.617804 0.658019
0.247531 0.500899 0.362322 0.276982 -0.838211 0.469770
0.382634 0.840577 0.346295 0.322477 -0.872115 0.367999
0.265246 0.771280 0.217591 -0.443170 0.366135 0.818258
0.249132 0.448788 0.227473 -0.936065 0.062910 0.346156
0.312651 0.025084 0.290603 0.475017 -0.827483 0.299384
0.273122 0.169333 0.255395 0.062521 -0.998012 0.007977
0.249789 0.416939 0.264144 0.907951 -0.094702 0.408237
0.378409 0.627992 0.265537 0.428226 -0.671603 -0.604626
0.214145 0.169326 0.186432 -0.160173 -0.941875 -0.295323
0.300289 0.781872 0.268226 0.500691 -0.820708 -0.275224
0.323223 0.169325 0.295148 0.254988 -0.948957 0.185638
0.222448 0.153144 0.171826 -0.273659 -0.604461 -0.748156
0.252957 0.892079 0.169101 -0.093224 -0.647104 -0.756681
0.201040 0.177062 0.174731 -0.582077 0.033305 -0.812451
0.327560 0.035119 0.271646 0.917846 -0.352307 0.182861
0.148467 0.618533 0.336276 -0.809714 -0.579391 -0.093109
0.259866 0.280427 0.257158 -0.823002 0.000455 0.568038
0.205617 0.077555 0.194483 -0.642040 -0.136875 -0.754354
0.185679 0.169367 0.211528 -0.277021 -0.941364 -0.192594
0.227693 0.106139 0.176917 -0.344481 -0.136932 -0.928753
0.245427 0.708657 0.266543 -0.043299 0.022792 0.998802
0.126629 0.694758 0.239379 -0.883209 -0.163339 0.439615
0.210480 0.622021 0.125500 -0.447645 -0.828462 -0.336549
0.192921 0.186236 0.266805 -0.253932 0.965191 0.062655
0.251514 0.235448 0.258094 0.849671 -0.312649 0.424629
0.261125 0.115251 0.338026 0.051703 -0.144253 0.988189
0.256625 0.169391 0.312916 -0.012590 -0.967559 0.252331
0.275988 0.461273 0.302404 -0.240154 -0.352871 0.904327
0.180500 0.112639 0.219709 -0.902463 -0.138629 -0.407852
0.359620 0.799810 0.131668 0.594136 -0.804135 0.019201
0.328797 0.030681 0.258557 0.964747 -0.262904 0.011998
0.214115 0.921397 0.061528 -0.547454 -0.777197 -0.310258
0.308543 0.025065 0.267569 0.046513 -0.998455 0.030394
0.342014 0.733279 0.235151 0.540545 -0.155475 -0.826825
0.124428 0.900294 0.217486 0.039781 -0.258139 -0.965289
0.261880 0.025060 0.261362 0.000005 1.000000 -0.000769
0.296206 0.791331 0.368849 0.709141 -0.676764 0.197760
0.187788 0.673171 0.405599 0.462294 -0.616326 0.637516
0.267487 0.101648 0.173155 0.129099 -0.137124 -0.982105
0.185940 0.093389 0.215179 -0.867160 -0.136721 -0.478896
0.246187 0.686998 0.234704 0.242505 -0.251283 -0.937042
0.251484 0.169409 0.331186 -0.035390 -0.944349 0.327036
0.251249 0.195807 0.151199 0.035946 -0.125467 0.991446
0.223920 0.069294 0.324837 -0.414447 -0.135408 0.899944
0.238463 0.186235 0.311325 -0.064204 0.966679 0.247809
0.231636 0.372026 0.236641 -0.602702 -0.313620 -0.733753
0.270027 0.722190 0.269377 -0.207073 -0.128809 0.969809
0.362910 0.757379 0.223982 0.407591 -0.036663 -0.912428
0.325096 0.786466 0.333407 -0.350823 -0.351020 0.868164
0.247291 0.818668 0.165017 -0.644970 -0.348500 -0.680118
0.346794 0.155185 0.242958 0.707537 -0.705150 -0.046408
0.336186 0.482455 0.406806 0.035310 -0.962702 0.268248
0.342503 0.142319 0.272516 0.899257 -0.386512 0.204805
0.301821 0.104348 0.323427 0.542941 -0.135278 0.828803
0.237387 0.059447 0.180582 -0.248189 -0.149829 -0.957055
0.262218 0.671555 0.055176 -0.830485 -0.366663 -0.419349
0.164946 0.481647 0.224202 -0.411436 -0.856720 -0.311050
0.216731 0.309622 0.237983 -0.294535 -0.613027 -0.733108
0.332358 0.199094 0.190496 0.753133 -0.218907 -0.620380
0.218863 0.140626 0.333060 -0.419899 -0.348328 0.838065
0.240018 0.134726 0.339451 -0.191298 -0.216708 0.957310
0.146974 0.667947 0.217615 -0.591184 -0.699776 0.401018
0.347310 0.185584 0.244735 0.374866 0.925305 -0.057325
0.258309 0.222734 0.255937 -0.317879 0.000744 0.948131
0.214566 0.169347 0.213683 -0.164797 -0.969602 -0.180869
0.217766 0.520564 0.206913 -0.373382 -0.640395 -0.671179
0.291095 0.169365 0.314666 0.124305 -0.956197 0.265019
0.282580 0.759155 0.339543 0.633050 -0.648466 0.422777
0.336898 0.615576 0.102742 0.136491 -0.899067 -0.415992
0.267921 0.561927 0.219127 0.711030 0.128860 0.691254
0.197184 0.059629 0.206658 -0.770742 -0.163329 -0.615858
0.136781 0.445777 0.200712 -0.738578 -0.664256 0.115179
0.207366 0.109325 0.187423 -0.587716 -0.136762 -0.797425
0.173909 0.173660 0.314284 0.813823 -0.000448 -0.581113
0.343386 0.187508 0.311138 -0.828218 -0.000432 -0.560405
0.236624 0.599611 0.140082 -0.714369 0.687351 -0.131250
0.374853 0.516926 0.359698 0.976594 -0.213598 0.025284
0.377158 0.644720 0.218291 -0.677697 0.669372 0.304413
0.245743 0.450776 0.225997 0.547613 0.287110 0.785931
0.065504 0.852788 0.142407 -0.356207 -0.872232 0.335154
0.111056 0.757268 0.347496 0.084793 -0.607534 0.789755
0.197358 0.563296 0.410886 0.327779 0.134345 0.935154
0.351121 0.826812 0.234561 0.521651 -0.801551 -0.292224
0.329188 0.435510 0.300615 -0.775478 0.312370 0.548689
0.432711 0.796198 0.346310 0.753025 -0.593688 -0.283704
0.439247 0.798297 0.345976 0.427039 -0.901007 -0.076319
0.225496 0.186171 0.216700 -0.132187 0.978594 -0.157733
0.233366 0.176512 0.169907 -0.231802 -0.337678 -0.912273
0.211130 0.070472 0.191186 -0.578965 -0.136640 -0.803821
0.166210 0.781942 0.414348 -0.248091 -0.912364 0.325641
0.317649 0.722229 0.116391 -0.455434 -0.507035 -0.731776
0.294625 0.090665 0.183481 0.466310 -0.137064 -0.873938
0.240540 0.403502 0.363411 0.569447 -0.629193 0.529005
0.289552 0.169315 0.248472 0.130347 -0.991293 -0.018671
0.294259 0.186192 0.311902 0.157216 0.957931 0.240105
0.328293 0.068366 0.224264 0.913642 -0.136080 -0.383066
0.325086 0.748865 0.176678 -0.183628 -0.868321 -0.460760
0.100729 0.926604 0.208606 -0.382475 -0.612315 -0.691941
0.191840 0.483627 0.191934 -0.886084 -0.253279 0.388208
0.267628 0.487897 0.125142 -0.032626 0.690175 0.722907
0.374013 0.864522 0.392406 0.803845 -0.585842 0.103065
0.173289 0.179923 0.302408 -0.872093 -0.020959 0.488891
0.382965 0.882011 0.404721 0.782200 -0.623024 -0.001780
0.266966 0.186235 0.339396 0.052136 0.932399 0.357651
0.127777 0.745368 0.340941 0.247751 -0.012111 0.968748
0.175391 0.551863 0.104316 -0.822122 -0.562796 0.085881
0.353354 0.155217 0.286289 0.179117 -0.980023 0.086436
0.304376 0.574016 0.115951 0.055654 -0.992250 -0.111095
0.222009 0.536312 0.070469 0.217404 -0.923729 -0.315372
0.220832 0.104187 0.180164 -0.429514 -0.136928 -0.892619
0.347876 0.609502 0.227073 -0.532113 0.551965 0.642020
0.298215 0.867112 0.184049 -0.318399 -0.373920 -0.871094
0.228243 0.049653 0.184821 -0.374310 -0.178408 -0.909979
0.300890 0.169277 0.211474 0.180746 -0.967535 -0.176652
0.287466 0.169355 0.297038 0.113535 -0.975250 0.189729
0.185023 0.030304 0.244727 -0.934161 -0.349226 -0.073374
0.303913 0.615005 0.268848 -0.535830 0.127773 0.834602
0.229225 0.888720 0.387086 0.667074 -0.478737 0.570808
0.294564 0.170896 0.157799 -0.329699 0.035329 0.943425
0.253152 0.025067 0.270864 0.000002 1.000000 -0.000749
0.311549 0.155256 0.334724 0.224046 -0.896057 0.383256
0.261414 0.467888 0.404995 0.400975 -0.664458 0.630646
0.229684 0.235899 0.243865 -0.267764 -0.430068 -0.862174
0.353099 0.829646 0.366115 -0.869063 0.481431 0.113817
0.290885 0.657614 0.170350 0.594582 -0.600869 -0.534256
0.341590 0.841781 0.389295 0.904276 -0.203422 0.375372
0.134710 0.872791 0.260214 -0.137160 -0.964600 0.225242
0.247410 0.150021 0.342272 -0.117783 -0.545609 0.829721
0.235257 0.125555 0.336865 -0.247210 -0.171221 0.953714
0.257176 0.169323 0.225468 0.003895 -0.992393 -0.123051
0.360204 0.188598 0.255534 -0.991985 -0.123691 -0.025824
0.164598 0.659570 0.077136 0.014771 -0.999590 0.024526
0.240078 0.633164 0.368775 -0.883859 -0.356117 0.303272
0.349814 0.182072 0.224905 0.956915 -0.028348 -0.288979
0.292084 0.781076 0.350639 0.877267 -0.330525 0.348074
0.184822 0.624859 0.274016 -0.534397 -0.729123 0.427550
0.226584 0.785633 0.192511 0.970325 0.125714 -0.206558
0.177300 0.560943 0.395677 -0.008304 -0.478470 0.878064
0.355275 0.830186 0.262873 0.605952 -0.482690 -0.632324
