0.456439 0.302632 0.225933 0.241579 0.932068 -0.269979
0.495767 0.241699 0.299383 0.817728 -0.557712 -0.142404
0.237700 0.047486 0.397041 -0.780225 -0.379703 0.497066
0.264787 0.313867 0.477578 -0.473703 0.000649 0.880684
0.261971 0.100613 0.227613 -0.623088 -0.136834 -0.770090
0.290132 0.302749 0.221824 -0.139867 0.953495 -0.266991
0.434258 0.323370 0.486293 -0.461422 0.002274 -0.887178
0.312377 0.313898 0.156147 0.179871 -0.132596 0.974713
0.404871 0.635662 0.239878 0.866123 -0.115358 0.486337
0.228772 0.248784 0.430879 -0.609385 -0.634062 0.476041
0.265965 0.551301 0.289653 -0.877169 -0.420839 -0.231234
0.031325 0.836694 0.510082 0.532476 0.685470 -0.496588
0.283801 0.414107 0.374390 0.925493 0.232704 0.298852
0.455432 0.094579 0.407181 0.815311 -0.144679 0.560656
0.333481 0.277663 0.181325 -0.026464 -0.876709 -0.480292
0.468615 0.783372 0.150005 0.106585 -0.190653 -0.975854
0.187673 0.635735 0.426128 0.904296 0.274856 0.326654
0.293837 0.318272 0.171930 -0.353058 -0.003333 -0.935595
0.235921 0.249305 0.214529 -0.404238 -0.776041 -0.484099
0.465606 0.580710 0.263807 -0.065588 -0.402279 0.913165
0.349585 0.689153 0.247601 -0.965755 -0.064891 -0.251211
0.378405 0.571426 0.361529 -0.847118 0.358276 0.392466
0.458259 0.582432 0.420167 -0.044280 -0.818030 0.573468
0.294970 0.498639 0.307787 0.830154 0.547008 -0.107831
0.226641 0.232133 0.424752 -0.721219 -0.446554 0.529559
0.369051 0.071385 0.459308 0.177213 -0.159132 0.971222
0.089178 0.578801 0.235029 0.601470 -0.006399 -0.798869
0.235312 0.505944 0.358115 -0.379848 -0.679078 -0.628147
0.259282 0.483098 0.214653 0.432501 0.674049 -0.598832
0.049930 0.810602 0.496201 0.449696 0.717475 -0.531980
0.190255 0.676646 0.139981 -0.090804 -0.654456 -0.750627
0.198536 0.282712 0.378910 -0.667043 -0.712761 0.216852
0.397091 0.561486 0.347266 -0.696759 0.282969 0.659133
0.464093 0.505098 0.284375 -0.142775 -0.091696 0.985498
0.423698 0.767559 0.327834 -0.835393 0.447320 0.319411
0.322882 0.452527 0.276149 0.543514 0.780089 0.309926
0.349888 0.319446 0.509873 0.023550 -0.161773 -0.986547
0.293066 0.509661 0.275260 -0.212010 -0.251465 -0.944361
0.379060 0.025087 0.336294 0.000105 1.000000 -0.000716
0.341543 0.279553 0.162910 -0.000245 -0.003788 -0.999993
0.242000 0.161222 0.234608 -0.725072 -0.136530 -0.675004
0.462928 0.878748 0.365320 0.096651 0.111664 0.989035
0.378872 0.302667 0.197237 0.060357 0.940134 -0.335418
0.232000 0.637487 0.274332 0.237536 0.436344 0.867860
0.268495 0.490031 0.221057 0.795995 0.570706 -0.201707
0.516618 0.791292 0.203026 0.457641 0.114274 -0.881763
0.351180 0.496373 0.323693 0.448626 0.439735 0.778054
0.451793 0.837071 0.326431 -0.893761 0.374156 0.247382
0.326572 0.872586 0.283453 0.113104 0.268812 -0.956529
0.482857 0.220336 0.269840 0.877132 -0.298886 -0.375909
0.354143 0.586190 0.296131 0.954659 -0.291956 0.058213
0.170673 0.306771 0.327236 0.987505 -0.154031 0.033279
0.259713 0.237577 0.457516 -0.504793 -0.511221 0.695584
0.219352 0.593606 0.399777 0.622120 -0.111914 0.774882
0.284798 0.896093 0.280675 -0.056414 0.002120 -0.998405
0.431255 0.308925 0.487948 -0.457599 0.002967 -0.889154
0.375545 0.277529 0.182808 0.095225 -0.879309 -0.466635
0.341428 0.520066 0.319934 0.511185 0.184636 0.839404
0.431834 0.488167 0.257943 0.496897 0.258002 0.828570
0.388251 0.273684 0.242261 0.103056 -0.970615 -0.217455
0.395798 0.209016 0.471111 0.324585 -0.187099 0.927167
0.341895 0.273869 0.453412 -0.023499 -0.952787 0.302730
0.214806 0.647224 0.236412 0.296875 0.672699 0.677747
0.475914 0.857164 0.300914 0.016322 0.025026 0.999554
0.475585 0.273689 0.337354 0.296553 -0.954619 0.027546
0.477238 0.141106 0.377081 0.936891 -0.136132 0.322031
0.389250 0.189298 0.470354 0.289364 -0.157711 0.944138
0.510808 0.268604 0.368055 0.972793 0.004544 0.231633
0.166895 0.689394 0.441274 0.618990 0.158249 0.769291
0.371491 0.613635 0.309402 -0.689545 -0.071301 -0.720724
0.347043 0.674488 0.257606 0.051473 -0.431124 -0.900823
0.062578 0.803673 0.498774 0.384795 0.714456 -0.584367
0.342330 0.518169 0.320070 0.327630 0.223585 0.917970
0.360446 0.106757 0.464974 0.106303 -0.135718 0.985028
0.455235 0.508839 0.241343 0.390986 0.259181 0.883151
0.443590 0.038704 0.409655 0.681015 -0.531177 0.504053
0.502890 0.324603 0.268929 0.911438 -0.126373 -0.391548
0.512764 0.249375 0.322526 0.445918 -0.894834 0.020714
0.302340 0.639544 0.225753 -0.672615 0.228299 0.703895
0.198939 0.787475 0.404954 -0.457819 -0.003434 0.889039
0.195573 0.784995 0.402674 -0.441155 -0.000045 0.897431
0.401157 0.273803 0.422079 0.116494 -0.965689 0.232107
0.457674 0.260023 0.204965 0.701231 0.091128 -0.707086
0.173206 0.249368 0.299575 -0.204556 -0.976840 -0.062774
0.210992 0.319930 0.218591 0.744104 -0.172659 0.645367
0.194825 0.293148 0.367357 -0.737016 0.646964 0.195561
0.505963 0.300582 0.383782 0.955975 -0.001674 0.293443
0.422266 0.771287 0.317036 -0.820821 0.438289 0.366272
0.430672 0.688860 0.195579 -0.060047 0.052218 -0.996829
0.389280 0.575661 0.309956 0.703217 -0.253456 -0.664263
0.286864 0.649205 0.212664 -0.149327 0.868712 0.472271
0.166036 0.738594 0.548199 -0.499983 -0.515912 0.695594
0.424226 0.764504 0.262380 0.477578 0.070297 0.875772
0.467745 0.617510 0.280902 0.573384 -0.246438 0.781344
0.511866 0.306197 0.265546 -0.931836 -0.063768 0.357233
0.232386 0.234591 0.230550 -0.637763 -0.479235 -0.602986
0.362644 0.824676 0.297489 -0.375939 -0.231237 0.897329
0.257105 0.484620 0.255514 -0.153352 0.504074 0.849937
0.127751 0.749795 0.452525 0.308891 0.811445 -0.496129
0.593972 0.549329 0.310615 0.136963 -0.295113 0.945595
0.274168 0.249072 0.177328 0.063283 0.990558 0.121615
0.295151 0.511970 0.308209 -0.294249 -0.535699 -0.791482
0.396976 0.806673 0.268843 0.435856 0.061413 0.897919
0.145049 0.678330 0.318546 0.372846 0.251898 -0.893047
0.281648 0.203527 0.198448 -0.423432 -0.180412 -0.887782
0.336183 0.062838 0.203522 -0.078535 -0.167753 -0.982696
0.193002 0.297056 0.301393 -0.533500 0.840236 -0.096856
0.357695 0.854071 0.346245 -0.143823 0.125899 -0.981562
0.238575 0.302812 0.257252 -0.256346 0.950647 -0.174804
0.210827 0.184653 0.277623 -0.918662 -0.151495 -0.364841
0.395426 0.151605 0.463104 0.347665 -0.135570 0.927766
0.275834 0.025037 0.259602 -0.170625 -0.968722 -0.180183
0.327676 0.273893 0.472939 -0.057018 -0.936155 0.346933
0.205799 0.608560 0.401844 0.523030 -0.146841 0.839570
0.345075 0.025127 0.388903 0.000050 1.000000 -0.000586
0.236598 0.075678 0.259999 -0.826202 -0.177472 -0.534691
0.432730 0.617586 0.413160 0.064141 0.792986 -0.605854
0.230903 0.187051 0.420324 -0.783168 -0.154517 0.602306
0.204461 0.680913 0.427505 -0.505040 0.125236 0.853962
0.303767 0.506246 0.273564 -0.293769 -0.266643 -0.917933
0.191619 0.298472 0.270205 -0.933893 -0.075656 -0.349456
0.324368 0.273875 0.445237 -0.062378 -0.957724 0.280846
0.407950 0.762078 0.351166 0.006772 0.249771 -0.968281
0.457724 0.285965 0.470276 -0.629564 -0.000539 -0.776948
0.341286 0.463237 0.333343 0.061640 0.087845 -0.994225
0.457926 0.817290 0.196732 -0.150063 -0.087851 -0.984766
0.400539 0.025132 0.398067 0.108160 -0.983242 0.146752
0.437988 0.178220 0.220699 0.632832 -0.142447 -0.761073
0.220191 0.249320 0.233902 -0.492017 -0.753965 -0.435265
0.366272 0.691878 0.298443 0.845416 0.198936 -0.495678
0.294677 0.892867 0.292959 -0.568917 -0.010990 -0.822321
0.337401 0.273765 0.305516 -0.019971 -0.997723 -0.064415
0.308748 0.302774 0.274474 -0.093023 0.985876 -0.139264
0.348610 0.501815 0.286150 -0.680681 0.064599 0.729726
0.270049 0.226984 0.461698 -0.486062 -0.382639 0.785704
0.366653 0.524278 0.262759 0.210885 0.471052 0.856526
0.331401 0.141764 0.469737 -0.100400 -0.135739 0.985644
0.383287 0.732217 0.283393 -0.453435 -0.191652 -0.870440
0.213095 0.125162 0.365342 -0.960591 -0.135999 0.242424
0.215171 0.149353 0.279817 -0.922353 -0.136244 -0.361528
0.328172 0.135393 0.468547 -0.123413 -0.135691 0.983035
0.385888 0.084690 0.456598 0.300192 -0.148495 0.942250
0.203755 0.828664 0.411995 -0.496091 -0.041796 0.867264
0.373435 0.715008 0.286826 0.790798 -0.044264 0.610474
0.345787 0.581152 0.290777 0.096844 0.097130 -0.990549
0.335863 0.600787 0.113204 0.225287 0.851190 0.474047
0.279861 0.667417 0.203663 -0.870486 -0.429899 0.239668
0.409609 0.183176 0.461504 0.432741 -0.148426 0.889216
0.360718 0.249305 0.506927 -0.197288 0.336619 -0.920741
0.217524 0.539291 0.121388 -0.184875 0.892523 0.411368
0.328441 0.025033 0.257226 -0.009273 -0.999604 -0.026585
0.238901 0.292107 0.459188 -0.650040 -0.003746 0.759890
0.429028 0.554321 0.250415 0.778243 -0.407550 -0.477745
0.370143 0.852319 0.221597 0.977627 0.083516 -0.193054
0.338826 0.280588 0.153482 0.078615 0.007556 0.996876
0.327429 0.569013 0.583211 -0.046949 -0.746483 0.663746
0.274038 0.273784 0.268015 -0.164018 -0.972666 -0.164376
0.361239 0.590498 0.296569 -0.877890 0.100874 0.468116
0.242483 0.492114 0.370075 0.146603 -0.384715 -0.911319
0.285128 0.025149 0.415763 -0.167914 -0.946860 0.274339
0.217829 0.057967 0.334327 -0.986389 -0.161384 0.031509
0.233951 0.567122 0.389249 -0.768641 -0.486202 0.415691
0.297114 0.094789 0.207666 -0.361634 -0.140879 -0.921615
0.498487 0.251061 0.423689 -0.876332 -0.000323 -0.481707
0.512155 0.315841 0.266480 -0.935973 -0.095415 0.338897
0.496403 0.222348 0.329608 0.946098 -0.323861 0.003639
0.502997 0.281954 0.322772 0.667698 -0.743954 -0.026667
0.260181 0.276345 0.205296 -0.222971 -0.900753 -0.372730
0.320007 0.302887 0.443197 -0.049980 0.958541 0.280537
0.483225 0.251338 0.444974 -0.795579 -0.000411 -0.605850
0.313892 0.025131 0.392296 -0.010977 -0.999681 0.022764
0.269393 0.308854 0.171607 0.419841 -0.069976 0.904896
0.345798 0.313796 0.334289 0.893021 -0.166258 0.418176
0.277959 0.314553 0.166912 0.355578 -0.184517 0.916252
0.383572 0.683432 0.357838 -0.105608 0.021310 0.994180
0.347530 0.435474 0.332126 -0.649551 0.036115 0.759460
0.495968 0.252665 0.254663 0.913907 0.115302 -0.389204
0.334796 0.025117 0.374614 0.000031 1.000000 -0.000637
0.451855 0.285695 0.462636 0.627914 0.003660 0.778274
0.303430 0.835160 0.291304 -0.443379 0.087331 -0.892070
0.305743 0.306526 0.504620 0.250880 -0.111375 -0.961590
0.437264 0.555769 0.243977 -0.688710 0.394109 0.608570
0.339955 0.187185 0.476764 -0.040579 -0.154237 0.987200
0.292932 0.302784 0.272455 -0.130164 0.981113 -0.143090
0.388145 0.876481 0.383448 0.126028 0.185650 -0.974500
0.214091 0.782123 0.413561 -0.524502 -0.003984 0.851400
0.337739 0.038076 0.456309 -0.025954 -0.367084 0.929826
0.381712 0.025034 0.262172 0.030575 -0.997662 -0.061116
0.484719 0.252113 0.443147 -0.803092 -0.000404 -0.595855
0.200013 0.545432 0.330862 -0.615516 -0.674894 -0.407011
0.542351 0.624098 0.324044 0.105032 0.378048 -0.919809
0.353444 0.328714 0.325493 -0.289346 0.193653 0.937431
0.378015 0.273743 0.315595 0.073003 -0.996694 -0.035648
0.362804 0.273828 0.417612 0.027425 -0.975565 0.217994
0.412350 0.219765 0.465643 0.408436 -0.289473 0.865670
0.279026 0.302909 0.435033 -0.146220 0.953597 0.263197
0.325789 0.520923 0.335042 0.698365 0.295381 -0.651948
0.372767 0.302706 0.243642 0.051817 0.973533 -0.222594
0.298405 0.771612 0.287217 -0.393108 0.153402 -0.906606
0.310684 0.695285 0.346065 -0.070681 -0.044287 -0.996515
0.461591 0.071968 0.273000 0.878655 -0.169257 -0.446450
0.371218 0.544117 0.253650 0.116444 0.435353 0.892698
0.434925 0.645091 0.189161 -0.584816 -0.584007 -0.562961
0.344615 0.295185 0.331062 0.841601 -0.069297 0.535636
0.263374 0.720873 0.175725 -0.590887 0.152643 0.792183
0.334720 0.426228 0.324172 0.874394 -0.106640 0.473354
0.173074 0.654115 0.316699 0.337460 0.287158 -0.896471
0.502637 0.256911 0.268161 0.944918 0.100918 -0.311362
0.241107 0.183056 0.431838 -0.714149 -0.148099 0.684147
0.432595 0.273721 0.339293 0.198129 -0.979765 0.028384
0.331826 0.302761 0.279031 -0.038702 0.990820 -0.129529
0.375798 0.025076 0.319972 0.000103 1.000000 -0.000730
0.307625 0.805417 0.288248 -0.446164 0.112449 -0.887859
0.381225 0.687767 0.366094 0.534321 -0.140812 -0.833470
0.296475 0.602554 0.255041 0.106812 -0.526267 -0.843584
0.341664 0.835407 0.341451 -0.042819 0.174231 -0.983773
0.333390 0.584756 0.273324 -0.207395 0.176865 0.962136
0.394099 0.928217 0.150612 -0.217995 0.466021 0.857498
0.204426 0.769420 0.148140 -0.033590 -0.249128 -0.967888
0.512994 0.700969 0.338250 0.287342 -0.343757 0.894017
0.282331 0.838898 0.142025 0.156941 -0.349571 -0.923672
0.237185 0.302860 0.322405 -0.255526 0.966725 -0.012223
0.188704 0.294738 0.383043 -0.949842 -0.046508 0.309253
0.279558 0.545688 0.320920 -0.670345 -0.282244 -0.686277
0.084528 0.590314 0.232316 0.471446 -0.229273 -0.851570
0.550838 0.696168 0.233876 0.265288 0.242961 0.933055
0.513137 0.277730 0.312581 0.996673 0.015787 -0.079963
0.199654 0.196310 0.321814 -0.983340 -0.168988 -0.066969
0.337868 0.437101 0.346842 0.377748 0.431449 -0.819243
0.522095 0.301179 0.356723 -0.986312 -0.064222 -0.151871
0.246308 0.302891 0.376173 -0.228319 0.966143 0.120160
0.476553 0.101727 0.361285 0.966964 -0.135847 0.215701
0.342847 0.465262 0.292282 -0.949227 0.314054 -0.018416
0.330100 0.733797 0.187616 -0.947638 -0.289178 0.135493
0.429479 0.025141 0.409056 0.398859 -0.840427 0.366871
0.398278 0.444215 0.274391 -0.718879 0.408815 0.562212
0.348514 0.302781 0.323789 0.003655 0.999803 -0.019532
0.500906 0.275845 0.302819 0.409272 -0.910101 -0.064907
0.218351 0.296809 0.209609 0.729892 -0.053584 0.681459
0.340191 0.025177 0.454802 0.003284 -0.420232 0.907411
0.336972 0.276259 0.163377 -0.029304 -0.012779 -0.999489
0.338718 0.273761 0.301222 -0.016456 -0.997043 -0.075063
0.391240 0.273728 0.307376 0.104752 -0.992972 -0.055082
0.329436 0.624333 0.419309 -0.507384 -0.172964 -0.844183
0.462671 0.273657 0.279345 0.272532 -0.954923 -0.117677
0.454761 0.025121 0.381866 0.641190 -0.713585 0.282262
0.346547 0.229362 0.483016 -0.014681 -0.410612 0.911692
0.476545 0.319059 0.453099 -0.710865 -0.000482 -0.703328
0.395395 0.788374 0.172976 0.848643 -0.269961 -0.454891
0.471451 0.273700 0.348619 0.285798 -0.956729 0.054677
0.472188 0.657852 0.214988 0.612586 -0.249701 0.749925
0.293270 0.832186 0.279891 -0.012933 0.073528 -0.997209
0.273580 0.025040 0.263257 -0.158704 -0.974992 -0.155578
0.303462 0.629823 0.237634 0.558246 0.751648 0.351265
0.156534 0.495553 0.163367 0.085920 -0.850261 -0.519302
0.449952 0.220736 0.223055 0.670271 -0.305062 -0.676516
0.439382 0.092562 0.426001 0.697172 -0.148092 0.701441
0.190694 0.249130 0.254398 -0.359734 0.901682 -0.239918
0.209048 0.615927 0.415681 -0.703003 0.012384 -0.711079
0.421761 0.714918 0.320467 0.039466 0.189157 0.981153
0.228299 0.584989 0.422030 -0.951416 0.229676 -0.205079
0.182007 0.269389 0.310103 -0.984170 0.089487 -0.152976
0.213552 0.295649 0.252298 -0.520552 0.792231 -0.318427
0.298534 0.488929 0.313679 -0.571548 -0.027077 -0.820122
0.210122 0.692902 0.427642 -0.525998 0.107253 0.843696
0.484399 0.302201 0.219216 -0.778939 -0.049865 0.625114
0.474747 0.273705 0.359695 0.291671 -0.952991 0.082072
0.297769 0.772525 0.277721 0.014904 0.132534 -0.991066
0.427444 0.039497 0.426546 0.576497 -0.524402 0.626621
0.421303 0.232118 0.462685 0.419365 -0.445729 0.790859
0.264671 0.283902 0.459787 -0.408804 -0.619986 0.669698
0.193475 0.258830 0.397987 -0.917515 0.172940 0.358132
0.501541 0.264962 0.265015 0.937131 0.073819 -0.341080
0.282307 0.833245 0.144171 0.166800 -0.338482 -0.926071
0.470339 0.043590 0.313054 0.959048 -0.236028 -0.156582
0.270551 0.656167 0.464059 0.666777 0.640049 -0.381768
0.241517 0.199165 0.227074 -0.694838 -0.173208 -0.697996
0.211540 0.215963 0.396666 -0.878006 -0.241738 0.413121
0.469185 0.030977 0.344380 0.946315 -0.320061 0.045265
0.477920 0.093269 0.321011 0.987079 -0.139687 -0.078498
0.238011 0.278067 0.440113 -0.337639 -0.876294 0.343670
0.312792 0.343403 0.340667 0.490927 -0.065824 0.868711
0.446274 0.567297 0.243429 -0.623152 0.431996 0.651967
0.282568 0.620723 0.242426 0.554274 0.492448 0.671026
0.398618 0.795252 0.270025 0.903470 0.029994 -0.427600
0.208853 0.182658 0.377960 -0.937438 -0.148213 0.315028
0.372879 0.113301 0.198351 0.192385 -0.136506 -0.971779
0.437754 0.288329 0.178335 -0.499337 -0.004068 0.866398
0.452613 0.314560 0.200711 0.616956 -0.094068 -0.781355
0.342534 0.493349 0.286079 0.361154 0.067129 0.930087
0.418377 0.659736 0.300007 -0.409743 0.444238 -0.796721
0.269000 0.835462 0.139440 0.222761 -0.320671 -0.920624
0.397790 0.305969 0.491794 0.320971 -0.002765 0.947085
0.332276 0.306039 0.498877 -0.083401 -0.007439 0.996488
0.379860 0.580649 0.362845 -0.301075 -0.419588 0.856329
0.275642 0.484810 0.459071 0.814453 0.478566 -0.328087
0.336582 0.419915 0.305634 -0.439055 -0.609388 -0.660210
0.246083 0.288384 0.216207 -0.631046 0.019275 -0.775506
0.470486 0.273626 0.244119 0.290705 -0.934984 -0.203214
0.274648 0.522375 0.491674 0.602525 0.443083 -0.663808
0.276374 0.273829 0.332785 -0.165205 -0.986256 -0.002576
0.202688 0.851316 0.415345 -0.564145 -0.085475 0.821240
0.267750 0.545574 0.292657 -0.488273 -0.394814 -0.778275
0.280502 0.325022 0.167303 0.322817 -0.377743 0.867813
0.424600 0.773183 0.318632 -0.825584 0.436018 0.358190
0.421236 0.316945 0.482435 0.471937 0.000619 0.881632
0.188809 0.249226 0.387938 -0.897848 0.352537 0.263794
0.261836 0.135722 0.441406 -0.600656 -0.135661 0.787914
0.404994 0.620674 0.305217 -0.690590 -0.215806 -0.690300
0.261109 0.273751 0.209427 -0.185555 -0.933330 -0.307350
0.375084 0.273733 0.298227 0.067672 -0.994550 -0.079314
0.224382 0.035157 0.360583 -0.902410 -0.366219 0.227025
0.369775 0.872476 0.219546 0.974683 0.048850 -0.218188
0.450851 0.298490 0.199256 0.625559 -0.039536 -0.779175
0.396380 0.323773 0.170460 0.260699 -0.125548 -0.957222
0.395079 0.660883 0.342265 0.187336 0.511038 -0.838895
0.462318 0.249087 0.206464 0.801411 0.197662 -0.564509
0.119469 0.629557 0.267701 -0.163161 -0.430028 -0.887950
0.261001 0.537414 0.288767 0.572863 0.808581 -0.134253
0.447186 0.273730 0.367055 0.228678 -0.968488 0.098678
0.195347 0.235193 0.350930 -0.872147 -0.483162 0.076900
0.346663 0.068442 0.201860 0.000728 -0.163021 -0.986622
0.499306 0.273667 0.331575 0.349306 -0.936879 0.015576
0.378258 0.745896 0.411826 -0.236635 0.534920 -0.811089
0.338610 0.479381 0.329961 0.704109 0.031615 0.709388
0.357337 0.749131 0.419256 -0.138844 0.531839 -0.835386
0.304656 0.094558 0.205357 -0.306079 -0.141406 -0.941446
0.336762 0.595034 0.130400 0.243596 0.868519 0.431666
0.183726 0.250719 0.263293 0.940067 0.006513 0.340927
0.355246 0.555571 0.320496 0.730770 -0.124407 -0.671192
0.417773 0.025054 0.290059 0.037818 -0.998488 -0.039906
0.431861 0.155373 0.443216 0.604047 -0.135722 0.785307
0.357605 0.498369 0.291751 0.128702 -0.112936 0.985232
0.359950 0.627493 0.325220 -0.658815 0.029584 -0.751723
0.277494 0.025032 0.251322 -0.230778 -0.928069 -0.292283
0.368188 0.273708 0.255581 0.055293 -0.980954 -0.186207
0.122156 0.568482 0.260197 0.421712 -0.187389 -0.887155
0.255528 0.302887 0.379957 -0.206853 0.969831 0.128993
0.580636 0.725099 0.216236 0.224211 0.213701 0.950821
0.474221 0.319696 0.455940 -0.695772 -0.000493 -0.718263
0.385802 0.302815 0.408648 0.097860 0.977177 0.188543
0.373821 0.849681 0.243516 0.950944 0.049964 -0.305301
0.291155 0.273743 0.227860 -0.119505 -0.957593 -0.262172
0.304896 0.249274 0.173695 -0.090380 -0.824723 -0.558269
0.182940 0.258745 0.396941 0.920588 0.000521 -0.390535
0.320802 0.273892 0.465297 -0.071875 -0.941898 0.328120
0.173859 0.278480 0.367397 0.978625 0.006800 -0.205538
0.474729 0.884938 0.121961 0.132611 -0.343535 -0.929730
0.437597 0.237209 0.452835 0.496797 -0.507025 0.704357
0.487686 0.172435 0.310704 0.980486 -0.136393 -0.141580
0.286223 0.419487 0.378536 0.672516 -0.380729 0.634640
0.354933 0.492147 0.335929 -0.524217 0.381388 -0.761406
0.175618 0.249419 0.368911 -0.252247 -0.967277 0.027319
0.236740 0.025064 0.293487 -0.526137 -0.827683 -0.195243
0.367833 0.530794 0.339584 0.793178 -0.560546 0.238024
0.356946 0.273663 0.182299 0.035846 -0.930683 -0.364066
0.224768 0.166405 0.255917 -0.841344 -0.136457 -0.522992
0.304790 0.272398 0.494226 -0.270562 0.005890 0.962684
0.262914 0.025130 0.389565 -0.159443 -0.972870 0.167638
0.344727 0.356094 0.321753 0.429405 0.002449 0.903109
0.487585 0.159451 0.335630 0.990301 -0.136061 0.028147
0.311506 0.239757 0.182481 -0.159480 -0.537855 -0.827815
0.290229 0.464289 0.426083 -0.077219 -0.316249 0.945528
0.248960 0.266231 0.182826 0.576892 0.005799 0.816800
0.347153 0.376963 0.331621 -0.265544 0.063862 -0.961981
0.368749 0.532390 0.297973 0.487188 -0.319792 0.812638
0.241999 0.052606 0.405197 -0.761492 -0.330154 0.557788
0.349515 0.569721 0.296324 0.729580 -0.068115 -0.680495
0.436194 0.763488 0.302578 0.044608 0.108741 0.993069
0.533971 0.714966 0.336562 0.162346 -0.250985 0.954280
0.181925 0.256563 0.393646 0.927096 0.001213 -0.374821
0.458107 0.302676 0.288733 0.254061 0.960121 -0.116707
0.234363 0.288525 0.455412 -0.679069 -0.005093 0.734057
0.246118 0.128648 0.236588 -0.718455 -0.136426 -0.682064
0.522443 0.320661 0.309463 -0.986993 -0.132258 0.091389
0.323967 0.273703 0.205018 -0.040557 -0.948236 -0.314967
0.350334 0.495875 0.337414 0.412280 0.023217 -0.910761
0.352941 0.475919 0.303470 -0.033448 -0.006458 -0.999420
0.345888 0.349798 0.318188 0.857310 0.170194 0.485853
0.358460 0.573729 0.320195 0.482448 -0.074503 -0.872751
0.190780 0.314995 0.413198 0.902907 -0.000338 -0.429835
0.478674 0.678514 0.410364 0.288601 -0.228306 0.929831
0.247690 0.509085 0.391444 0.886585 0.315407 -0.338357
0.403914 0.694226 0.266531 -0.400411 -0.021202 -0.916090
0.230296 0.302917 0.397330 -0.261939 0.949366 0.173471
0.439097 0.268437 0.190075 0.586178 0.062706 -0.807752
0.490717 0.236445 0.377264 0.815456 -0.501271 0.289412
0.498161 0.239940 0.339572 0.837606 -0.540364 0.080138
0.391482 0.325017 0.165709 0.258267 -0.336851 -0.905444
0.364036 0.599329 0.319319 -0.735824 0.045829 -0.675621
0.150918 0.669332 0.265892 -0.400468 0.335571 0.852654
0.256868 0.315243 0.189454 -0.568771 0.005856 -0.822475
0.269372 0.557336 0.509599 0.994712 0.102374 0.008256
0.273429 0.214633 0.461631 -0.479743 -0.224655 0.848161
0.582192 0.702627 0.220581 0.177394 0.271492 0.945951
0.353484 0.302851 0.426675 0.024760 0.971377 0.236248
0.266943 0.035921 0.234940 -0.544898 -0.567859 -0.616946
0.438357 0.684671 0.407194 -0.278129 0.571564 -0.771984
0.232954 0.262216 0.454258 -0.706485 -0.005538 0.707706
0.307473 0.068318 0.454796 -0.284298 -0.183419 0.941027
0.349808 0.531260 0.324643 -0.674950 -0.143478 -0.723780
0.424657 0.511335 0.258431 -0.845137 0.415053 0.336859
0.290797 0.765006 0.275201 0.051742 0.148700 -0.987528
0.288889 0.506998 0.322963 -0.520286 -0.070543 -0.851073
0.328073 0.529210 0.396683 -0.950798 -0.305097 0.053834
0.210771 0.118727 0.346403 -0.984949 -0.136263 0.106334
0.184409 0.315054 0.401357 0.932935 -0.000291 -0.360046
0.269183 0.302843 0.331423 -0.180432 0.983563 0.006931
0.513402 0.318808 0.315204 0.983661 -0.133983 -0.120249
0.306588 0.051497 0.452142 -0.270093 -0.332572 0.903574
0.244859 0.161460 0.431793 -0.702146 -0.135239 0.699072
0.353752 0.758087 0.428667 -0.118839 0.517015 -0.847687
0.470388 0.105615 0.382910 0.916843 -0.135576 0.375523
0.395358 0.693775 0.332843 -0.066486 0.377417 -0.923654
0.285870 0.254352 0.174470 -0.336593 -0.001498 -0.941649
0.463929 0.500863 0.284642 -0.467498 0.359861 0.807432
0.390169 0.760421 0.275743 0.900050 -0.322747 0.292822
0.204750 0.523378 0.236400 -0.690398 -0.627567 0.359875
0.358834 0.655166 0.321032 0.483057 -0.143822 0.863696
0.377824 0.269189 0.497357 0.160400 -0.030288 0.986587
0.474062 0.059659 0.334814 0.984092 -0.177087 0.014231
0.385835 0.538369 0.254993 -0.502050 -0.114704 -0.857198
0.523350 0.276257 0.318582 -0.992277 0.085913 0.089474
0.429624 0.536516 0.261803 -0.047134 0.032293 -0.998366
0.345214 0.433406 0.293944 -0.836677 -0.034200 0.546627
0.200931 0.625751 0.220542 -0.050340 -0.805223 -0.590832
0.449380 0.834854 0.377194 0.096189 0.183256 0.978348
0.352801 0.273847 0.433522 0.003075 -0.966684 0.255955
0.428540 0.267052 0.478470 0.470122 0.000620 0.882601
0.441100 0.549198 0.255283 -0.759271 0.458212 0.462115
0.445653 0.817541 0.254983 0.522229 -0.020359 0.852562
0.347165 0.295007 0.332422 -0.994067 0.042992 -0.099912
0.355321 0.562606 0.287223 -0.940958 0.095266 0.324844
0.263583 0.248474 0.201275 -0.386016 -0.632218 -0.671783
0.384745 0.302739 0.301067 0.085718 0.993120 -0.079782
0.344492 0.610826 0.314855 0.751482 -0.077957 0.655132
0.501614 0.261998 0.244908 -0.846270 0.083579 0.526158
0.513019 0.285945 0.351342 0.988787 0.082447 0.124508
0.548707 0.632504 0.326098 0.153981 0.301539 -0.940938
0.490564 0.694384 0.215336 -0.573485 0.190045 -0.796867
0.238026 0.044619 0.396828 -0.765037 -0.418748 0.489254
0.208208 0.189855 0.283675 -0.932569 -0.159688 -0.323752
0.305934 0.362908 0.357040 0.096159 0.422417 -0.901286
0.341256 0.242447 0.178382 0.005429 -0.569530 -0.821953
0.436113 0.637676 0.190398 -0.928332 0.157568 0.336708
0.416403 0.249497 0.489447 0.089652 -0.957632 0.273685
0.343332 0.266903 0.153034 0.071886 0.060760 0.995560
0.333804 0.302695 0.191332 -0.041887 0.937978 -0.344154
0.324767 0.582524 0.272814 0.978276 0.204224 -0.035607
0.297792 0.302869 0.396733 -0.107305 0.980031 0.167408
0.394872 0.751815 0.366519 -0.451117 -0.069553 0.889750
0.307910 0.262875 0.167560 -0.210214 -0.006614 -0.977633
0.393002 0.829384 0.448097 -0.558515 0.369749 -0.742527
0.616152 0.783025 0.208193 0.403727 -0.094601 0.909975
0.209651 0.300077 0.235422 -0.831910 -0.064858 -0.551107
0.269512 0.298601 0.462304 -0.224013 0.871394 0.436451
0.299962 0.500174 0.275194 -0.245741 -0.234507 -0.940541
0.341909 0.847087 0.345463 -0.054754 0.151751 -0.986901
0.268820 0.540293 0.328894 -0.333692 -0.101883 -0.937160
0.460791 0.144247 0.251668 0.813539 -0.136297 -0.565311
0.225103 0.089741 0.277174 -0.902930 -0.152363 -0.401874
0.317591 0.590231 0.423806 0.993499 -0.108394 0.034807
0.266313 0.302858 0.348666 -0.184979 0.981488 0.049645
0.264058 0.309641 0.185521 -0.522616 0.004019 -0.852558
0.353060 0.513634 0.222768 0.288645 -0.558814 -0.777439
0.433294 0.568753 0.239009 0.819511 0.230633 0.524605
0.521006 0.273014 0.367482 -0.983283 -0.003345 -0.182055
0.235837 0.310531 0.469153 0.654426 -0.004198 -0.756115
0.275885 0.426617 0.378541 0.872513 0.425609 -0.239956
0.279915 0.272574 0.166207 0.388317 0.104288 0.915606
0.491443 0.193856 0.343872 0.982497 -0.165233 0.086005
0.514726 0.323586 0.334239 0.987341 -0.157310 -0.020291
0.340777 0.522124 0.291305 0.978843 -0.054657 -0.197180
0.173552 0.320600 0.364288 0.988945 0.014383 -0.147582
0.368394 0.850184 0.189525 -0.172900 0.551062 0.816356
0.355753 0.302745 0.281775 0.016174 0.991976 -0.125387
0.419478 0.302685 0.261429 0.162728 0.969736 -0.182021
0.255555 0.028644 0.416533 -0.528107 -0.657189 0.537778
0.463886 0.624240 0.337818 0.234736 -0.078433 0.968890
0.400500 0.748177 0.346556 0.140449 0.224729 -0.964246
0.475628 0.279719 0.223679 0.789051 0.024349 -0.613845
0.281327 0.428379 0.386774 0.292442 0.312477 -0.903790
0.351202 0.089025 0.199495 0.037385 -0.149670 -0.988029
0.178214 0.665206 0.451740 0.219887 -0.788981 0.573724
0.382794 0.145550 0.466168 0.259181 -0.135697 0.956249
0.179588 0.603590 0.317378 -0.577032 0.394921 0.714893
0.503383 0.298847 0.326331 0.463563 0.885540 -0.030468
0.222317 0.062101 0.296798 -0.948333 -0.187361 -0.256046
0.455550 0.208262 0.231607 0.729405 -0.187357 -0.657925
0.273948 0.150695 0.210827 -0.506971 -0.136855 -0.851030
0.321464 0.564034 0.576125 -0.018909 -0.742115 0.670006
0.295588 0.249280 0.181506 -0.172914 -0.733896 -0.656885
0.283733 0.842700 0.140766 0.144029 -0.358874 -0.922207
0.518016 0.267035 0.285566 -0.952811 0.060223 0.297531
0.489041 0.682099 0.216153 -0.843101 0.402095 -0.357072
0.317029 0.780187 0.282491 -0.473897 0.131302 -0.870736
0.311494 0.249498 0.485764 -0.180936 -0.725832 0.663649
0.448319 0.672583 0.255512 0.465235 0.097321 0.879821
0.361460 0.548320 0.313934 -0.622264 0.341219 0.704526
0.321384 0.736736 0.171262 0.086708 0.908425 0.408957
0.302465 0.302725 0.201327 -0.112382 0.941739 -0.317014
0.353467 0.681159 0.334660 0.938903 0.218553 -0.265888
0.311109 0.249059 0.162015 0.217601 0.728270 0.649825
0.428533 0.297051 0.173278 -0.456938 -0.033128 0.888881
0.454044 0.799235 0.199672 -0.137374 -0.073108 -0.987818
0.388119 0.718650 0.295251 -0.744146 0.344016 0.572625
0.367309 0.626591 0.308598 0.200693 -0.171838 -0.964466
0.181256 0.652562 0.441237 0.941893 0.220519 0.253396
0.241249 0.760011 0.095828 -0.098690 0.833958 0.542931
0.391973 0.242296 0.185771 0.276685 -0.570708 -0.773135
0.181020 0.303954 0.342754 -0.993366 -0.075805 0.086470
0.313895 0.302749 0.245104 -0.083335 0.973590 -0.212549
0.447412 0.055140 0.254526 0.753093 -0.295964 -0.587585
0.361736 0.610671 0.323160 -0.311345 0.158224 -0.937032
0.409463 0.684983 0.326147 -0.166118 0.403832 -0.899625
0.535592 0.661129 0.371368 0.418199 -0.625068 0.659090
0.365045 0.684672 0.298579 0.990102 -0.034153 -0.136130
0.261765 0.273863 0.367380 -0.202581 -0.975776 0.082594
0.271372 0.302881 0.386651 -0.169671 0.974847 0.144517
0.339633 0.059629 0.203614 -0.055434 -0.183949 -0.981371
0.454280 0.025127 0.389690 0.690662 -0.643990 0.329033
0.251777 0.293497 0.481466 0.548692 -0.037063 -0.835203
0.267139 0.249664 0.489913 0.415317 0.157385 -0.895959
0.498561 0.288927 0.294183 0.957786 0.138460 -0.251943
0.250373 0.508011 0.384419 0.402018 0.187894 0.896146
0.346598 0.646394 0.273614 -0.340851 0.191643 -0.920377
0.512255 0.251849 0.303788 0.987667 0.125607 -0.093469
0.422072 0.216853 0.459919 0.484642 -0.252483 0.837481
0.356409 0.669394 0.354924 0.936345 0.182946 0.299646
0.478992 0.140770 0.371280 0.950188 -0.136227 0.280330
0.556627 0.695248 0.232175 0.245554 0.254122 0.935481
0.330401 0.311074 0.508393 0.121793 -0.123478 -0.984845
0.320034 0.231578 0.480783 -0.173391 -0.439929 0.881135
0.433022 0.637167 0.188516 -0.105690 0.633480 0.766507
0.316878 0.683586 0.347386 -0.237899 -0.050608 -0.969971
0.478789 0.098069 0.339859 0.988589 -0.138262 0.059802
0.488717 0.259224 0.241178 0.872232 0.093223 -0.480125
0.466616 0.138225 0.263351 0.862758 -0.136718 -0.486783
0.340694 0.234576 0.483273 -0.056807 -0.475477 0.877892
0.362035 0.817207 0.222187 -0.198139 0.614948 0.763269
0.586452 0.801790 0.177666 -0.027208 0.452294 0.891454
0.328740 0.296703 0.164199 -0.113936 -0.089444 -0.989454
0.455240 0.522223 0.238494 0.482182 0.152317 0.862728
0.349903 0.025089 0.336041 0.000050 1.000000 -0.000708
0.515369 0.654702 0.263591 0.481909 -0.289418 0.827043
0.468004 0.249461 0.441245 0.358851 -0.848986 0.387877
0.393824 0.295933 0.493044 0.286884 -0.003664 0.957958
0.318151 0.534483 0.403412 0.965454 -0.038519 0.257709
0.190073 0.572569 0.339067 -0.853801 -0.443699 -0.272314
0.387572 0.749475 0.272675 0.801246 -0.568384 -0.186935
0.279655 0.161793 0.456881 -0.461587 -0.135762 0.876645
0.460034 0.282725 0.226833 0.520874 -0.689491 -0.503281
0.348599 0.638823 0.243746 0.751358 -0.127128 -0.647533
0.318668 0.632053 0.545584 -0.725543 -0.510473 0.461525
0.404613 0.273683 0.257571 0.140105 -0.973944 -0.178336
0.251069 0.748620 0.130346 -0.128910 0.863889 0.486906
0.272534 0.486731 0.223586 0.507749 0.818251 0.269548
0.387551 0.695630 0.308667 -0.810889 0.374875 0.449363
0.477969 0.094459 0.319892 0.986488 -0.139124 -0.086520
0.336426 0.495084 0.271718 0.547584 0.566803 0.615537
0.394762 0.440782 0.273857 -0.326631 0.355975 0.875553
0.390101 0.745992 0.371732 0.691240 0.005250 -0.722606
0.304191 0.314635 0.168689 -0.287148 -0.005732 -0.957869
0.522069 0.706760 0.336600 0.204422 -0.269021 0.941190
0.468865 0.600186 0.278560 0.534915 -0.151316 0.831246
0.479132 0.160032 0.379634 0.932605 -0.136055 0.334272
0.232897 0.590401 0.587372 0.004402 0.849839 -0.527023
0.390620 0.757941 0.280145 0.517892 -0.496351 -0.696724
0.392214 0.657419 0.331799 -0.536170 -0.276567 0.797516
0.257991 0.025037 0.256404 -0.429258 -0.820493 -0.377528
0.243347 0.025075 0.312429 -0.097938 -0.994701 -0.031287
0.399333 0.685948 0.208409 0.886381 -0.122426 -0.446475
0.084563 0.589681 0.232485 0.472941 -0.225488 -0.851752
0.323562 0.457650 0.325819 0.289308 -0.110430 -0.950845
0.348643 0.421608 0.305433 -0.856376 -0.494844 -0.147478
0.468124 0.806213 0.246031 0.294280 0.090507 0.951424
0.290706 0.325025 0.172044 0.087270 -0.968147 0.234683
0.235636 0.196598 0.234750 -0.738929 -0.170025 -0.651978
0.210240 0.524961 0.234807 0.033372 0.351843 0.935464
0.290813 0.076505 0.213188 -0.417471 -0.167801 -0.893062
0.393391 0.734367 0.369637 -0.758925 0.193642 -0.621720
0.346378 0.371754 0.328978 0.358162 0.110295 0.927122
0.352323 0.389768 0.311640 -0.075889 0.305499 0.949164
0.617136 0.736960 0.211260 0.048769 0.295134 0.954210
0.147789 0.778292 0.561088 -0.374229 -0.597026 0.709586
0.319294 0.302782 0.295522 -0.066480 0.993946 -0.087477
0.390506 0.273762 0.353725 0.098423 -0.993307 0.060450
0.390239 0.545380 0.349841 -0.249467 0.734145 -0.631504
0.355920 0.805898 0.329780 -0.090750 0.219532 -0.971375
0.373774 0.025161 0.435776 0.100472 -0.959580 0.262891
0.283023 0.249281 0.180523 -0.185985 -0.824510 -0.534408
0.262106 0.105574 0.436344 -0.617558 -0.135728 0.774726
0.616186 0.772111 0.203597 0.234199 0.129386 0.963540
0.220055 0.204462 0.253740 -0.835287 -0.181694 -0.518926
0.423152 0.273645 0.222470 0.184594 -0.947294 -0.261837
0.351181 0.042733 0.205840 0.011392 -0.320765 -0.947090
0.372045 0.539753 0.281873 0.237152 -0.155847 0.958890
0.486788 0.249318 0.242021 0.410751 -0.887118 -0.210488
0.392355 0.826974 0.131448 0.903509 -0.267034 -0.335207
0.181313 0.277377 0.317040 -0.993655 0.049295 -0.101096
0.437780 0.215068 0.448801 0.592954 -0.229943 0.771707
0.313484 0.451400 0.291945 -0.016080 -0.494104 -0.869254
0.345285 0.446362 0.344937 -0.980921 -0.181418 0.069873
0.469532 0.047573 0.359146 0.938019 -0.298261 0.176523
0.358088 0.588974 0.293189 -0.032495 -0.325013 0.945151
0.345394 0.273774 0.325293 -0.003475 -0.999890 -0.014415
0.303518 0.540190 0.557143 0.059381 -0.701394 0.710296
0.367690 0.574009 0.304509 -0.277094 0.585751 0.761653
0.254455 0.212455 0.214049 -0.598100 -0.199857 -0.776101
0.322858 0.472251 0.313602 -0.790577 -0.231894 0.566757
0.188046 0.653643 0.438621 -0.482051 -0.806745 0.341744
0.385853 0.582466 0.368486 -0.839743 0.473284 0.266147
0.294141 0.325259 0.496114 0.210097 -0.676376 -0.705957
0.182768 0.262496 0.360293 -0.977621 0.155459 0.141741
0.262086 0.302837 0.316526 -0.198863 0.979593 -0.029171
0.491486 0.215650 0.297543 0.949097 -0.238526 -0.205718
0.238102 0.531944 0.149191 -0.273440 0.887856 0.370057
0.376943 0.150878 0.194166 0.214469 -0.136710 -0.967116
0.472540 0.321412 0.442816 0.771951 -0.063287 0.632523
0.320780 0.436286 0.290263 -0.282781 0.252712 0.925295
0.220075 0.249270 0.451262 -0.268719 0.949169 0.163915
0.334787 0.591715 0.273181 -0.865267 -0.381014 -0.325793
0.314667 0.442351 0.290468 0.186703 -0.415545 -0.890205
0.376613 0.713233 0.288403 -0.403081 0.298073 0.865262
0.489066 0.302692 0.341062 0.329658 0.944052 0.009528
0.383240 0.766477 0.157550 0.923545 -0.195711 -0.329792
0.396414 0.774028 0.375823 0.923403 -0.156408 -0.350518
0.384856 0.025154 0.427010 0.100939 -0.971406 0.214901
0.275965 0.256692 0.483742 -0.458773 0.000653 0.888553
0.439446 0.181265 0.221363 0.641188 -0.147026 -0.753167
0.521302 0.323774 0.364643 -0.975384 -0.018895 -0.219704
0.212236 0.271819 0.217104 0.781356 0.102112 0.615676
0.390559 0.025134 0.400314 0.141276 -0.959483 0.243788
0.313338 0.704267 0.252285 0.002103 0.232729 -0.972539
0.478120 0.320838 0.211524 -0.755596 -0.111211 0.645528
0.362318 0.074891 0.460463 0.126132 -0.156518 0.979588
0.319314 0.302765 0.272813 -0.068439 0.987186 -0.144152
0.506751 0.317666 0.254414 -0.908664 -0.100633 0.405219
0.388426 0.701731 0.370501 -0.076393 0.241833 -0.967306
0.286647 0.025019 0.233722 -0.308058 -0.837631 -0.451082
0.333468 0.185339 0.186997 -0.081120 -0.153319 -0.984842
0.570708 0.637692 0.329454 -0.014360 0.410686 -0.911664
0.465219 0.302639 0.245032 0.264169 0.937996 -0.224450
0.321445 0.632389 0.077471 0.152950 0.794462 0.587738
0.439000 0.025132 0.397543 0.443267 -0.838544 0.316793
0.398553 0.273691 0.262325 0.125640 -0.977906 -0.167075
0.473740 0.273694 0.343273 0.291666 -0.955605 0.041828
0.345099 0.709511 0.239619 -0.262840 -0.012677 0.964756
0.429343 0.770031 0.335932 -0.850047 0.445347 0.281223
0.527459 0.736681 0.408063 0.157693 -0.265645 0.951087
0.369283 0.606134 0.355384 -0.489883 -0.005533 0.871770
0.340211 0.390933 0.305282 0.463630 0.364130 0.807748
0.395970 0.632708 0.286194 -0.327464 0.506500 -0.797637
0.411879 0.111383 0.213733 0.483710 -0.137013 -0.864437
0.474520 0.318939 0.440395 0.781287 -0.074113 0.619757
0.559243 0.696035 0.230808 0.238541 0.255604 0.936891
0.505734 0.639908 0.263792 0.474908 -0.239074 0.846939
0.482776 0.121949 0.332621 0.990704 -0.135850 0.007099
0.497651 0.272274 0.404980 0.891325 -0.088233 0.444697
0.514696 0.255855 0.328200 0.987743 0.152733 0.032204
0.371387 0.621676 0.310838 -0.694875 0.308370 -0.649658
0.320965 0.328692 0.336906 0.297484 -0.140399 0.944347
0.312873 0.025067 0.304418 -0.000026 1.000000 -0.000745
0.431506 0.794119 0.395183 0.124612 0.254031 0.959135
0.204131 0.614214 0.417656 0.036401 0.500987 -0.864689
0.388343 0.105522 0.458782 0.312029 -0.135733 0.940327
0.481934 0.232725 0.264602 0.811226 -0.455328 -0.366864
0.370552 0.302840 0.428410 0.063802 0.969043 0.238505
0.239833 0.822137 0.141059 0.094861 0.396861 0.912964
0.337446 0.643113 0.263493 -0.003963 -0.508788 -0.860883
0.432869 0.597323 0.220878 0.819112 -0.280550 -0.500346
0.520836 0.777622 0.432159 0.476806 -0.524861 0.705108
0.446352 0.484309 0.285667 -0.639948 0.748442 -0.174069
0.242634 0.255903 0.187934 0.623139 0.008692 0.782063
0.326552 0.871168 0.283235 0.148848 0.285152 -0.946854
0.184273 0.314625 0.401104 0.933355 -0.000290 -0.358953
0.342943 0.457561 0.329218 0.623074 0.162499 0.765097
0.350652 0.302797 0.347356 0.010700 0.999206 0.038366
0.251723 0.025093 0.337565 -0.046223 -0.998843 0.013282
0.228501 0.559620 0.365078 0.392979 0.766428 0.508089
0.455967 0.512959 0.239869 0.415297 0.234710 0.878885
0.315731 0.274881 0.506927 0.165433 0.078425 -0.983098
0.267281 0.275011 0.478973 -0.494385 0.000642 0.869243
0.335981 0.594084 0.275997 -0.983918 -0.176968 0.024262
0.355489 0.865124 0.350293 -0.142188 0.106372 -0.984107
0.465539 0.184170 0.413985 0.813870 -0.149813 0.561401
0.298705 0.802616 0.291549 -0.406689 0.120411 -0.905596
0.363433 0.823812 0.335804 -0.961239 0.215072 0.172523
0.244670 0.273809 0.274117 -0.231990 -0.960891 -0.151228
0.211331 0.510646 0.242352 0.634383 0.759551 -0.143670
0.236795 0.255271 0.205322 -0.622590 0.130456 -0.771597
0.317538 0.025051 0.282064 -0.000017 1.000000 -0.000777
0.458877 0.507410 0.290297 0.611714 -0.785671 0.092338
0.225986 0.097682 0.389703 -0.890915 -0.138335 0.432590
0.355525 0.680760 0.329416 0.150322 -0.268566 0.951460
0.442449 0.724559 0.315495 -0.445524 0.345262 -0.826016
0.388681 0.302656 0.191805 0.082262 0.933632 -0.348660
0.336841 0.474762 0.332689 0.941981 -0.003953 0.335643
0.401633 0.173919 0.464334 0.382740 -0.135193 0.913911
0.261634 0.552808 0.290656 0.351146 -0.059623 -0.934420
0.330421 0.302717 0.218266 -0.047329 0.958894 -0.279789
0.425847 0.841436 0.274192 -0.838854 0.504060 -0.205544
0.249441 0.273912 0.422218 -0.233531 -0.947806 0.217086
0.277560 0.025018 0.229251 -0.421490 -0.702078 -0.573962
0.507982 0.719914 0.223912 0.463822 -0.046344 -0.884716
0.470493 0.083622 0.372529 0.939114 -0.160680 0.303723
0.468859 0.302665 0.284232 0.277660 0.952050 -0.128475
0.318362 0.315156 0.165241 -0.200314 -0.033213 -0.979169
0.392586 0.617730 0.264184 -0.056783 0.780691 0.622332
0.445638 0.028500 0.258081 0.598837 -0.641155 -0.479911
0.360802 0.490273 0.291551 0.233790 0.570970 0.786978
0.248056 0.492006 0.368887 -0.582164 -0.650848 -0.487321
0.181160 0.319221 0.271592 0.931971 0.003098 0.362519
0.217264 0.210374 0.257196 -0.848640 -0.190829 -0.493350
0.250238 0.025091 0.334301 -0.054066 -0.998509 0.007534
0.497319 0.323923 0.257119 0.878947 -0.124789 -0.460303
0.446553 0.826925 0.259889 0.656212 -0.143558 0.740794
0.501028 0.305431 0.418931 -0.863355 -0.000339 -0.504597
0.334909 0.249499 0.488291 -0.087999 -0.718523 0.689914
0.184808 0.286169 0.370388 -0.974222 0.006015 0.225510
0.431054 0.554763 0.248244 0.980393 -0.133306 0.145118
0.344899 0.072824 0.461745 -0.002422 -0.158221 0.987401
0.349296 0.546942 0.295502 0.063014 -0.016295 -0.997880
0.250313 0.807260 0.147517 -0.174574 0.417644 0.891682
0.211230 0.186966 0.387584 -0.912877 -0.154035 0.378059
0.328903 0.302782 0.304937 -0.043195 0.996972 -0.064663
0.225140 0.276886 0.446251 -0.741506 -0.055986 0.668607
0.391094 0.813604 0.130858 0.963752 -0.200526 -0.175985
0.288175 0.246943 0.188699 -0.262250 -0.615767 -0.743005
0.340532 0.302683 0.180646 -0.027685 0.928791 -0.369569
0.443971 0.552688 0.257387 -0.791954 0.590848 -0.153970
0.347405 0.609100 0.296638 0.981913 0.029592 0.187006
0.289874 0.438519 0.398674 -0.978259 -0.207277 -0.006766
0.343526 0.503266 0.324253 -0.026156 0.223111 0.974442
0.421722 0.302646 0.209084 0.160708 0.937286 -0.309301
0.218130 0.314314 0.225045 -0.789952 -0.130420 -0.599138
0.417625 0.520117 0.263802 0.750942 -0.419347 -0.510132
0.365279 0.302705 0.236401 0.033560 0.970237 -0.239821
0.368515 0.713207 0.296545 -0.592435 -0.289067 0.751971
0.363694 0.079074 0.460891 0.135238 -0.152995 0.978930
0.311768 0.273754 0.264345 -0.075761 -0.982473 -0.170317
0.326585 0.025149 0.418222 -0.025914 -0.994855 0.097942
0.274939 0.209892 0.201101 -0.464917 -0.190132 -0.864698
0.279275 0.208427 0.463849 -0.443858 -0.186748 0.876422
0.457921 0.594954 0.237728 -0.908497 0.392192 0.144286
0.328567 0.322097 0.154495 0.078162 -0.147996 0.985894
0.378363 0.546478 0.283464 0.298674 -0.062808 0.952286
0.311554 0.304637 0.166389 -0.231656 -0.007430 -0.972769
0.188650 0.264229 0.409280 0.890600 -0.000355 -0.454786
0.224435 0.318699 0.203042 0.661475 -0.214431 0.718659
0.195874 0.230149 0.349323 -0.903299 -0.422039 0.077038
0.354213 0.488424 0.334767 -0.652884 0.388909 -0.649994
0.192540 0.796060 0.402193 -0.425317 -0.009324 0.904997
0.233785 0.093234 0.260174 -0.835814 -0.147603 -0.528799
0.451942 0.072817 0.406786 0.804983 -0.182156 0.564643
0.517623 0.325155 0.363991 0.001596 -0.999895 0.014409
0.222660 0.510095 0.345492 0.629024 0.595182 0.500087
0.378610 0.148579 0.195012 0.227149 -0.136838 -0.964198
0.346935 0.325014 0.159100 -0.063723 -0.459370 -0.885956
0.375795 0.625750 0.311554 -0.896005 0.113217 0.429368
0.343352 0.375305 0.332962 0.994395 0.092044 0.052034
0.186757 0.307530 0.286001 -0.960607 -0.117040 -0.252062
0.306732 0.453782 0.289687 0.457075 -0.081917 -0.885648
0.333488 0.059030 0.204315 -0.102285 -0.187676 -0.976891
0.420929 0.302780 0.395103 0.178687 0.972109 0.151903
0.224912 0.149326 0.260526 -0.854769 -0.136601 -0.500709
0.313210 0.273794 0.321428 -0.077632 -0.996617 -0.026992
0.486500 0.252729 0.425722 0.781538 0.276567 0.559204
0.501153 0.297397 0.305015 0.506680 0.855636 -0.105649
0.314111 0.325019 0.164477 0.104167 -0.935539 0.337514
0.270338 0.043785 0.230749 -0.551713 -0.462000 -0.694384
0.464961 0.249296 0.212253 0.321971 -0.904140 -0.280831
0.355323 0.025035 0.261150 0.000068 1.000000 -0.000818
0.335270 0.273734 0.258949 -0.020276 -0.983158 -0.181632
0.496788 0.237308 0.349615 0.849426 -0.510909 0.132090
0.262289 0.325247 0.479239 0.176082 -0.905983 -0.384954
0.342534 0.273762 0.305772 -0.008112 -0.997964 -0.063255
0.387515 0.545053 0.344193 -0.703747 0.156338 0.693036
0.246177 0.306488 0.184949 0.558780 -0.019129 0.829095
0.298314 0.601255 0.256227 -0.080299 -0.652405 -0.753605
0.263905 0.274602 0.488123 0.461688 -0.046438 -0.885826
0.400626 0.434500 0.280635 -0.645362 0.464240 0.606621
0.465318 0.065115 0.380738 0.911135 -0.187775 0.366842
0.250852 0.251628 0.193621 -0.547423 0.027768 -0.836395
0.213494 0.274880 0.447198 0.753831 -0.000484 -0.657068
0.465065 0.660210 0.414019 0.313324 -0.206279 0.926972
0.385349 0.449512 0.273756 -0.522946 -0.501661 -0.689104
0.344409 0.693200 0.252815 0.897112 -0.049846 -0.438983
0.298116 0.161938 0.197758 -0.330744 -0.136969 -0.933728
0.294617 0.472041 0.272914 -0.695676 -0.584222 0.417995
0.373539 0.302767 0.328909 0.062065 0.998030 -0.009215
0.415349 0.273799 0.430303 0.148305 -0.956026 0.253023
0.461846 0.789106 0.247786 0.340266 0.096951 0.935318
0.213586 0.272629 0.447312 0.751764 -0.000486 -0.659432
0.232950 0.542553 0.387244 0.905420 0.397879 0.148012
0.244150 0.234173 0.444080 -0.610034 -0.471369 0.636922
0.429277 0.544105 0.256937 0.816897 -0.531789 -0.223339
0.428949 0.544389 0.254953 0.570349 -0.412233 -0.710469
0.279674 0.297178 0.166265 0.367931 -0.070800 0.927154
0.329952 0.055883 0.457940 -0.104843 -0.246489 0.963458
0.314403 0.356548 0.347534 -0.835656 -0.463822 0.294190
0.310871 0.292527 0.496117 -0.211803 0.007306 0.977285
0.511346 0.325101 0.287230 0.951220 -0.274539 -0.140747
0.570778 0.805911 0.244024 -0.554245 0.262889 0.789748
0.242022 0.302904 0.390961 -0.236389 0.958857 0.157207
0.402535 0.307068 0.162287 -0.319626 -0.066615 0.945199
0.428423 0.025025 0.246710 0.415981 -0.778094 -0.470669
0.411751 0.293196 0.175297 0.395293 -0.021518 -0.918303
0.310843 0.443340 0.290568 0.782041 0.435001 -0.446302
0.362767 0.657043 0.311078 -0.717028 0.463299 0.520793
0.503148 0.295643 0.324107 0.598087 0.800291 -0.042720
0.129486 0.511464 0.232959 -0.325900 -0.805304 -0.495253
0.368387 0.217550 0.183603 0.156791 -0.265252 -0.951345
0.470757 0.289626 0.203314 -0.688707 -0.008175 0.724994
0.212982 0.092541 0.332960 -0.990158 -0.139369 0.012783
0.423453 0.025118 0.380021 0.060259 -0.996712 0.054173
0.448942 0.688147 0.402359 -0.519258 0.563859 -0.642211
0.417080 0.035224 0.434344 0.487811 -0.575140 0.656699
0.353929 0.515497 0.215313 -0.940581 -0.339065 -0.018498
0.439550 0.273759 0.398458 0.207772 -0.962141 0.176395
0.277299 0.435606 0.380985 0.405939 0.175909 -0.896811
0.348476 0.555158 0.295223 -0.039314 -0.176745 -0.983471
0.364350 0.302762 0.313066 0.039297 0.998089 -0.047697
0.383536 0.025084 0.332202 0.000115 1.000000 -0.000721
0.235690 0.273786 0.232854 -0.246378 -0.935763 -0.252280
0.207209 0.273906 0.371034 -0.326657 -0.941322 0.084903
0.347056 0.907541 0.353590 -0.148318 0.052293 -0.987556
0.254754 0.320982 0.472079 -0.527092 0.000630 0.849808
0.497195 0.280566 0.372771 0.562132 -0.807464 0.178914
0.497087 0.292974 0.406016 0.896885 -0.099392 0.430951
0.265354 0.325031 0.179440 0.057648 -0.991635 0.115487
0.458586 0.273744 0.397760 0.250929 -0.951937 0.175646
0.447688 0.302683 0.287932 0.230327 0.965926 -0.118056
0.303913 0.800615 0.279318 -0.034711 0.098221 -0.994559
0.354593 0.404283 0.311322 -0.981725 -0.151339 -0.115380
0.344671 0.431226 0.334026 -0.343475 -0.414389 0.842797
0.253754 0.257441 0.180206 0.557764 0.048659 0.828572
0.188684 0.252204 0.383015 -0.941489 0.211011 0.262818
0.380987 0.752159 0.417331 -0.246766 0.524281 -0.815007
0.286709 0.455321 0.411441 -0.783742 -0.511664 0.352062
0.208204 0.170287 0.370216 -0.954149 -0.136178 0.266560
0.466196 0.273667 0.297837 0.279649 -0.957481 -0.070892
0.284510 0.812771 0.278955 0.041246 0.099928 -0.994139
0.318826 0.613099 0.249782 -0.050550 0.594362 0.802607
0.376847 0.503485 0.263425 -0.361685 -0.042941 -0.931311
0.320753 0.590455 0.420691 -0.210451 -0.159588 0.964491
0.347521 0.739142 0.241146 -0.046591 -0.003636 -0.998907
0.334473 0.302808 0.346828 -0.026438 0.998899 0.038756
