0.216627 0.088789 0.139195 -0.229573 -0.174403 -0.957538
0.206550 0.262242 0.499961 0.156316 -0.834838 -0.527837
0.350261 0.463031 0.306206 0.142655 -0.989576 -0.019710
0.339674 0.041593 0.175302 0.620576 -0.526471 -0.581132
0.331957 0.389210 0.431678 -0.064586 -0.971524 -0.227969
0.251953 0.663093 0.221028 -0.022393 -0.978632 -0.204394
0.317271 0.025000 0.172039 0.502746 -0.637025 -0.584334
0.297032 0.653655 0.413014 -0.288876 -0.947287 -0.138555
0.133474 0.464774 0.262019 0.106163 -0.991190 0.079193
0.211092 0.385194 0.236268 -0.259946 -0.944691 -0.199968
0.169053 0.173597 0.254607 -0.498564 0.861180 -0.099009
0.107331 0.059330 0.260697 -0.888017 -0.398662 -0.229115
0.236073 0.094639 0.441747 -0.129256 -0.122044 0.984072
0.288365 0.648943 0.450351 -0.311413 -0.917582 -0.247115
0.367610 0.771909 0.271982 -0.177165 -0.940531 0.289851
0.280681 0.173597 0.211366 0.105300 0.897510 -0.428238
0.381361 0.120470 0.175348 0.745919 0.095398 -0.659170
0.274431 0.562415 0.292859 0.735507 0.035641 0.676579
0.248017 0.703675 0.286665 -0.764400 0.032644 -0.643916
0.157467 0.146990 0.142657 -0.596619 0.304945 -0.742330
0.123227 0.087968 0.211724 -0.856181 -0.180714 -0.484042
0.402640 0.552791 0.207411 -0.279945 -0.940392 0.193115
0.319518 0.882352 0.382509 0.050256 -0.980288 -0.191076
0.348651 0.390894 0.384069 -0.200309 -0.974584 0.100310
0.131514 0.380494 0.251824 0.178648 -0.951563 -0.250225
0.176364 0.173597 0.386974 -0.346847 0.691571 0.633583
0.364227 0.383476 0.351565 -0.243852 -0.963755 0.108228
0.226677 0.173597 0.438318 -0.027569 0.565334 0.824401
0.415600 0.756746 0.284424 -0.543502 -0.828587 0.134350
0.379093 0.464762 0.312115 0.055466 -0.997335 -0.047398
0.366639 0.464568 0.290642 0.030478 -0.992985 0.114244
0.260785 0.048541 0.424924 -0.056906 -0.480023 0.875408
0.397981 0.454635 0.368939 -0.130260 -0.963481 -0.233959
0.266256 0.822478 0.308763 0.944573 0.022919 0.327501
0.256953 0.113627 0.118728 0.005676 0.038834 -0.999230
0.381923 0.173597 0.277816 0.708019 0.695311 -0.123503
0.338691 0.378066 0.461585 -0.165765 -0.903242 -0.395822
0.265313 0.814434 0.303944 0.989249 0.057988 -0.134252
0.316917 0.768178 0.271093 0.276628 -0.905252 0.322485
0.423063 0.345814 0.447572 -0.477415 -0.818830 -0.318736
0.230503 0.292135 0.374052 0.057590 -0.989554 0.132160
0.314527 0.884882 0.367986 0.109344 -0.990171 -0.087210
0.392725 0.120307 0.352167 0.911235 0.097192 0.400255
0.289523 0.173597 0.426277 0.300991 0.596289 0.744206
0.266506 0.411826 0.285223 -0.940245 -0.018650 0.339987
0.349618 0.391478 0.389285 -0.212381 -0.975189 0.062451
0.324522 0.136642 0.428327 0.487300 0.232142 0.841812
0.152766 0.780446 0.254551 -0.029949 -0.992065 0.122109
0.261689 0.670962 0.278663 0.484371 0.100390 -0.869084
0.255654 0.558066 0.281049 -0.911013 -0.047248 -0.409663
0.110323 0.051847 0.292759 -0.887355 -0.459312 -0.040418
0.245308 0.173597 0.443958 0.071923 0.557106 0.827321
0.169150 0.778894 0.252535 -0.198849 -0.962962 0.182108
0.273701 0.498479 0.295056 0.211091 0.014522 0.977358
0.357690 0.782514 0.330202 0.002614 -0.995087 -0.098970
0.095312 0.097301 0.286024 -0.994870 -0.100651 0.010169
0.458641 0.715466 0.345568 -0.727413 -0.668496 -0.154864
0.236669 0.232519 0.036629 0.129711 -0.729771 0.671275
0.357193 0.152555 0.421856 0.632439 0.339705 0.696148
0.203743 0.385076 0.146458 -0.053482 -0.978621 0.198596
0.419314 0.520267 0.149950 -0.383838 -0.802174 0.457368
0.263154 0.883415 0.311913 0.712553 0.076370 0.697450
0.296465 0.547830 0.222441 0.400857 -0.915639 0.030324
0.277647 0.752938 0.298616 0.682005 -0.712165 0.166401
0.267043 0.173597 0.409998 0.173729 0.698705 0.693996
0.338408 0.124855 0.149907 0.484917 0.133925 -0.864245
0.223619 0.144922 0.450493 -0.090226 0.289039 0.953056
0.116745 0.135440 0.382055 -0.754083 0.217332 0.619779
0.264536 0.489998 0.272086 -0.546265 -0.008302 -0.837571
0.338716 0.883951 0.327595 -0.121752 -0.964853 0.232884
0.352518 0.780117 0.294311 -0.053606 -0.968959 0.241341
0.383724 0.557871 0.258976 -0.118911 -0.988044 -0.098129
0.280414 0.389390 0.392742 0.229658 -0.972602 0.036085
0.298075 0.091215 0.139801 0.318692 -0.153598 -0.935331
0.282867 0.025000 0.397513 0.054779 -0.686177 0.725369
0.365532 0.356038 0.489750 -0.331836 -0.766309 -0.550141
0.363645 0.173597 0.408821 0.640519 0.529079 0.556607
0.253838 0.617173 0.080843 0.081093 -0.698736 0.710769
0.277258 0.659020 0.370902 -0.280993 -0.928180 0.243976
0.183932 0.025000 0.228323 -0.368395 -0.827168 -0.424357
0.225266 0.287401 0.357095 0.082451 -0.946084 0.313252
0.382533 0.370582 0.444883 -0.402116 -0.865509 -0.298658
0.377918 0.770226 0.276314 -0.204746 -0.935017 0.289521
0.363468 0.465250 0.314288 -0.094478 0.994491 0.045408
0.298104 0.262586 0.069370 -0.108997 -0.838227 0.534317
0.306213 0.388635 0.359695 0.111685 -0.985282 0.129406
0.366971 0.558944 0.266226 -0.028306 -0.992426 -0.119543
0.308352 0.025000 0.398840 0.202086 -0.638398 0.742704
0.167005 0.025000 0.193568 -0.405733 -0.672521 -0.618948
0.272038 0.443169 0.270615 -0.345931 -0.012552 -0.938176
0.239544 0.292364 0.371315 0.039801 -0.988053 0.148883
0.370604 0.152650 0.157693 0.566873 0.337247 -0.751611
0.095734 0.369812 0.179895 0.463153 -0.863034 0.201650
0.255088 0.659959 0.366058 -0.065705 -0.958891 0.276063
0.261239 0.038346 0.138424 0.178450 -0.527650 -0.830506
0.215865 0.290842 0.372266 0.141763 -0.964214 0.224039
0.268299 0.173597 0.446591 0.192018 0.525906 0.828585
0.293526 0.289302 0.403552 -0.237880 -0.970145 -0.047233
0.251479 0.173597 0.387593 0.071688 0.805457 0.588302
0.314649 0.390268 0.418020 0.056452 -0.992269 -0.110524
0.203851 0.173597 0.356566 -0.222662 0.861248 0.456809
0.094451 0.449762 0.241440 0.441121 -0.887313 0.134495
0.229983 0.547309 0.345619 -0.408291 -0.911958 0.040395
0.185755 0.118066 0.423626 -0.392394 0.078104 0.916475
0.287696 0.425189 0.275831 0.860680 0.022698 -0.508640
0.303693 0.291514 0.147705 -0.147929 -0.984600 0.093168
0.318006 0.775131 0.291821 0.246055 -0.948294 0.200490
0.316465 0.767836 0.270662 0.280342 -0.904187 0.322265
0.247698 0.666408 0.399088 -0.030133 -0.998532 0.044999
0.259434 0.278028 0.479550 -0.105288 -0.886744 -0.450110
0.248601 0.649997 0.467347 -0.099924 -0.876277 -0.471332
0.248101 0.294282 0.436538 -0.036531 -0.974947 -0.219416
0.448313 0.448609 0.311726 0.480103 0.876113 -0.043907
0.477739 0.423672 0.321193 -0.687257 -0.716157 -0.121641
0.215860 0.025000 0.204713 -0.140676 -0.830938 -0.538287
0.439863 0.441743 0.365088 -0.429460 -0.869937 -0.242434
0.101609 0.083873 0.257530 -0.954658 -0.213270 -0.207710
0.346154 0.384853 0.438380 -0.159835 -0.949620 -0.269584
0.084015 0.145358 0.292570 -0.946149 0.287607 0.148609
0.190221 0.392047 0.181481 -0.072457 -0.996005 0.052183
0.212947 0.281062 0.468833 0.129878 -0.906955 -0.400704
0.296589 0.275027 0.088584 -0.112999 -0.884454 0.452740
0.257412 0.271567 0.286349 -0.977538 0.026380 0.209103
0.234947 0.173597 0.223426 -0.142882 0.936641 -0.319825
0.241128 0.082345 0.440611 -0.123255 -0.222625 0.967081
0.295748 0.649983 0.433557 -0.298464 -0.932273 -0.204416
0.414912 0.526118 0.157831 -0.376609 -0.810016 0.449488
0.364712 0.383864 0.346520 -0.242800 -0.963303 0.114439
0.120482 0.173597 0.210037 -0.758239 0.580668 -0.296476
0.232190 0.536973 0.309790 -0.486918 -0.810282 0.326120
0.433840 0.741232 0.358691 -0.618574 -0.751953 -0.227888
0.307024 0.385711 0.349748 0.119842 -0.964469 0.235451
0.269749 0.173597 0.168263 0.010506 0.756883 -0.653466
0.260712 0.663013 0.221560 -0.061016 -0.976557 -0.206429
0.212846 0.025000 0.255215 -0.215945 -0.951387 -0.219613
0.198007 0.038560 0.406088 -0.444255 -0.549097 0.707905
0.206326 0.259933 0.080049 0.229985 -0.844679 0.483347
0.269999 0.244259 0.045852 0.010956 -0.731022 0.682266
0.300983 0.025000 0.207473 0.393433 -0.817656 -0.420297
0.443436 0.534974 0.212115 -0.517556 -0.839653 0.164675
0.394076 0.767958 0.361046 -0.403805 -0.883683 -0.236740
0.228281 0.623157 0.502066 0.022046 -0.718548 -0.695128
0.185857 0.886880 0.244529 -0.095095 -0.994642 0.040558
0.346240 0.101287 0.411144 0.579853 -0.066333 0.812016
0.378063 0.875810 0.356748 -0.463586 -0.880503 -0.099007
0.112080 0.768917 0.229136 0.265677 -0.930925 0.250587
0.363614 0.173597 0.207004 0.551013 0.671197 -0.495861
0.113785 0.084603 0.330574 -0.931042 -0.207975 0.299847
0.427647 0.752622 0.338869 -0.666494 -0.736334 -0.116608
0.159426 0.025000 0.322408 -0.626100 -0.767482 0.137734
0.366831 0.454216 0.250051 0.095197 -0.933954 0.344481
0.256411 0.901758 0.301828 0.150029 0.177743 -0.972573
0.270442 0.430338 0.270063 -0.521416 -0.019211 -0.853086
0.419123 0.459958 0.319150 -0.293689 -0.955075 -0.039735
0.362327 0.557786 0.198326 -0.006945 -0.966429 0.256840
0.294711 0.283902 0.105295 -0.094839 -0.914624 0.393025
0.249731 0.856055 0.311844 -0.851422 0.077878 0.518667
0.030585 0.397954 0.274897 0.714720 -0.698829 -0.028518
0.349655 0.548369 0.174013 0.023817 -0.940718 0.338353
0.108765 0.119826 0.345114 -0.898763 0.093405 0.428371
0.228197 0.360436 0.274472 -0.412109 -0.772005 -0.483916
0.278466 0.293299 0.195647 -0.069152 -0.990044 -0.122602
0.239355 0.293622 0.438467 0.025941 -0.976256 -0.215061
0.094040 0.173597 0.288671 -0.817967 0.558395 0.138292
0.348807 0.079814 0.168488 0.653505 -0.250227 -0.714365
0.337706 0.453143 0.269758 0.281912 -0.922181 0.264779
0.356706 0.462611 0.293271 0.126027 -0.988462 0.084028
0.279069 0.025000 0.400522 0.028307 -0.677044 0.735398
0.200938 0.390584 0.197088 -0.101862 -0.994783 0.005648
0.259144 0.173597 0.320040 0.060806 0.979540 0.191844
0.383237 0.467385 0.298901 0.085568 0.994097 -0.066702
0.284916 0.361309 0.271400 0.547107 -0.010166 -0.837001
0.378557 0.173597 0.187067 0.584899 0.564481 -0.582455
0.367968 0.782224 0.315291 -0.214359 -0.976673 0.012621
0.107198 0.116080 0.227103 -0.941860 0.061195 -0.330387
0.279451 0.270986 0.277732 0.729224 -0.032365 -0.683509
0.249765 0.232846 0.536536 -0.013953 -0.723574 -0.690106
0.448250 0.436961 0.367867 -0.466689 -0.847341 -0.253406
0.271159 0.149734 0.449856 0.199667 0.323265 0.925004
0.073757 0.348154 0.152584 0.514908 -0.814556 0.267147
0.124807 0.354611 0.104305 0.330320 -0.807468 0.488757
0.212521 0.658713 0.210874 0.275545 -0.956720 -0.093600
0.344009 0.387206 0.357546 -0.156218 -0.976896 0.145844
0.038105 0.406906 0.271985 0.720358 -0.693543 0.009087
0.086702 0.173597 0.279545 -0.841869 0.531475 0.093765
0.411019 0.520347 0.145504 -0.351396 -0.816792 0.457572
0.371280 0.382416 0.365485 -0.269172 -0.959159 0.086948
0.397839 0.856884 0.388200 -0.635254 -0.664334 -0.393843
0.220425 0.173597 0.419300 -0.076448 0.642203 0.762713
0.122671 0.099822 0.205767 -0.865482 -0.078979 -0.494675
0.360936 0.773092 0.272239 -0.144988 -0.947329 0.285562
0.327422 0.451618 0.271761 -0.354508 0.905996 -0.231289
0.157493 0.025000 0.224153 -0.515351 -0.717770 -0.468209
0.257032 0.082308 0.435657 -0.012843 -0.227808 0.973621
0.388118 0.377842 0.356621 -0.270574 -0.956585 0.108326
0.138548 0.555416 0.383061 0.186547 -0.940835 -0.282896
0.330376 0.392966 0.391851 -0.063749 -0.997821 -0.016987
0.457134 0.517593 0.194456 -0.617372 -0.719377 0.318352
0.259382 0.259371 0.291897 -0.749318 0.051115 0.660235
0.170006 0.143816 0.139352 -0.539830 0.285481 -0.791886
0.089086 0.338276 0.115283 0.479966 -0.722964 0.496946
0.337183 0.025000 0.319640 0.490279 -0.807030 0.329133
0.138024 0.026020 0.218998 -0.605683 -0.619250 -0.499678
0.161503 0.460122 0.304759 0.002085 -0.973119 -0.230294
0.113025 0.173597 0.227956 -0.786289 0.586071 -0.195627
0.423456 0.145462 0.280215 0.951814 0.287152 -0.107675
0.241931 0.287299 0.353994 0.041346 -0.938706 0.342231
0.389958 0.362343 0.461223 -0.431818 -0.779717 -0.453403
0.190251 0.287576 0.387063 0.184211 -0.972038 0.145630
0.359426 0.873016 0.301372 -0.130306 -0.920263 0.368967
0.150300 0.391351 0.206612 0.195565 -0.973600 -0.117713
0.285198 0.025000 0.179213 0.318123 -0.733609 -0.600512
0.175254 0.082476 0.407804 -0.534643 -0.228510 0.813597
0.399978 0.464361 0.302587 -0.213043 -0.975668 0.051809
0.193469 0.173597 0.286539 -0.323835 0.944040 0.062599
0.368406 0.377322 0.446215 -0.327995 -0.905792 -0.268254
0.223870 0.366477 0.268908 -0.358060 -0.829028 -0.429542
0.238893 0.285101 0.351820 0.043400 -0.934804 0.352502
0.132687 0.464577 0.272859 0.206683 -0.978127 -0.023467
0.196709 0.652937 0.177886 0.305025 -0.943891 0.126605
0.383843 0.559432 0.239357 -0.122943 -0.990087 -0.067912
0.264849 0.643114 0.474316 -0.156723 -0.816277 -0.555994
0.330577 0.557060 0.214874 0.143036 -0.976328 0.162249
0.253906 0.806895 0.315291 -0.351734 -0.027556 0.935694
0.147346 0.384587 0.155267 0.193430 -0.948301 0.251617
0.370330 0.768672 0.268459 -0.197886 -0.935862 0.291552
0.409570 0.762834 0.293297 -0.527027 -0.842282 0.113149
0.349211 0.104144 0.161453 0.606993 -0.042095 -0.793592
0.236114 0.646069 0.474594 -0.038228 -0.845247 -0.533006
0.137162 0.062277 0.199097 -0.697823 -0.390096 -0.600723
0.171453 0.173597 0.345578 -0.409781 0.813638 0.412400
0.137497 0.777592 0.311510 0.065523 -0.960540 -0.270313
0.375613 0.864612 0.400361 -0.407285 -0.807815 -0.426091
0.405931 0.143063 0.339257 0.923699 0.282103 0.259226
0.429240 0.167085 0.306843 0.903004 0.429445 0.012650
0.238068 0.154264 0.460476 0.012342 0.345285 0.938417
0.349002 0.782513 0.310940 0.011437 -0.999186 0.038687
0.204837 0.456152 0.259644 -0.355396 -0.932409 0.065621
0.390835 0.462486 0.334619 -0.050812 -0.988930 -0.139411
0.197998 0.390132 0.226948 -0.129929 -0.987331 -0.091083
0.095714 0.361178 0.146751 0.508755 -0.812684 0.284100
0.382431 0.173597 0.339460 0.749116 0.627075 0.213546
0.393189 0.531254 0.150000 -0.293076 -0.846344 0.444756
0.245348 0.701171 0.297481 -0.952317 -0.054773 0.300155
0.251918 0.173597 0.121043 -0.113903 0.546328 -0.829790
0.269687 0.130179 0.444864 0.177858 0.174333 0.968491
0.354938 0.173597 0.400800 0.608775 0.583575 0.537432
0.272869 0.173597 0.127401 -0.002220 0.571527 -0.820580
0.090519 0.117586 0.259662 -0.990026 0.072582 -0.120748
0.273549 0.661984 0.220526 -0.145327 -0.951595 -0.270827
0.401203 0.554274 0.206818 -0.268640 -0.940842 0.206516
0.189389 0.459391 0.237556 -0.244284 -0.957202 0.155211
0.377220 0.764667 0.256811 -0.188893 -0.937016 0.293804
0.237733 0.665003 0.384045 0.049039 -0.992235 0.114299
0.163565 0.167584 0.134836 -0.551164 0.442776 -0.707225
0.259018 0.881889 0.314705 0.228474 0.070547 0.970991
0.304744 0.552012 0.226330 0.374771 -0.926327 0.038286
0.337818 0.546223 0.169719 0.023795 -0.948117 0.317030
0.192647 0.086290 0.417611 -0.414759 -0.193723 0.889070
0.337829 0.393322 0.384705 -0.152871 -0.983934 0.092215
0.115144 0.449099 0.322651 0.217232 -0.927923 -0.302934
0.222832 0.173597 0.389613 -0.088499 0.774707 0.626096
0.265448 0.025000 0.152233 0.213292 -0.638733 -0.739274
0.232027 0.740602 0.289770 -0.785736 -0.611563 -0.092787
0.299142 0.878879 0.337561 0.381650 -0.914729 0.132720
0.118933 0.081914 0.343701 -0.898863 -0.230167 0.372919
0.257427 0.265359 0.318674 -0.088251 -0.749844 0.655702
0.244438 0.652917 0.290660 -0.989250 -0.064996 0.130997
0.290601 0.649796 0.441353 -0.308923 -0.924368 -0.223854
0.399221 0.764455 0.274620 -0.300735 -0.906713 0.295684
0.234143 0.260795 0.508303 0.011473 -0.772821 -0.634521
0.288452 0.435858 0.282971 0.996008 0.040592 0.079504
0.366974 0.035961 0.353516 0.629160 -0.565057 0.533730
0.102324 0.367270 0.153725 0.491905 -0.828877 0.266444
0.300200 0.173597 0.420532 0.356489 0.607349 0.709960
0.378875 0.379956 0.373441 -0.297468 -0.952421 0.066388
0.305952 0.173597 0.427300 0.385071 0.566679 0.728420
0.374552 0.773648 0.359322 -0.178112 -0.952238 -0.248031
0.042260 0.409577 0.247172 0.683512 -0.724505 0.088903
0.442861 0.734200 0.351536 -0.697832 -0.692690 -0.182237
0.170315 0.173597 0.374421 -0.390132 0.723954 0.568935
0.371590 0.355074 0.487169 -0.374581 -0.750100 -0.545012
0.402767 0.173597 0.226503 0.744981 0.534157 -0.399599
0.284761 0.025000 0.318374 0.158233 -0.953933 0.254902
0.207230 0.173597 0.394763 -0.172219 0.727652 0.663976
0.176864 0.551396 0.400447 -0.073580 -0.946819 -0.313241
0.393859 0.553340 0.200603 -0.233554 -0.936187 0.262690
0.283749 0.173597 0.287373 0.165215 0.986257 0.000928
0.184673 0.885951 0.227808 -0.045023 -0.990448 0.130327
0.272526 0.148029 0.110164 0.030343 0.306752 -0.951306
0.439819 0.742424 0.310099 -0.658740 -0.749107 0.069998
0.090240 0.136995 0.304156 -0.951281 0.228995 0.206460
0.108846 0.371989 0.159581 0.438315 -0.867151 0.236492
0.344885 0.779930 0.342110 0.034930 -0.992700 -0.115443
0.305179 0.142972 0.436575 0.383837 0.281619 0.879409
0.074420 0.751787 0.311972 0.575635 -0.797794 -0.179356
0.128297 0.457515 0.223798 0.156187 -0.966812 0.202190
0.288776 0.173597 0.301581 0.206957 0.975585 0.073503
0.384574 0.454824 0.254501 -0.128517 -0.955707 0.264779
0.157403 0.558750 0.313219 0.025080 -0.992007 0.123665
0.251378 0.295965 0.404834 -0.015996 -0.999289 0.034139
0.192856 0.173597 0.321563 -0.306408 0.915561 0.260506
0.277936 0.254527 0.277558 0.681116 -0.035733 -0.731303
0.184082 0.153353 0.433287 -0.302573 0.357585 0.883506
0.323424 0.389649 0.432226 0.028048 -0.978186 -0.205827
0.227587 0.655477 0.234123 0.200541 -0.915698 -0.348253
0.400450 0.460479 0.274726 0.120732 0.961165 -0.248165
0.378715 0.458665 0.358711 -0.037281 -0.983356 -0.177821
0.100301 0.359962 0.134817 0.452055 -0.741834 0.495306
0.255471 0.664464 0.217077 -0.045330 -0.986809 -0.155413
0.208981 0.025000 0.191711 -0.166318 -0.767809 -0.618715
0.261792 0.055135 0.133527 0.157639 -0.425026 -0.891349
0.205977 0.173597 0.267964 -0.264846 0.963074 -0.048424
0.235007 0.025000 0.171075 0.019016 -0.712615 -0.701297
0.123098 0.025000 0.293693 -0.767255 -0.636592 -0.077908
0.318710 0.112334 0.423455 0.445190 0.028795 0.894973
0.316291 0.554478 0.247306 0.264996 -0.953786 -0.141665
0.228482 0.173597 0.171745 -0.220803 0.758436 -0.613205
0.086314 0.347636 0.129532 0.516297 -0.737022 0.436160
0.280932 0.525198 0.287112 0.969441 0.045589 0.241050
0.097286 0.343528 0.113576 0.496461 -0.740212 0.453445
0.396802 0.127345 0.215738 0.873281 0.156883 -0.461268
0.360922 0.781976 0.309299 -0.166980 -0.984493 0.053780
0.193807 0.173597 0.298412 -0.316138 0.939894 0.129060
0.372248 0.771901 0.371601 -0.179160 -0.945383 -0.272311
0.095539 0.134179 0.317629 -0.936526 0.210243 0.280566
0.313642 0.150197 0.130021 0.267848 0.334964 -0.903358
0.335590 0.458233 0.295955 0.299494 -0.953032 0.045086
0.373690 0.464317 0.309296 0.074894 -0.996504 -0.037032
0.282964 0.134601 0.119363 0.123137 0.212070 -0.969466
0.399710 0.067007 0.275046 0.936280 -0.350645 0.020675
0.241189 0.667020 0.177481 0.154456 -0.981276 0.115065
0.407386 0.854969 0.355081 -0.612737 -0.780330 -0.125053
0.250419 0.025000 0.284992 -0.014345 -0.999860 0.008639
0.395773 0.113681 0.224124 0.913008 0.040425 -0.405934
0.262466 0.275664 0.333583 -0.073134 -0.857221 0.509728
0.263627 0.081633 0.125475 0.121753 -0.228255 -0.965959
0.181848 0.025000 0.196934 -0.330175 -0.730740 -0.597498
0.245069 0.700617 0.293482 -0.999077 -0.025602 -0.034481
0.389461 0.774682 0.312198 -0.367561 -0.928008 0.060823
0.334679 0.162228 0.136931 0.351862 0.416295 -0.838386
0.347868 0.390214 0.411011 -0.202407 -0.970518 -0.130864
0.182486 0.156428 0.131635 -0.472409 0.377685 -0.796356
0.413783 0.551865 0.252004 -0.288372 -0.955245 -0.065937
0.357132 0.025000 0.317053 0.602212 -0.728307 0.326971
0.295689 0.173597 0.339016 0.281521 0.917801 0.279978
0.351710 0.354659 0.496477 -0.234965 -0.818526 -0.524221
0.191883 0.560024 0.341260 -0.150256 -0.986617 0.063320
0.225710 0.025000 0.245961 -0.123877 -0.957598 -0.260115
0.345816 0.173597 0.376792 0.576610 0.685885 0.443940
0.296908 0.547111 0.223041 0.399311 -0.916341 0.029506
0.162043 0.781280 0.298795 -0.058574 -0.990124 -0.127375
0.212035 0.554063 0.368358 -0.239160 -0.959536 -0.148636
0.384290 0.050391 0.242894 0.864700 -0.475089 -0.163047
0.407526 0.173597 0.233026 0.769764 0.522523 -0.366652
0.399859 0.533104 0.157032 -0.331292 -0.836990 0.435538
0.186912 0.462458 0.251276 -0.196278 -0.973610 0.116443
0.347454 0.025295 0.386315 0.426515 -0.597290 0.679213
0.253302 0.279523 0.338475 -0.064462 -0.856614 0.511916
0.181009 0.025000 0.311886 -0.488954 -0.866674 0.098989
0.405386 0.086548 0.275619 0.981025 -0.193007 -0.018386
0.441173 0.507820 0.154228 -0.487711 -0.740243 0.462794
0.341568 0.137458 0.147734 0.467222 0.235804 -0.852115
0.181198 0.036437 0.165746 -0.323333 -0.550066 -0.769990
0.294915 0.284210 0.369319 -0.264009 -0.935240 0.235851
0.304792 0.768753 0.288386 0.385915 -0.894629 0.225186
0.475276 0.427735 0.309439 -0.635591 -0.770386 0.050292
0.090194 0.105192 0.267709 -0.994589 -0.032458 -0.098688
0.284891 0.108969 0.433828 0.245697 -0.000447 0.969347
0.171429 0.773408 0.230444 -0.206139 -0.955116 0.212742
0.422752 0.452263 0.357151 -0.327651 -0.914434 -0.237604
0.345221 0.541867 0.154811 0.009701 -0.941833 0.335941
0.345225 0.383578 0.439747 -0.159185 -0.947723 -0.276551
0.434325 0.743793 0.290784 -0.600950 -0.791258 0.113003
0.405990 0.079751 0.283129 0.967589 -0.247516 0.050084
0.180641 0.281290 0.448819 0.218920 -0.947229 -0.234162
0.282647 0.510002 0.289159 0.914485 0.032366 0.403324
0.377284 0.100652 0.179788 0.777159 -0.070973 -0.625289
0.260878 0.315525 0.287442 -0.926690 0.016244 0.375475
0.255803 0.277329 0.336950 -0.071461 -0.851160 0.520019
0.202383 0.285610 0.457198 0.186326 -0.928263 -0.321884
0.314416 0.381897 0.456152 0.006836 -0.945965 -0.324197
0.297938 0.647434 0.444055 -0.297697 -0.923936 -0.240249
0.177895 0.025000 0.260368 -0.446766 -0.864205 -0.231409
0.386888 0.772547 0.286324 -0.249093 -0.934613 0.253871
0.400469 0.123821 0.229656 0.915390 0.127163 -0.381956
0.315714 0.275553 0.451504 -0.260440 -0.939705 -0.221645
0.229023 0.652726 0.464102 0.078818 -0.903686 -0.420879
0.262854 0.294635 0.134057 0.013823 -0.976430 0.215390
0.244998 0.085805 0.440661 -0.089930 -0.195550 0.976562
0.256919 0.259232 0.509265 -0.112746 -0.792944 -0.598773
0.153629 0.039403 0.179709 -0.490822 -0.526860 -0.693910
0.271656 0.025000 0.407628 -0.023784 -0.652029 0.757821
0.304401 0.280964 0.434118 -0.272146 -0.947585 -0.167388
0.283548 0.025000 0.404344 0.050447 -0.653333 0.755388
0.290494 0.079710 0.139444 0.291871 -0.248250 -0.923679
0.369290 0.068150 0.183157 0.765778 -0.332917 -0.550227
0.090999 0.108697 0.282695 -0.999928 -0.002779 0.011650
0.389018 0.463324 0.286827 -0.075818 -0.971742 0.223538
0.208421 0.264852 0.087190 0.222233 -0.852907 0.472400
0.257974 0.550416 0.292270 -0.781182 -0.052156 0.622121
0.322131 0.384300 0.451796 -0.013918 -0.946326 -0.322915
0.421028 0.752602 0.285255 -0.557828 -0.819211 0.133125
0.390000 0.332632 0.500205 -0.397006 -0.725408 -0.562290
0.215854 0.173597 0.437256 -0.084747 0.553388 0.828601
0.200514 0.656709 0.194983 0.294094 -0.953300 0.068761
0.277820 0.384501 0.366290 0.262999 -0.947158 0.183641
0.237042 0.291178 0.365183 0.064529 -0.967050 0.246273
0.351822 0.879849 0.323260 -0.204977 -0.951502 0.229410
0.107162 0.124633 0.344356 -0.894264 0.134232 0.426935
0.170140 0.173597 0.166639 -0.526066 0.634429 -0.566353
0.161223 0.877276 0.202068 0.194718 -0.901769 0.385873
0.285272 0.173597 0.177322 0.105596 0.773823 -0.624538
0.422989 0.522612 0.157797 -0.399850 -0.794763 0.456587
0.089511 0.162196 0.323116 -0.852770 0.415164 0.316896
0.286694 0.025000 0.390287 0.087080 -0.714029 0.694679
0.257587 0.170627 0.460256 0.139333 0.452371 0.880878
0.429008 0.454869 0.282789 0.401025 0.909932 -0.105843
0.162950 0.158450 0.137605 -0.562961 0.385604 -0.731016
0.270516 0.647878 0.463189 -0.153290 -0.862398 -0.482465
0.134747 0.869332 0.287975 0.351423 -0.914404 -0.200914
0.230818 0.378193 0.235787 -0.321869 -0.913422 -0.249121
0.263601 0.436963 0.284569 -0.975586 -0.024433 0.218254
0.182199 0.025000 0.387501 -0.531895 -0.650801 0.541799
0.238956 0.173597 0.307610 -0.053958 0.989107 0.136950
0.104911 0.130687 0.342706 -0.888411 0.184575 0.420306
0.249442 0.025000 0.166552 0.110357 -0.703299 -0.702276
0.393313 0.770279 0.350792 -0.409883 -0.892616 -0.187706
0.300123 0.656714 0.221450 -0.180715 -0.944250 -0.275199
0.268137 0.537626 0.273584 0.064927 0.022586 -0.997634
0.333961 0.781067 0.319060 0.114238 -0.992539 -0.042621
0.364370 0.881890 0.351577 -0.356051 -0.932646 -0.058299
0.346136 0.782587 0.302289 -0.006802 -0.988673 0.149932
0.221153 0.661003 0.201233 0.239991 -0.970369 -0.028092
0.461642 0.434486 0.273695 0.528772 0.838614 -0.130873
0.177505 0.552693 0.294273 -0.151901 -0.941966 0.299376
0.310033 0.552314 0.242058 0.363633 -0.926938 -0.092509
0.251495 0.620572 0.279984 0.005681 -0.634627 -0.772798
0.141154 0.171529 0.417287 -0.473100 0.463945 0.748954
0.252279 0.664273 0.424490 -0.083469 -0.970774 -0.225012
0.268520 0.388403 0.278308 -0.977335 -0.022513 -0.210499
0.212665 0.452028 0.254840 -0.402009 -0.913601 0.061007
0.349192 0.550230 0.179298 0.041014 -0.947985 0.315662
0.448399 0.445001 0.289220 -0.514647 -0.851875 0.097203
0.262802 0.266671 0.322080 -0.082471 -0.793352 0.603151
0.341968 0.025000 0.341359 0.484953 -0.742621 0.461881
0.225243 0.173597 0.318613 -0.122101 0.969746 0.211386
0.123849 0.454404 0.315777 0.164334 -0.943867 -0.286547
0.128812 0.461653 0.295249 0.261336 -0.957511 -0.121971
0.397111 0.374242 0.382724 -0.341505 -0.939659 0.020385
0.131984 0.132279 0.167721 -0.754801 0.190469 -0.627692
0.289411 0.025000 0.295841 0.211781 -0.969857 0.120523
0.346950 0.773539 0.374170 0.037302 -0.970780 -0.237054
0.209110 0.638534 0.480455 0.168664 -0.828932 -0.533315
0.375204 0.381137 0.351636 -0.257749 -0.960407 0.105756
0.209779 0.173597 0.150703 -0.331375 0.638555 -0.694578
0.105246 0.072277 0.257155 -0.923926 -0.305242 -0.230624
0.367147 0.463854 0.347063 -0.033055 0.991560 0.125362
0.423795 0.449905 0.264239 -0.244579 -0.930477 0.272750
0.449741 0.529408 0.208122 -0.545774 -0.815620 0.192079
0.441429 0.536793 0.213626 -0.508045 -0.847262 0.155038
0.420916 0.830173 0.389171 -0.697531 -0.652828 -0.295407
0.314637 0.279307 0.431168 -0.256113 -0.952134 -0.166876
0.387320 0.775976 0.305054 -0.361985 -0.928627 0.081348
0.264394 0.533696 0.273188 -0.278620 0.012176 -0.960324
0.248486 0.173597 0.300524 -0.009089 0.995824 0.090839
0.228128 0.664515 0.432877 0.097746 -0.973081 -0.208706
0.351989 0.116506 0.413488 0.620317 0.063410 0.781784
0.281955 0.650642 0.125779 -0.102247 -0.879690 0.464426
0.280681 0.158201 0.111205 0.054678 0.378486 -0.923991
0.139585 0.173597 0.220174 -0.676850 0.686043 -0.266869
0.403216 0.080136 0.274514 0.969014 -0.246720 -0.011904
0.250523 0.238434 0.531590 -0.005328 -0.722917 -0.690914
0.320329 0.173597 0.214549 0.330827 0.836201 -0.437404
0.391133 0.764089 0.264797 -0.275983 -0.920184 0.277660
0.106108 0.376919 0.188109 0.412675 -0.895466 0.166854
0.122780 0.072064 0.346933 -0.875549 -0.307495 0.372640
0.386544 0.774812 0.335418 -0.333531 -0.936047 -0.112134
0.232281 0.173597 0.236225 -0.145360 0.959442 -0.241541
0.122506 0.140546 0.181801 -0.812851 0.256066 -0.523166
0.386832 0.173597 0.211312 0.661939 0.579380 -0.475558
0.254152 0.243833 0.527796 -0.014644 -0.725929 -0.687613
0.399805 0.359386 0.450418 -0.468310 -0.817845 -0.334387
0.363470 0.173597 0.176219 0.504122 0.586476 -0.633961
0.296332 0.650095 0.437550 -0.297879 -0.929335 -0.218184
0.297201 0.390938 0.406551 0.092706 -0.994821 -0.041680
0.460953 0.517552 0.200490 -0.610369 -0.743302 0.273773
0.117498 0.765634 0.336424 0.220383 -0.924289 -0.311644
0.202395 0.157480 0.443645 -0.183814 0.383099 0.905234
0.271061 0.619779 0.503119 -0.153444 -0.775554 -0.612349
0.379733 0.561694 0.224012 -0.123792 -0.991898 0.028534
0.282818 0.096621 0.130586 0.211533 -0.106825 -0.971515
0.284658 0.289148 0.423863 -0.239835 -0.967638 -0.078455
0.190702 0.559660 0.331342 -0.094216 -0.988326 0.119730
0.430812 0.453759 0.344896 0.394039 0.902878 0.171884
0.124230 0.025000 0.254252 -0.714987 -0.628840 -0.305539
0.223178 0.275183 0.486436 0.119734 -0.879884 -0.459856
0.163565 0.376954 0.124056 0.180651 -0.906170 0.382389
0.280651 0.652470 0.448879 -0.234201 -0.912273 -0.336019
0.261018 0.278059 0.278497 -0.888158 0.004431 -0.459518
0.280196 0.665264 0.187789 -0.107992 -0.994000 -0.017395
0.147777 0.173597 0.304853 -0.580911 0.788091 0.203606
0.235570 0.150174 0.458014 -0.009632 0.319843 0.947422
0.267617 0.255960 0.274353 -0.204385 -0.025015 -0.978571
0.270079 0.295079 0.177248 -0.060982 -0.995703 -0.069693
0.399130 0.860775 0.359195 -0.610010 -0.779861 -0.140375
0.103142 0.098983 0.245441 -0.963363 -0.086958 -0.253711
0.233206 0.294149 0.432453 0.092940 -0.990053 -0.105624
0.262052 0.173597 0.211172 -0.000624 0.912826 -0.408348
0.228247 0.662629 0.369199 0.097595 -0.963227 0.250336
0.211640 0.273422 0.485930 0.151687 -0.872101 -0.465222
0.414063 0.461820 0.293359 0.302541 0.949777 -0.079958
0.209173 0.170749 0.450971 -0.111745 0.461785 0.879925
0.242611 0.599700 0.523292 -0.013579 -0.683199 -0.730106
0.271678 0.357814 0.313398 0.387616 -0.710440 0.587391
0.310758 0.025000 0.179287 0.466960 -0.683235 -0.561371
0.100659 0.130646 0.231530 -0.946575 0.183953 -0.264871
0.381243 0.464580 0.339346 0.013516 0.991328 0.130715
0.369386 0.387115 0.390055 -0.260059 -0.962422 0.078186
0.381734 0.145575 0.389281 0.794154 0.292145 0.532888
0.385857 0.107101 0.200003 0.846388 -0.016646 -0.532307
0.412981 0.102112 0.285268 0.998129 -0.058996 0.016053
0.264559 0.205345 0.276139 -0.147004 -0.016899 -0.988991
0.380807 0.774224 0.283734 -0.189460 -0.940408 0.282380
0.274158 0.196933 0.283062 0.844063 -0.055851 -0.533327
0.157190 0.382655 0.140497 0.190897 -0.926954 0.322979
0.346159 0.173597 0.285511 0.528280 0.847209 -0.056187
0.185967 0.082952 0.151094 -0.408298 -0.222123 -0.885412
0.185431 0.392477 0.181339 -0.064953 -0.996412 0.054265
0.413806 0.761057 0.346988 -0.508271 -0.835989 -0.206841
0.242093 0.236861 0.533217 0.034215 -0.718004 -0.695198
0.332939 0.777530 0.284475 0.033210 -0.971122 0.236262
0.298191 0.121268 0.432826 0.335340 0.105110 0.936215
0.256085 0.865612 0.299792 0.055309 0.153693 -0.986570
0.091999 0.766356 0.252012 0.472353 -0.867754 0.154553
0.230722 0.025000 0.182747 -0.020635 -0.761026 -0.648393
0.424528 0.548128 0.227374 -0.426940 -0.896293 0.119918
0.224725 0.025000 0.222724 -0.106027 -0.903484 -0.415300
0.189758 0.173597 0.365578 -0.295163 0.803498 0.516982
0.256627 0.919954 0.302844 0.259228 0.195244 -0.945876
0.038891 0.406113 0.264849 0.713144 -0.700503 0.026847
0.279379 0.289649 0.273843 0.522878 -0.026402 -0.851998
0.300389 0.661926 0.194329 -0.187559 -0.979694 -0.070866
0.369293 0.548900 0.170877 0.000345 -0.935254 0.353978
0.435996 0.452845 0.295291 0.426584 0.901040 -0.078436
0.235308 0.665726 0.184229 0.236228 -0.971564 0.016114
0.233272 0.666726 0.421569 0.083976 -0.994184 -0.067425
0.242041 0.240111 0.529744 0.043826 -0.721324 -0.691209
0.136547 0.384733 0.235436 0.240155 -0.962222 -0.128278
0.284670 0.025000 0.313464 0.163120 -0.960783 0.224251
0.269150 0.349815 0.306484 0.403520 -0.680904 0.611181
0.392797 0.026918 0.296319 0.779440 -0.587594 0.217270
0.267090 0.618710 0.276318 0.570906 0.079657 -0.817142
0.349584 0.025000 0.243723 0.646485 -0.751318 -0.132581
0.289798 0.427021 0.284978 0.968831 0.038408 0.244728
0.259003 0.250870 0.278957 -0.876202 0.012278 -0.481788
0.268695 0.488093 0.294865 -0.291183 -0.018533 0.956488
0.184524 0.025000 0.353642 -0.502028 -0.786938 0.358744
0.130628 0.028329 0.333706 -0.775867 -0.606435 0.173977
0.184537 0.558683 0.317440 -0.095855 -0.981679 0.164675
0.398476 0.374696 0.402032 -0.373423 -0.927543 -0.014816
0.278741 0.648327 0.461824 -0.175046 -0.854408 -0.489231
0.464549 0.514700 0.199515 -0.608319 -0.749383 0.261481
0.449899 0.442972 0.288113 -0.527580 -0.843484 0.100964
0.241493 0.663734 0.216096 0.080910 -0.982657 -0.166846
0.241120 0.292636 0.445645 0.000992 -0.967467 -0.252994
0.285051 0.173597 0.244672 0.148791 0.961191 -0.232321
0.170594 0.119694 0.145925 -0.536338 0.091669 -0.839011
0.211405 0.292190 0.430034 0.158872 -0.980975 -0.111569
0.151871 0.778209 0.238084 0.003849 -0.985355 0.170471
0.345398 0.459490 0.352354 -0.221809 0.962518 0.156077
0.269875 0.025000 0.405351 -0.031999 -0.664620 0.746496
0.176737 0.162573 0.432366 -0.316380 0.419165 0.851002
0.120050 0.556381 0.342071 0.242522 -0.969548 0.034059
0.100062 0.363231 0.143572 0.510100 -0.808902 0.292360
0.249526 0.031789 0.144184 0.117314 -0.573469 -0.810784
0.125609 0.173597 0.196118 -0.733635 0.569374 -0.370935
0.088166 0.445951 0.239127 0.465247 -0.872803 0.147510
0.195419 0.076073 0.149862 -0.343174 -0.276006 -0.897804
0.120660 0.143839 0.183540 -0.816290 0.281792 -0.504246
0.423809 0.521168 0.154466 -0.399661 -0.793487 0.458966
0.234754 0.138601 0.454165 -0.038829 0.238329 0.970408
0.246648 0.119087 0.449452 -0.005122 0.084189 0.996437
0.248829 0.874075 0.307127 -0.950403 0.132315 -0.281473
0.268735 0.044958 0.138930 0.212246 -0.489596 -0.845723
0.406065 0.458660 0.347084 -0.149542 -0.966901 -0.206736
0.415477 0.550555 0.264021 -0.264069 -0.960257 -0.090410
0.252326 0.609662 0.514712 -0.046213 -0.692065 -0.720354
0.199234 0.883525 0.215705 -0.069447 -0.983422 0.167506
0.111662 0.851431 0.209817 0.669838 -0.680676 0.296643
0.317837 0.025000 0.238743 0.462574 -0.863013 -0.203062
0.410465 0.553443 0.256759 -0.251149 -0.964514 -0.081468
0.222148 0.653954 0.234627 0.222445 -0.912627 -0.342972
0.353848 0.092965 0.406264 0.605408 -0.135963 0.784216
0.178695 0.173597 0.225161 -0.464791 0.842038 -0.273755
0.230015 0.292234 0.377735 0.061558 -0.991359 0.115835
0.230704 0.058037 0.428184 -0.228229 -0.407405 0.884269
0.214181 0.882754 0.238788 -0.340506 -0.939101 0.046316
0.394981 0.162876 0.180487 0.676806 0.407473 -0.613106
0.314036 0.173597 0.139163 0.223134 0.554109 -0.801982
0.387812 0.536454 0.153025 -0.278699 -0.855203 0.436983
0.175873 0.872833 0.305613 -0.052662 -0.895068 -0.442808
0.091197 0.173597 0.291305 -0.825788 0.542842 0.152959
0.255237 0.081170 0.128413 0.065018 -0.235131 -0.969787
0.400292 0.056872 0.299154 0.888948 -0.414038 0.195814
0.286667 0.025000 0.342130 0.146274 -0.898653 0.413554
0.256289 0.258679 0.508789 -0.112005 -0.792851 -0.599035
0.280506 0.624920 0.493422 -0.180638 -0.802975 -0.567980
0.171451 0.032202 0.390955 -0.587995 -0.581757 0.561979
0.394071 0.864639 0.362094 -0.596481 -0.789141 -0.146516
0.248654 0.273859 0.490362 -0.096514 -0.857541 -0.505280
0.168387 0.119871 0.146614 -0.547772 0.093018 -0.831441
0.342372 0.877495 0.400276 -0.114352 -0.916827 -0.382559
0.325505 0.112516 0.147143 0.441565 0.030095 -0.896724
0.446650 0.513149 0.169457 -0.604865 -0.704074 0.372046
0.293993 0.388911 0.381190 0.116594 -0.992343 0.040755
0.387575 0.466046 0.299449 -0.126366 -0.990031 0.062213
0.245372 0.291722 0.203347 0.082688 -0.976159 -0.200690
0.217925 0.025000 0.404605 -0.337813 -0.650701 0.680052
0.208208 0.658531 0.367860 0.150309 -0.949944 0.273887
0.125157 0.085501 0.365308 -0.843867 -0.200705 0.497599
0.298783 0.173597 0.377791 0.334993 0.795390 0.505108
0.317696 0.070159 0.155847 0.476490 -0.327970 -0.815716
0.269806 0.184300 0.296776 0.726407 -0.027186 0.686727
0.379363 0.558572 0.258168 -0.084990 -0.991377 -0.099745
0.199576 0.173597 0.236767 -0.331589 0.917458 -0.219817
0.421135 0.455739 0.342045 -0.343676 -0.927046 -0.149911
0.184973 0.657820 0.384946 0.211481 -0.964344 0.159114
0.193959 0.025000 0.384091 -0.468972 -0.693647 0.546735
0.380571 0.173597 0.194579 0.607149 0.572416 -0.551100
0.276323 0.173597 0.117215 0.008442 0.521098 -0.853455
0.300030 0.173597 0.203655 0.211048 0.845469 -0.490552
0.243008 0.237461 0.532799 0.030471 -0.718206 -0.695163
0.113503 0.173597 0.374036 -0.647188 0.519629 0.557793
0.199865 0.260361 0.082988 0.251790 -0.851742 0.459496
0.173517 0.173597 0.354870 -0.388746 0.798186 0.460191
0.411705 0.845433 0.380342 -0.669886 -0.707636 -0.224733
0.264884 0.472874 0.274508 -0.722635 -0.035440 -0.690320
0.453235 0.725389 0.338001 -0.735748 -0.670254 -0.097131
0.446430 0.444129 0.279757 -0.510807 -0.851842 0.115937
0.131002 0.119032 0.177593 -0.782960 0.084546 -0.616300
0.285886 0.043240 0.415045 0.098996 -0.521864 0.847265
0.093761 0.507149 0.437906 0.425842 -0.740538 -0.519868
0.302148 0.173597 0.315683 0.299060 0.943219 0.144574
0.358935 0.090811 0.170267 0.693299 -0.156394 -0.703475
0.305153 0.545863 0.265679 0.429186 -0.864878 -0.260357
0.179903 0.383434 0.136270 0.018807 -0.953124 0.301994
0.349091 0.461088 0.335966 0.212660 -0.967439 -0.137247
0.296909 0.291308 0.136451 -0.150837 -0.978750 0.138911
0.295658 0.025000 0.272636 0.279239 -0.960101 -0.015210
0.419599 0.832196 0.391598 -0.689764 -0.632207 -0.352904
0.403729 0.555638 0.249878 -0.229110 -0.970613 -0.073610
0.315274 0.025000 0.285285 0.389510 -0.916949 0.086524
0.349679 0.173597 0.317776 0.580541 0.804649 0.124545
0.424200 0.750813 0.353147 -0.562824 -0.795685 -0.223863
0.335070 0.371031 0.476900 -0.153680 -0.883812 -0.441882
0.451434 0.728198 0.340711 -0.733976 -0.670721 -0.106827
0.209965 0.050192 0.152258 -0.179234 -0.476059 -0.860955
0.131840 0.114153 0.178823 -0.779880 0.043663 -0.624404
0.276412 0.662999 0.217244 -0.149142 -0.961540 -0.230647
0.299371 0.258413 0.498934 -0.201507 -0.849647 -0.487334
0.209177 0.025000 0.348963 -0.352978 -0.860573 0.367180
0.207810 0.884427 0.251797 -0.196049 -0.980441 -0.017336
0.296698 0.025000 0.366601 0.179383 -0.798471 0.574687
0.417929 0.530196 0.166401 -0.390783 -0.804266 0.447710
0.317157 0.058110 0.408766 0.343522 -0.410937 0.844466
0.241621 0.295048 0.433650 0.014620 -0.982240 -0.187056
0.368159 0.127617 0.405802 0.712330 0.153232 0.684914
0.296945 0.287673 0.412424 -0.251117 -0.964365 -0.083310
0.409700 0.367422 0.410661 -0.437390 -0.877202 -0.198007
0.292862 0.289167 0.418515 -0.249972 -0.964122 -0.089349
0.415223 0.109010 0.286182 0.999974 -0.000135 0.007194
0.086074 0.761575 0.308810 0.540989 -0.822668 -0.174777
0.260842 0.321512 0.286179 -0.958090 0.010487 0.286277
0.177854 0.391225 0.170833 -0.033293 -0.990756 0.131508
0.273884 0.517418 0.294426 0.377693 0.024367 0.925610
0.237801 0.173597 0.200479 -0.146858 0.876179 -0.459068
0.252113 0.654093 0.350418 -0.075598 -0.880150 0.468637
0.374033 0.035589 0.339134 0.687108 -0.567115 0.454162
0.349215 0.385782 0.359963 -0.177294 -0.974902 0.134662
0.082030 0.539602 0.352253 0.465436 -0.873936 -0.140019
0.333171 0.382121 0.451764 -0.145467 -0.929184 -0.339788
0.337732 0.456433 0.282402 0.308274 -0.929638 0.201842
0.372489 0.039145 0.217053 0.788601 -0.537478 -0.298706
0.293219 0.173597 0.263881 0.205658 0.969578 -0.132755
0.249376 0.868341 0.305220 -0.886815 0.141677 -0.439871
0.123788 0.035349 0.241992 -0.740515 -0.562599 -0.367587
0.141643 0.173597 0.300550 -0.615511 0.766671 0.182654
0.375334 0.164858 0.413617 0.701666 0.410463 0.582396
0.122298 0.173597 0.260771 -0.729664 0.683264 -0.027217
0.358838 0.883826 0.367768 -0.303802 -0.943293 -0.133804
0.186181 0.555691 0.310659 -0.159306 -0.948747 0.272947
0.335376 0.560812 0.230084 0.123869 -0.992179 0.015408
0.104665 0.551736 0.338561 0.339300 -0.940632 0.009294
0.088461 0.173597 0.262797 -0.845832 0.533392 0.007853
0.157765 0.173597 0.140008 -0.571367 0.495116 -0.654522
0.485695 0.410699 0.350399 -0.652305 -0.735187 -0.184387
0.221899 0.235703 0.531778 0.083337 -0.736629 -0.671143
0.412023 0.448334 0.251670 -0.216922 -0.941491 0.257952
0.156108 0.556414 0.302865 -0.018034 -0.966241 0.257009
0.117173 0.864039 0.241083 0.628679 -0.772969 0.085330
0.343719 0.766716 0.253881 0.104568 -0.924068 0.367646
0.302907 0.771632 0.320198 0.402678 -0.915207 -0.015676
0.281794 0.498398 0.290007 0.846362 0.033165 0.531574
0.226943 0.657649 0.228987 0.223632 -0.923167 -0.312652
0.171796 0.173597 0.275505 -0.458117 0.888713 0.017846
0.368438 0.553352 0.286600 0.038294 -0.965314 -0.258268
0.127874 0.072699 0.362688 -0.835405 -0.302750 0.458739
0.376274 0.876980 0.339035 -0.334914 -0.922933 0.189810
0.267591 0.621994 0.501265 -0.148766 -0.773996 -0.615467
0.378751 0.776281 0.349966 -0.201540 -0.949805 -0.239272
0.103988 0.168876 0.202042 -0.827405 0.457938 -0.325107
0.262162 0.296216 0.148445 -0.008401 -0.996046 0.088446
0.245648 0.665741 0.413869 -0.035720 -0.992383 -0.117901
0.353219 0.025000 0.302055 0.598344 -0.766974 0.231810
0.237095 0.110144 0.446869 -0.088594 0.009478 0.996023
0.167633 0.537653 0.432344 0.058275 -0.910859 -0.408584
0.194563 0.266743 0.488932 0.186343 -0.860990 -0.473258
0.272324 0.292762 0.202482 -0.059903 -0.983981 -0.167907
0.451768 0.724837 0.343467 -0.732337 -0.667401 -0.135125
0.261480 0.281412 0.468300 -0.103880 -0.913284 -0.393855
0.255690 0.169906 0.277161 -0.787363 0.020990 -0.616132
0.120583 0.554411 0.316566 0.196379 -0.976999 0.083120
0.395410 0.168613 0.375597 0.802187 0.454155 0.387607
0.409384 0.461302 0.326873 -0.229209 -0.968260 -0.099679
0.262230 0.894603 0.302494 0.827936 0.140643 -0.542902
0.085883 0.447213 0.277266 0.473230 -0.874955 -0.102503
0.248038 0.746059 0.293443 -0.819760 0.052801 -0.570267
0.402935 0.855103 0.373437 -0.644555 -0.741311 -0.187099
0.263772 0.649205 0.462270 -0.136000 -0.874180 -0.466168
0.252419 0.238914 0.531198 -0.014034 -0.724877 -0.688735
0.275780 0.659647 0.427824 -0.274615 -0.954208 -0.118632
0.307659 0.549009 0.192425 0.315433 -0.931046 0.183455
0.356745 0.557181 0.194549 0.069980 -0.963194 0.259539
0.427122 0.533094 0.178160 -0.438313 -0.783337 0.440754
0.287090 0.108870 0.129073 0.211515 -0.001348 -0.977374
0.221630 0.284611 0.119731 0.183380 -0.920569 0.344854
0.155150 0.173597 0.292584 -0.546845 0.827424 0.127789
0.376510 0.863313 0.403896 -0.409225 -0.797891 -0.442611
0.267312 0.261604 0.504236 -0.135244 -0.816036 -0.561955
0.312146 0.553307 0.240491 0.346718 -0.934757 -0.077566
0.290050 0.025000 0.244890 0.277460 -0.940801 -0.194703
0.256619 0.253831 0.515311 -0.100206 -0.778004 -0.620216
0.358497 0.465061 0.292791 -0.108940 0.990017 -0.089437
0.326845 0.553437 0.264047 0.233864 -0.940475 -0.246607
0.232776 0.243733 0.528115 0.011088 -0.732224 -0.680973
0.255883 0.681827 0.303917 -0.129999 -0.061715 0.989592
0.226698 0.173597 0.247192 -0.164553 0.970924 -0.173866
0.120156 0.383914 0.202268 0.304346 -0.951405 -0.046937
0.206010 0.662875 0.415182 0.169637 -0.982069 -0.082240
0.300605 0.386774 0.437193 0.061704 -0.979442 -0.192057
0.371649 0.025000 0.233103 0.755530 -0.634146 -0.164420
0.208199 0.555233 0.334142 -0.299414 -0.946748 0.118402
0.191940 0.552139 0.393875 -0.096156 -0.952675 -0.288381
0.181006 0.173597 0.127766 -0.467455 0.485689 -0.738642
0.274265 0.173597 0.316236 0.138701 0.977116 0.161262
0.248649 0.296105 0.411415 -0.001977 -0.999998 0.000480
0.433005 0.454974 0.304937 0.398108 0.915563 -0.057043
0.255700 0.025000 0.308724 -0.009943 -0.987551 0.156985
0.189094 0.649013 0.454025 0.241407 -0.902093 -0.357702
0.204263 0.661273 0.425467 0.190572 -0.972390 -0.134685
0.319520 0.547636 0.177320 0.217965 -0.945330 0.242576
0.337301 0.173597 0.236755 0.447890 0.831666 -0.328216
0.251776 0.645946 0.276160 -0.415056 0.033584 -0.909176
0.383881 0.064282 0.230017 0.883517 -0.370797 -0.286196
0.387939 0.138338 0.372520 0.850130 0.242617 0.467350
0.330523 0.173597 0.178319 0.354470 0.684116 -0.637445
0.356976 0.040682 0.184199 0.699283 -0.518858 -0.491722
0.353737 0.457725 0.266782 0.143682 -0.947465 0.285770
0.224227 0.173597 0.217816 -0.209211 0.914229 -0.347010
0.215229 0.389069 0.167614 -0.095039 -0.990400 0.100378
0.380802 0.458990 0.356406 -0.044143 -0.983209 -0.177066
0.109406 0.046931 0.263932 -0.848423 -0.478297 -0.226740
0.100135 0.173597 0.227060 -0.829562 0.526749 -0.185372
0.400931 0.524310 0.143821 -0.306494 -0.832991 0.460639
0.217093 0.664195 0.424143 0.161968 -0.979996 -0.115649
0.224202 0.279429 0.104890 0.186865 -0.892288 0.410979
0.324473 0.779415 0.335272 0.132303 -0.987902 -0.080906
0.465812 0.434525 0.331652 -0.631680 -0.768952 -0.098450
0.354115 0.173597 0.278785 0.570826 0.814900 -0.100479
0.093628 0.158831 0.332595 -0.842528 0.394559 0.366701
0.104011 0.173597 0.238564 -0.814404 0.565449 -0.130438
0.309447 0.025000 0.172578 0.461043 -0.657235 -0.596223
0.252183 0.278075 0.236140 0.018567 -0.882974 -0.469055
0.361711 0.872588 0.301504 -0.143998 -0.922098 0.359165
0.274033 0.598350 0.287527 0.987558 0.058322 0.146040
0.297573 0.654128 0.415192 -0.287907 -0.946383 -0.146523
0.307780 0.113849 0.427537 0.384518 0.041859 0.922168
0.247670 0.810439 0.303842 -0.948317 0.076543 -0.307954
0.129995 0.157933 0.156406 -0.718823 0.368647 -0.589400
0.414643 0.165792 0.335344 0.882940 0.436238 0.173533
0.249462 0.285519 0.349141 -0.004940 -0.914432 0.404708
0.270375 0.381494 0.272561 -0.724380 -0.024103 -0.688980
0.087807 0.111790 0.268559 -0.996635 0.023297 -0.078590
0.408566 0.369395 0.400822 -0.395499 -0.917464 -0.042901
0.193240 0.173597 0.439341 -0.197786 0.503456 0.841078
0.307869 0.552947 0.236690 0.378911 -0.924337 -0.045036
0.333993 0.384178 0.340413 -0.081019 -0.954211 0.287952
0.235098 0.173597 0.440459 0.017514 0.567309 0.823319
0.268454 0.173597 0.398097 0.175554 0.750656 0.636943
0.445294 0.522385 0.183125 -0.552416 -0.737136 0.389189
0.370941 0.380764 0.426362 -0.318582 -0.923068 -0.215524
0.262712 0.175253 0.276581 -0.291240 0.011238 -0.956584
0.208632 0.378016 0.257297 -0.218440 -0.910494 -0.351119
0.347890 0.553811 0.184488 0.056986 -0.953835 0.294875
0.361501 0.465277 0.298466 -0.126119 0.990934 -0.046310
0.127130 0.870402 0.232848 0.532071 -0.840365 0.103375
0.145580 0.173597 0.315232 -0.584954 0.766847 0.264148
0.399483 0.464212 0.298204 -0.214873 -0.974646 0.062415
0.198241 0.069701 0.150706 -0.309209 -0.328055 -0.892620
0.466568 0.435034 0.319172 -0.663544 -0.745648 -0.060980
0.149851 0.535654 0.433112 0.146513 -0.874044 -0.463229
0.400602 0.760874 0.372112 -0.413215 -0.862894 -0.290976
0.263617 0.289654 0.117615 0.007078 -0.957039 0.289872
0.330121 0.173597 0.151954 0.320068 0.574739 -0.753148
0.342351 0.173597 0.263966 0.498607 0.848490 -0.177358
0.195924 0.659247 0.388303 0.202007 -0.967478 0.152252
0.187578 0.648221 0.454403 0.240093 -0.901569 -0.359901
0.251146 0.025000 0.332003 -0.065186 -0.951264 0.301410
0.292088 0.382265 0.450535 0.066048 -0.970574 -0.231568
0.226821 0.173597 0.152645 -0.238513 0.670744 -0.702292
0.465627 0.434085 0.295999 -0.582393 -0.808333 0.086123
0.296710 0.056205 0.415066 0.204749 -0.433770 0.877452
0.288698 0.864558 0.313398 0.507671 -0.764126 0.397972
0.373804 0.050822 0.348677 0.725102 -0.472278 0.501179
0.377720 0.537884 0.150893 -0.115589 -0.899838 0.420632
0.199277 0.279583 0.468652 0.163960 -0.903069 -0.396967
0.257323 0.646847 0.338800 -0.080969 -0.842439 0.532673
0.365397 0.781833 0.303962 -0.194985 -0.974043 0.114979
0.435920 0.445915 0.264090 -0.285675 -0.918164 0.274526
0.143998 0.025000 0.318152 -0.702084 -0.706203 0.091407
0.135664 0.374723 0.134239 0.248722 -0.896754 0.366020
0.257660 0.289557 0.452199 -0.088371 -0.947164 -0.308336
0.337392 0.886998 0.367012 0.032717 -0.992245 -0.119916
0.256343 0.195796 0.295813 -0.544911 0.047806 0.837130
0.370926 0.058844 0.195855 0.788115 -0.401924 -0.466188
0.234410 0.116742 0.447492 -0.090280 0.065035 0.993791
0.247890 0.025000 0.417565 -0.169229 -0.623501 0.763288
0.246843 0.077329 0.132300 0.014173 -0.268929 -0.963056
0.236926 0.656155 0.140776 0.155723 -0.914803 0.372673
0.312253 0.881451 0.388469 0.086366 -0.977204 -0.193943
0.131853 0.458644 0.227188 0.137744 -0.971861 0.191082
0.350796 0.377011 0.456260 -0.188081 -0.912792 -0.362542
0.263652 0.867329 0.304481 0.950671 0.109611 -0.290191
0.153329 0.025000 0.328051 -0.661816 -0.731574 0.163701
