0.642057 0.496355 0.495515 -0.332915 -0.942781 -0.018177
0.471271 0.526118 0.546613 -0.735573 -0.335004 -0.588816
0.388088 0.695962 0.731592 0.466960 -0.754664 -0.460903
0.328199 0.210776 0.475102 -0.985141 -0.161381 -0.058760
0.499876 0.333138 0.495173 0.673058 0.271903 -0.687795
0.471786 0.478135 0.504560 0.656271 -0.746594 0.109115
0.647396 0.671875 0.169115 -0.872483 -0.487532 -0.032956
0.747369 0.897506 0.376662 -0.550551 -0.531064 0.644100
0.458352 0.587065 0.436190 0.612034 -0.648236 0.452995
0.803574 0.641973 0.415474 -0.483859 -0.864299 0.137359
0.272224 0.665246 0.538514 0.468049 -0.881301 -0.065110
0.805331 0.667240 0.673798 -0.946434 -0.213200 0.242504
0.174586 0.812209 0.730241 0.310860 -0.870877 -0.380708
0.684955 0.299230 0.438713 -0.962630 0.049438 0.266269
0.575226 0.448626 0.438632 0.263000 -0.851147 -0.454291
0.494791 0.335330 0.363426 -0.004063 0.962648 -0.270724
0.340788 0.513646 0.435709 0.269584 -0.039094 0.962183
0.604566 0.714549 0.745777 -0.154907 -0.705924 -0.691140
0.700646 0.730749 0.096843 -0.840647 -0.425213 -0.335422
0.503834 0.654942 0.282642 -0.242210 -0.904849 0.350118
0.473909 0.502157 0.536073 0.487856 0.014734 0.872800
0.488537 0.197387 0.322989 -0.014358 -0.143786 -0.989505
0.572164 0.335431 0.571536 0.174104 0.966808 0.187004
0.766611 0.778728 0.313734 -0.506809 -0.748574 0.427530
0.493999 0.338449 0.503609 0.958459 -0.250475 -0.136447
0.687585 0.298234 0.453436 -0.979089 0.072084 0.190234
0.619549 0.320293 0.332329 -0.634475 -0.007006 0.772911
0.537216 0.559959 0.476364 -0.345935 -0.852486 0.391914
0.534887 0.445294 0.540421 -0.595368 -0.402093 -0.695599
0.574355 0.766980 0.865420 0.781535 -0.460948 -0.420392
0.514670 0.542440 0.767257 0.611549 -0.596559 -0.519735
0.639188 0.309173 0.576213 0.435441 -0.845780 0.308296
0.245290 0.784699 0.539177 0.900435 -0.296073 -0.318682
0.288610 0.707104 0.593049 0.906146 -0.395776 0.149199
0.617324 0.413293 0.449951 -0.227004 -0.945427 0.233747
0.510548 0.478894 0.347082 -0.650693 0.668641 0.359885
0.621612 0.621178 0.370417 0.110049 -0.690624 0.714792
0.501766 0.300843 0.489874 -0.723953 -0.148822 0.673605
0.605244 0.681397 0.674429 -0.005912 -0.907654 -0.419677
0.353696 0.288600 0.610078 -0.766214 -0.010462 0.642500
0.376900 0.816703 0.854584 -0.575687 -0.415455 -0.704260
0.346106 0.303125 0.488860 -0.303423 -0.952853 -0.002267
0.489833 0.567747 0.471562 -0.264338 -0.788975 -0.554657
0.492026 0.136302 0.638083 0.008088 -0.135089 0.990800
0.749785 0.810630 0.484835 -0.492907 -0.723818 -0.482836
0.363130 0.840076 0.080424 0.808714 -0.288793 0.512425
0.710228 0.900142 0.319763 -0.712651 -0.306257 0.631138
0.318721 0.275695 0.410652 -0.397495 -0.894643 -0.203991
0.459534 0.144494 0.636090 -0.196443 -0.135056 0.971169
0.573019 0.335478 0.633525 0.177711 0.930655 0.319843
0.389609 0.314015 0.654364 0.519903 -0.066868 -0.851604
0.649881 0.291736 0.382476 0.866688 0.078257 -0.492674
0.527533 0.025060 0.427999 0.000007 1.000000 -0.000852
0.466210 0.747009 0.281050 0.664968 -0.562061 -0.491838
0.583824 0.536437 0.440953 -0.660490 -0.347476 0.665593
0.309187 0.348765 0.410244 0.918879 0.005927 0.394495
0.514342 0.276963 0.682141 -0.152998 0.206192 -0.966476
0.448260 0.335532 0.577706 -0.082105 0.973935 0.211444
0.659097 0.718641 0.880383 -0.262214 -0.337228 -0.904169
0.565879 0.501351 0.442701 0.624214 -0.266942 -0.734233
0.588123 0.275640 0.339617 0.436092 -0.679471 -0.590037
0.539556 0.302933 0.436084 0.101980 -0.989360 -0.103767
0.777976 0.756775 0.324384 0.241752 -0.957644 -0.156440
0.726153 0.607821 0.557532 0.351863 -0.933521 -0.068784
0.671516 0.744666 0.384888 0.652813 -0.075952 0.753702
0.399700 0.360538 0.659801 0.275525 -0.753681 -0.596700
0.497326 0.722021 0.564018 0.994692 -0.067160 0.077961
0.321491 0.565030 0.634145 0.155494 -0.937425 -0.311538
0.576681 0.624899 0.239655 0.559117 -0.753953 -0.344881
0.477981 0.320476 0.316779 -0.077902 0.207823 -0.975059
0.280620 0.536775 0.374312 0.471163 -0.858645 0.201826
0.297165 0.327911 0.509201 0.987430 0.094687 -0.126557
0.655560 0.772654 0.286338 -0.788724 -0.277446 0.548578
0.499029 0.751346 0.575098 0.815079 -0.288518 0.502398
0.381521 0.565616 0.553563 0.842659 -0.426899 0.328151
0.423644 0.443890 0.364239 -0.071858 -0.909245 0.410012
0.598027 0.766728 0.740412 0.045112 -0.510979 -0.858409
0.572104 0.302968 0.512427 0.163434 -0.984099 0.069552
0.504153 0.629172 0.565490 -0.376136 -0.804565 -0.459562
0.573108 0.709496 0.759003 0.410304 0.574920 -0.707897
0.363829 0.326483 0.334003 0.646087 -0.137857 0.750711
0.376334 0.025140 0.528301 -0.299428 -0.933568 0.196962
0.336139 0.656426 0.252069 -0.209346 -0.834444 0.509782
0.464255 0.025118 0.501437 0.000009 1.000000 -0.000772
0.535979 0.257172 0.321350 0.263268 -0.459420 -0.848306
0.519739 0.335281 0.325885 0.043040 0.934579 -0.353142
0.610224 0.607691 0.419960 0.151661 -0.410203 -0.899295
0.616779 0.275721 0.330057 -0.572531 0.124997 0.810299
0.380340 0.645445 0.822396 0.334580 -0.787101 -0.518198
0.648098 0.278713 0.379172 0.861260 0.117053 -0.494499
0.637306 0.244386 0.566052 0.821746 -0.311188 0.477384
0.565505 0.318590 0.669945 -0.370642 0.032661 -0.928201
0.544664 0.381128 0.451363 -0.866314 0.499051 0.021183
0.504402 0.492639 0.663905 -0.134819 -0.945702 -0.295754
0.493158 0.519000 0.603653 -0.463534 -0.386836 -0.797179
0.643109 0.292896 0.356026 -0.731399 0.074482 0.677870
0.360256 0.757899 0.206679 0.859470 -0.401400 0.316527
0.716598 0.860862 0.464432 -0.755298 -0.605304 -0.251259
0.740327 0.736973 0.360589 -0.563029 -0.625369 0.540288
0.375301 0.411841 0.436006 0.515248 -0.846359 0.134895
0.616352 0.641047 0.379338 -0.998977 -0.024023 -0.038319
0.462502 0.288899 0.670411 -0.196456 0.054998 0.978969
0.723874 0.748677 0.383083 -0.347014 -0.936528 -0.049970
0.629483 0.507803 0.375449 0.027894 -0.989925 0.138816
0.512999 0.330742 0.464852 0.506210 0.097586 0.856871
0.578762 0.774213 0.685965 -0.247419 -0.632297 0.734155
0.436673 0.556543 0.423772 -0.987092 0.101899 0.123551
0.431872 0.640685 0.528542 0.404715 -0.580851 -0.706271
0.797503 0.767525 0.270135 -0.991012 -0.064990 0.116925
0.513689 0.196694 0.644092 0.137684 -0.141474 0.980321
0.342400 0.677824 0.693435 0.737147 -0.639191 -0.219202
0.522098 0.575062 0.512954 -0.201930 -0.880152 0.429600
0.583418 0.210243 0.619442 0.557143 -0.159324 0.814989
0.548510 0.531949 0.476397 -0.368670 -0.844478 0.388509
0.410587 0.515252 0.325913 -0.857209 -0.467104 0.216809
0.617888 0.360291 0.341091 0.700256 -0.271027 -0.660444
0.616429 0.514217 0.417048 0.773438 -0.576851 -0.262748
0.319157 0.343111 0.414262 -0.927716 -0.141278 -0.345519
0.072672 0.459328 0.138782 0.962805 -0.233202 -0.136469
0.607331 0.798171 0.809821 -0.509366 0.014836 -0.860422
0.455348 0.335413 0.430394 -0.079897 0.989717 -0.118642
0.662104 0.269788 0.479011 0.810855 -0.585224 0.005180
0.172646 0.634245 0.288110 0.397995 -0.703974 0.588235
0.591711 0.699916 0.656935 0.289185 0.052268 -0.955845
0.614877 0.814662 0.138436 -0.394289 -0.615116 0.682765
0.438778 0.232024 0.642026 -0.310208 -0.189494 0.931592
0.516804 0.321835 0.469322 -0.732702 0.495968 0.466007
0.493310 0.579142 0.468188 0.305049 -0.891065 -0.336078
0.420787 0.458958 0.401435 -0.242835 -0.626436 0.740682
0.498053 0.302875 0.319502 0.025168 -0.932064 -0.361419
0.648413 0.335321 0.508024 0.325978 0.944639 0.037351
0.677990 0.343969 0.464895 0.987664 -0.104065 -0.117005
0.357465 0.333751 0.377254 -0.310992 0.917002 -0.249782
0.559039 0.845069 0.872043 0.337201 -0.114781 -0.934409
0.602656 0.633771 0.612790 -0.250384 -0.674870 -0.694160
0.226409 0.522845 0.319993 -0.191900 0.389474 0.900824
0.421042 0.536680 0.442384 0.690429 -0.498533 0.524187
0.605371 0.275652 0.355454 0.526852 -0.654631 -0.542111
0.675467 0.672790 0.132746 -0.912191 -0.229839 -0.339237
0.608590 0.302939 0.512454 0.238780 -0.968387 0.072189
0.465234 0.368764 0.427816 -0.033852 0.516051 0.855889
0.205246 0.790712 0.501785 0.371769 -0.927435 0.040638
0.551626 0.601526 0.648091 -0.764400 -0.465865 -0.445716
0.604332 0.712134 0.661065 0.168199 0.127779 -0.977436
0.623638 0.780387 0.459864 -0.408204 -0.490909 0.769661
0.620804 0.655036 0.369687 -0.994869 -0.079598 0.062451
0.397008 0.118439 0.602174 -0.618061 -0.135706 0.774329
0.850891 0.754467 0.279163 -0.750891 -0.572867 0.328613
0.566743 0.249360 0.334352 0.436615 -0.371333 -0.819438
0.654071 0.734792 0.307516 0.820550 -0.427632 -0.379248
0.392049 0.741202 0.852484 0.347357 -0.574113 0.741443
0.481342 0.284024 0.672331 -0.120283 0.172593 0.977621
0.654104 0.695625 0.459309 -0.288266 0.540191 -0.790631
0.383079 0.727329 0.878317 0.822320 -0.568935 -0.010089
0.317245 0.358896 0.420464 -0.931178 -0.211633 -0.296848
0.937105 0.758905 0.396945 -0.090710 0.063014 -0.993882
0.570234 0.441966 0.412639 -0.307425 -0.951400 -0.018130
0.500036 0.469451 0.352685 -0.160345 0.680423 0.715062
0.595468 0.595820 0.434981 -0.351271 -0.934546 -0.056855
0.452610 0.337026 0.680180 0.216221 -0.103373 -0.970857
0.382082 0.303120 0.518256 -0.233108 -0.970183 0.066374
0.337897 0.275430 0.367293 0.845953 0.491278 0.207389
0.257294 0.852738 0.500095 0.434425 -0.531164 -0.727420
0.173150 0.516801 0.197948 0.989119 -0.146817 -0.009428
0.842213 0.841389 0.430925 -0.664098 -0.652658 0.364708
0.463690 0.379368 0.548884 0.529981 0.564063 -0.633208
0.639024 0.805906 0.670747 -0.222566 -0.382492 -0.896752
0.336143 0.303315 0.408486 -0.317767 -0.930665 -0.181348
0.491985 0.504896 0.352329 -0.527344 -0.503546 0.684360
0.410502 0.025149 0.540453 -0.050472 -0.997033 0.058112
0.691720 0.568821 0.410791 -0.295683 -0.930975 0.214144
0.490472 0.640314 0.668341 -0.749233 -0.268673 -0.605363
0.510636 0.716670 0.220665 -0.237967 -0.858597 0.454073
0.523800 0.531382 0.573524 0.013007 0.391278 -0.920180
0.723023 0.754625 0.355558 -0.786826 -0.404290 0.466321
0.453991 0.590940 0.388021 -0.570729 -0.425238 -0.702454
0.504203 0.583513 0.523645 -0.862490 -0.094540 0.497166
0.398794 0.436130 0.499294 0.802946 0.575763 -0.154194
0.789534 0.744095 0.369491 0.597050 -0.679809 -0.425900
0.732655 0.820051 0.476905 -0.690498 -0.671186 -0.269670
0.579531 0.523053 0.458492 -0.077335 -0.991903 0.100733
0.328082 0.321626 0.543177 -0.877307 0.337834 0.340881
0.567502 0.335394 0.518406 0.161094 0.984547 0.068672
0.583508 0.452687 0.338695 -0.430355 -0.784884 0.445816
0.479076 0.081225 0.339880 -0.082028 -0.157439 -0.984116
0.438112 0.303079 0.520449 -0.116073 -0.990276 0.076682
0.458900 0.335505 0.553059 -0.062211 0.985879 0.155474
0.450182 0.451623 0.382249 -0.240527 -0.933201 0.266988
0.526396 0.442031 0.421059 -0.555736 -0.830314 0.041668
0.487162 0.303139 0.647191 -0.024229 -0.933396 0.358030
0.882715 0.683368 0.731350 -0.670705 0.141480 -0.728106
0.481109 0.579346 0.556333 -0.450367 -0.596276 0.664549
0.483223 0.484546 0.682360 -0.006522 -0.920001 -0.391861
0.545714 0.665780 0.235162 -0.554536 -0.529694 0.641806
0.794633 0.827331 0.472291 -0.249988 -0.529341 -0.810743
0.335336 0.777066 0.158674 -0.037455 -0.535159 0.843920
0.552837 0.781802 0.668881 -0.420241 -0.647626 -0.635593
0.407693 0.608788 0.766169 0.152048 -0.907193 -0.392279
0.624273 0.338167 0.336247 -0.672961 -0.060078 0.737234
0.554182 0.025040 0.401753 0.062623 -0.993122 -0.098926
0.331857 0.522306 0.462639 0.134346 -0.319699 -0.937947
0.202781 0.515764 0.319533 -0.155260 0.551633 0.819510
0.255265 0.818648 0.532582 0.782364 -0.493869 -0.379473
0.577988 0.628288 0.623339 0.401525 -0.271435 -0.874701
0.152775 0.761795 0.563190 0.011243 -0.587181 0.809378
0.342559 0.757801 0.929907 0.953978 -0.209098 0.214949
0.503906 0.058289 0.343140 0.071021 -0.254501 -0.964461
0.173672 0.753896 0.407715 0.785934 -0.408644 0.464024
0.373591 0.303100 0.483372 -0.247229 -0.968883 -0.011999
0.786757 0.846914 0.338941 0.347077 -0.748597 0.564924
0.645811 0.335306 0.484660 0.318351 0.947877 -0.013505
0.524162 0.644398 0.788432 -0.097089 -0.875660 -0.473067
0.801060 0.786932 0.312382 -0.805274 -0.075122 0.588125
0.393899 0.653632 0.431259 -0.023622 -0.705738 0.708079
0.526044 0.025193 0.597020 0.091537 -0.972390 0.214661
0.354187 0.605938 0.336610 0.125205 -0.901149 0.415036
0.576824 0.600333 0.667812 0.051867 -0.914681 -0.400834
0.574541 0.547718 0.546960 -0.051709 -0.774942 -0.629913
0.527608 0.495061 0.602267 0.355292 -0.561160 -0.747574
0.724170 0.863781 0.514620 -0.532272 -0.592929 0.604252
0.215927 0.844835 0.765705 0.726067 -0.584777 -0.361749
0.294108 0.700053 0.565849 0.862122 -0.419013 0.284911
0.528489 0.697140 0.648938 -0.325767 -0.915272 -0.236965
0.554434 0.570063 0.644831 -0.372481 -0.463967 0.803737
0.094291 0.703194 0.265181 0.504138 -0.819622 0.272147
0.357399 0.030021 0.521428 -0.859383 -0.446030 0.250037
0.449200 0.739971 0.342223 0.874198 -0.258268 0.411188
0.453024 0.734443 0.333090 0.866524 -0.208536 0.453484
0.552673 0.438259 0.441611 0.129310 0.094364 0.987104
0.546844 0.425646 0.605899 0.653943 -0.615991 -0.439220
0.185953 0.779987 0.739336 0.520268 -0.680264 0.516297
0.684908 0.793166 0.858272 0.042623 -0.043133 -0.998160
0.494290 0.344099 0.284910 -0.021380 -0.077807 0.996739
0.760348 0.856901 0.498127 -0.602996 -0.735070 0.309946
0.485002 0.159862 0.328493 -0.037102 -0.136919 -0.989887
0.413069 0.602628 0.692841 0.568107 -0.714394 -0.408528
0.359112 0.601697 0.235148 -0.716921 -0.519581 0.464822
0.424685 0.505434 0.619433 0.690572 -0.698944 -0.185979
0.423995 0.025038 0.399212 -0.103461 -0.985034 -0.137851
0.485318 0.290379 0.475103 -0.718460 -0.128774 0.683544
0.339500 0.335553 0.497067 -0.313220 0.948855 0.039577
0.367969 0.480595 0.641516 0.497524 -0.856405 0.137986
0.390069 0.566886 0.505157 -0.787207 -0.308134 -0.534190
0.495158 0.671587 0.556326 -0.235331 -0.841064 -0.487063
0.510306 0.729445 0.699076 -0.481304 -0.872290 0.086347
0.536183 0.919439 0.714627 0.706112 0.036807 -0.707143
0.528922 0.356133 0.465954 -0.199296 -0.259491 -0.944958
0.727602 0.652231 0.548279 -0.729657 0.071068 -0.680110
0.458410 0.454267 0.433109 0.295424 -0.926805 -0.231857
0.844757 0.777837 0.329725 -0.200473 -0.600148 0.774360
0.378906 0.335550 0.531762 -0.230098 0.966494 0.113768
0.615969 0.607988 0.413362 -0.320002 -0.945588 -0.058840
0.601598 0.592281 0.355171 -0.064036 -0.751976 0.656073
0.345166 0.145138 0.434689 -0.938199 -0.136575 -0.318009
0.495653 0.335392 0.443570 0.004549 0.995725 -0.092254
0.517024 0.246744 0.318609 0.164403 -0.340801 -0.925649
0.353804 0.477853 0.589935 0.257431 -0.865911 -0.428868
0.603113 0.765153 0.741811 0.028317 -0.525458 -0.850348
0.385012 0.242564 0.355123 -0.593596 -0.292518 -0.749718
0.401516 0.103516 0.603278 -0.594446 -0.143646 0.791201
0.195841 0.667456 0.376799 0.786485 0.355029 -0.505367
0.430023 0.303052 0.478286 -0.129293 -0.991437 -0.018305
0.624525 0.702249 0.833678 -0.270572 -0.412980 -0.869619
0.482819 0.390501 0.503441 -0.088185 0.309667 -0.946747
0.480666 0.338684 0.514640 -0.041464 -0.536815 0.842680
0.443055 0.448950 0.393328 -0.946546 -0.193995 0.257713
0.499205 0.319466 0.504241 0.028968 0.335512 -0.941590
0.410761 0.289892 0.303153 0.423619 0.216792 0.879516
0.434422 0.547946 0.426890 0.778044 -0.446008 0.442408
0.501657 0.535722 0.556858 0.543170 -0.839590 -0.007388
0.522772 0.549708 0.548801 0.115613 -0.309607 -0.943810
0.093908 0.460204 0.188515 0.974776 0.160896 -0.154675
0.429974 0.594659 0.551460 -0.111336 -0.045628 -0.992735
0.717910 0.837923 0.260780 -0.838125 -0.251179 0.484206
0.421878 0.420724 0.506304 0.682036 -0.721267 -0.120832
0.476530 0.629833 0.683993 -0.675717 -0.172476 -0.716700
0.435482 0.469878 0.469419 0.110643 -0.281593 -0.953134
0.096904 0.688436 0.245339 0.499009 -0.720858 0.480992
0.616834 0.672091 0.269989 -0.423031 -0.905775 0.024802
0.667629 0.816337 0.102884 -0.532562 -0.528172 0.661371
0.356145 0.772190 0.524462 0.328161 -0.380776 -0.864477
0.520789 0.726453 0.705238 -0.500390 -0.865490 0.023183
0.751741 0.744425 0.501713 0.150186 -0.122519 -0.981037
0.513355 0.475149 0.428101 0.164672 -0.550518 -0.818421
0.506873 0.507343 0.628527 -0.943533 -0.028822 -0.330023
0.648722 0.724218 0.307871 0.784388 -0.410088 -0.465363
0.589474 0.462596 0.431562 0.295937 -0.790609 -0.536059
0.537038 0.448067 0.416586 -0.753882 -0.616448 0.227276
0.385271 0.025146 0.536058 -0.223459 -0.960495 0.165877
0.316327 0.702510 0.514432 0.708253 -0.631805 -0.314961
0.495760 0.579820 0.391907 0.192714 -0.571687 -0.797518
0.560285 0.521640 0.455560 -0.550726 -0.814997 0.180225
0.308794 0.727304 0.630867 0.341337 -0.661500 -0.667763
0.414646 0.609290 0.768143 0.115264 -0.904029 -0.411638
0.620013 0.756986 0.444526 -0.422402 -0.310805 0.851455
0.467173 0.598997 0.359572 0.076433 -0.972654 0.219323
0.400624 0.502695 0.426426 0.661088 0.740145 -0.123076
0.510399 0.345177 0.297391 0.085875 -0.097793 -0.991495
0.609121 0.440303 0.484497 -0.256396 -0.948406 0.186511
0.379891 0.584619 0.260210 -0.821555 -0.458186 0.339284
0.336538 0.303142 0.502391 -0.323832 -0.945743 0.026525
0.186979 0.446186 0.276947 0.617195 0.298232 0.728099
0.341969 0.113493 0.470185 -0.986244 -0.136411 -0.093354
0.632308 0.658234 0.791024 -0.260699 -0.438699 -0.859988
0.592231 0.572227 0.576136 0.054993 -0.718812 -0.693026
0.504415 0.299505 0.490219 -0.744740 0.125112 -0.655522
0.783672 0.853633 0.354488 0.047406 -0.501358 -0.863940
0.611899 0.636157 0.410172 -0.985955 -0.051048 -0.159020
0.393837 0.060930 0.379959 -0.664416 -0.275286 -0.694815
0.556880 0.687918 0.669120 0.962247 -0.134471 -0.236640
0.434331 0.335388 0.378278 -0.127338 0.964200 -0.232602
0.415845 0.534264 0.578350 0.563631 -0.492608 -0.663067
0.380093 0.341740 0.334447 -0.619661 0.033886 -0.784137
0.509115 0.788283 0.181494 -0.097646 -0.915973 0.389178
0.211169 0.793318 0.487961 0.391631 -0.920120 0.001904
0.348647 0.114188 0.437667 -0.941631 -0.136577 -0.307697
0.424989 0.085644 0.614988 -0.440635 -0.171060 0.881237
0.692211 0.594276 0.524343 0.585869 -0.796862 -0.147540
0.413814 0.622026 0.548083 -0.635484 -0.535806 -0.555942
0.362185 0.113443 0.407978 -0.851737 -0.136597 -0.505851
0.309796 0.314176 0.560795 0.924666 -0.000014 -0.380779
0.517935 0.302937 0.418738 0.058092 -0.987889 -0.143875
0.492456 0.319127 0.284793 0.019464 -0.003759 0.999803
0.251270 0.838705 0.763274 0.740772 -0.632961 -0.224983
0.370839 0.025143 0.530621 -0.485837 -0.836273 0.254184
0.483060 0.354539 0.484948 -0.642507 -0.162931 0.748758
0.359485 0.705359 0.289488 0.995851 -0.085415 0.031393
0.444706 0.438690 0.467648 -0.379864 0.182491 0.906863
0.323382 0.331800 0.586679 0.866896 -0.000382 -0.498489
0.445926 0.025157 0.551354 -0.188869 0.904815 0.381626
0.588978 0.273903 0.343095 0.471133 -0.625564 -0.621854
0.281925 0.592397 0.534231 0.420824 -0.893404 0.157279
0.324895 0.303158 0.511382 -0.347353 -0.936654 0.045002
0.514451 0.530792 0.539784 -0.268891 -0.883603 -0.383332
0.321278 0.272493 0.509020 -0.788676 -0.609854 0.077903
0.626050 0.665226 0.428350 0.169148 -0.401683 -0.900022
0.490965 0.303024 0.502472 -0.004489 -0.999179 0.040255
0.344869 0.728702 0.319280 0.026594 0.032003 0.999134
0.485433 0.319812 0.683571 0.039390 -0.001215 -0.999223
0.749801 0.705780 0.106306 -0.447819 -0.790148 0.418477
0.540350 0.591173 0.289359 0.408796 -0.176105 0.895473
0.629897 0.114204 0.542354 0.916202 -0.135517 0.377105
0.640419 0.302962 0.573850 0.295462 -0.932157 0.209251
0.509829 0.305121 0.682579 -0.103051 0.047347 -0.993549
0.531484 0.489120 0.536297 -0.752761 -0.393741 -0.527559
0.347836 0.551728 0.385249 -0.242502 -0.892269 -0.380853
0.399615 0.033370 0.380061 -0.542107 -0.612313 -0.575494
0.408601 0.504469 0.490245 0.055905 -0.055410 0.996897
0.754263 0.651397 0.401799 -0.268456 -0.895719 0.354426
0.528976 0.701927 0.706386 0.199990 -0.711471 -0.673656
0.572716 0.765225 0.676953 -0.108806 -0.681370 0.723807
0.681662 0.760611 0.496489 -0.720296 -0.693195 0.025590
0.576992 0.170680 0.352132 0.538545 -0.136562 -0.831457
0.691932 0.803240 0.132247 0.401784 -0.307123 0.862696
0.458312 0.742517 0.800090 0.426607 -0.359592 -0.829880
0.497644 0.311697 0.487602 -0.983301 -0.168018 0.069920
0.419419 0.316779 0.669799 0.364592 0.008117 -0.931132
0.321620 0.903899 0.214300 0.716187 -0.522437 0.462748
0.600388 0.722116 0.663912 0.166164 0.060173 -0.984260
0.630440 0.348230 0.341374 -0.709210 -0.089580 0.699283
0.554457 0.768251 0.709794 -0.475688 -0.862463 -0.172855
0.524509 0.518392 0.426587 -0.394782 -0.914260 0.090976
0.547109 0.335420 0.531126 0.119174 0.987919 0.099067
0.626777 0.656937 0.777563 0.339580 -0.736814 -0.584629
0.443581 0.303107 0.563264 -0.107849 -0.979059 0.172661
0.509728 0.564088 0.728488 0.641217 -0.714497 -0.279884
0.645273 0.594235 0.388946 -0.728628 -0.661765 0.176544
0.483815 0.487652 0.495648 0.605373 -0.770561 0.199398
0.516195 0.469541 0.270338 -0.836535 -0.518826 0.176148
0.484484 0.666523 0.480744 -0.194211 -0.911524 -0.362499
0.381222 0.333707 0.333513 -0.606565 0.050826 -0.793408
0.483834 0.385489 0.494900 -0.371651 -0.246720 0.894989
0.382180 0.335477 0.441371 -0.231958 0.968765 -0.087697
0.448104 0.583931 0.380241 0.283470 0.404912 0.869305
0.665109 0.356752 0.558277 0.935939 -0.009072 0.352045
0.345693 0.201449 0.555971 -0.888773 -0.148367 0.433670
0.509477 0.219210 0.321624 0.112914 -0.173684 -0.978307
0.547247 0.335351 0.443356 0.112063 0.988913 -0.097432
0.597403 0.297650 0.653490 -0.549207 0.000617 -0.835686
0.716640 0.784912 0.116545 0.030751 -0.452110 0.891432
0.438670 0.791479 0.297944 -0.300028 -0.563651 0.769598
0.679469 0.312232 0.489366 0.997660 0.054531 0.041249
0.650470 0.648593 0.513151 -0.694087 -0.495023 0.522681
0.476803 0.470396 0.467070 0.277731 -0.917190 -0.285707
0.541876 0.572420 0.376406 0.234324 -0.645162 0.727226
0.297877 0.358585 0.452717 0.979591 -0.055999 0.193042
0.577917 0.302935 0.476401 0.179301 -0.983745 -0.009860
0.460020 0.666026 0.526079 -0.592142 -0.751159 0.291765
0.665411 0.565635 0.492166 -0.596670 0.795433 0.106165
0.344421 0.092128 0.474768 -0.986401 -0.151527 -0.063655
0.285484 0.573840 0.605844 0.201862 -0.942253 -0.267230
0.466200 0.366874 0.435768 0.456342 0.534481 0.711395
0.620825 0.718398 0.430395 -0.836653 -0.446038 -0.317903
0.326419 0.336369 0.399361 -0.898260 -0.086792 -0.430809
0.301573 0.772705 0.481337 0.691389 -0.640056 -0.335125
0.457054 0.300346 0.680699 0.162649 0.099151 -0.981690
0.626397 0.509011 0.412687 -0.644942 0.557850 0.522353
0.643954 0.306066 0.567747 0.364866 -0.901748 0.231781
0.543399 0.457303 0.469519 -0.545994 0.336120 0.767407
0.658199 0.753760 0.182599 0.301855 -0.424455 0.853652
0.323965 0.714887 0.535839 0.500132 0.318069 -0.805419
0.681261 0.655098 0.182268 -0.411524 -0.810022 0.417747
0.743279 0.782880 0.417182 -0.095511 -0.910765 0.401728
0.560476 0.109901 0.616755 0.461593 -0.135692 0.876652
0.377675 0.651311 0.809985 0.346380 -0.807477 -0.477495
0.309669 0.291505 0.408721 0.935900 0.006471 0.352206
0.561713 0.845092 0.645400 0.443980 -0.353533 -0.823344
0.372916 0.335607 0.597615 -0.234436 0.937130 0.258511
0.304530 0.518124 0.369168 0.569474 -0.663174 0.485695
0.344276 0.772654 0.144567 -0.375415 0.838851 0.394198
0.131186 0.815894 0.716705 0.304339 -0.919794 -0.247703
0.733185 0.600756 0.568798 0.347990 0.804111 -0.481984
0.681502 0.660554 0.487401 -0.322688 -0.923615 -0.206903
0.360292 0.758699 0.207441 0.863428 -0.395420 0.313266
0.548953 0.248325 0.642509 0.303169 -0.353935 0.884770
0.254076 0.810878 0.534667 0.806930 -0.443718 -0.389843
0.687785 0.303400 0.455436 -0.982940 0.061770 0.173243
0.505654 0.455305 0.517141 0.170483 -0.973185 0.154422
0.651384 0.312394 0.385253 0.865247 0.015909 -0.501093
0.406078 0.558135 0.478712 -0.584446 -0.489745 -0.646972
0.615712 0.594883 0.352089 0.038125 -0.750224 0.660083
0.354636 0.751548 0.531946 0.344964 -0.268526 -0.899385
0.508595 0.865371 0.670652 0.049935 -0.954285 -0.294697
0.535995 0.437869 0.565547 0.115681 -0.910870 -0.396149
0.539877 0.335359 0.445363 0.096842 0.991013 -0.092272
0.628856 0.335307 0.468443 0.282732 0.958018 -0.047585
0.404537 0.520069 0.720935 0.306628 -0.744137 -0.593498
0.397086 0.657334 0.809956 0.321748 -0.806714 -0.495672
0.635465 0.675054 0.309781 -0.909338 0.416057 0.001184
0.618901 0.025132 0.515714 0.604231 -0.779655 0.164449
0.315543 0.325013 0.426021 -0.949491 -0.055665 -0.308817
0.564758 0.395991 0.359543 -0.328018 -0.773214 0.542720
0.710522 0.877092 0.444469 -0.715026 -0.692979 -0.092297
0.295581 0.334723 0.493340 0.998180 -0.042035 -0.043248
0.311210 0.325262 0.528956 -0.970654 -0.040264 0.237084
0.431947 0.405902 0.506368 -0.785377 -0.480463 0.390306
0.430824 0.496768 0.370990 0.308678 -0.838771 0.448532
0.526758 0.335354 0.426049 0.067831 0.988591 -0.134490
0.499431 0.656375 0.570037 -0.294463 -0.759430 -0.580136
0.451391 0.058905 0.347979 -0.278271 -0.251626 -0.926957
0.722756 0.787369 0.363779 -0.770351 -0.332274 0.544200
0.566700 0.178040 0.623853 0.472675 -0.135728 0.870721
0.670453 0.298590 0.427974 0.965360 0.058461 -0.254289
0.348083 0.194988 0.558540 -0.879755 -0.139732 0.454430
0.494487 0.937483 0.593913 -0.262025 -0.836080 -0.481989
0.503845 0.774325 0.771344 -0.207138 -0.888785 -0.408846
0.180297 0.839272 0.507528 0.226971 -0.973901 -0.000443
0.403030 0.245677 0.627674 -0.511274 -0.324675 0.795729
0.308569 0.329997 0.453320 -0.985319 -0.054329 -0.161848
0.415650 0.620909 0.349251 -0.774903 -0.576862 0.258371
0.638121 0.106706 0.507509 0.979359 -0.138048 0.147642
0.777180 0.753835 0.328780 -0.196078 -0.618073 -0.761275
0.508260 0.282369 0.671905 0.028865 0.103057 0.994257
0.452267 0.283639 0.300320 -0.182458 -0.007446 -0.983186
0.641544 0.207052 0.421922 0.912951 -0.156086 -0.377039
0.409139 0.449884 0.523919 0.232299 -0.938645 0.254917
0.494959 0.289965 0.494687 -0.060109 -0.362543 -0.930027
0.286305 0.684026 0.681222 -0.147679 -0.497151 0.855004
0.561195 0.084654 0.612486 0.476629 -0.165830 0.863322
0.790747 0.646441 0.415969 -0.388792 -0.906644 0.163822
0.119424 0.470091 0.211710 -0.770380 0.335671 0.542069
0.466376 0.408407 0.467397 0.166768 0.252131 0.953215
0.370417 0.765264 0.084294 -0.148667 -0.688354 0.709977
0.471840 0.158604 0.639294 -0.118824 -0.135660 0.983604
0.368818 0.356854 0.639191 0.659167 -0.004424 -0.751984
0.393676 0.748297 0.558956 0.819198 -0.561355 0.117453
0.282936 0.540882 0.396605 0.475716 -0.875482 0.085008
0.498657 0.360988 0.453947 0.463070 0.232830 0.855194
0.654042 0.335325 0.519888 0.337865 0.939096 0.062816
0.473690 0.339293 0.449833 -0.941796 -0.274187 -0.194528
0.700034 0.733376 0.477206 -0.430558 -0.824760 -0.366592
0.609848 0.814181 0.739712 0.558266 -0.802179 0.211775
0.150887 0.496420 0.282384 -0.104118 0.645257 0.756837
0.438620 0.522832 0.624470 0.716374 -0.674908 -0.176940
0.310040 0.853850 0.180633 0.053078 -0.553228 0.831337
0.489071 0.453891 0.441521 -0.224385 -0.792262 0.567426
0.467182 0.335484 0.533919 -0.046586 0.992652 0.111680
0.618679 0.600919 0.355844 0.075597 -0.734160 0.674755
0.570217 0.454852 0.446547 -0.204974 -0.294424 0.933435
0.451151 0.031263 0.617483 -0.201162 -0.547000 0.812604
0.476505 0.358414 0.478879 0.868003 0.272529 0.415088
0.301471 0.293603 0.435363 0.975529 -0.003463 0.219845
0.451999 0.436144 0.403998 -0.264865 -0.649360 0.712866
0.417962 0.232321 0.335450 -0.426621 -0.190988 -0.884035
0.438028 0.515564 0.450120 0.084947 -0.923475 0.374136
0.569442 0.302864 0.376008 0.168001 -0.957543 -0.234281
0.306840 0.282525 0.498457 -0.984273 0.172842 0.036511
0.443114 0.626796 0.563257 0.709519 -0.703701 0.037247
0.476909 0.335391 0.424010 -0.035342 0.990314 -0.134274
0.850201 0.590644 0.634153 -0.031788 0.116482 -0.992684
0.660487 0.695119 0.421118 -0.239718 -0.911797 0.333408
0.532877 0.363871 0.463883 -0.887883 0.420043 0.187688
0.409646 0.335388 0.303728 0.402547 -0.059866 0.913440
0.556659 0.025137 0.525522 0.030792 -0.998886 0.035769
0.238813 0.789701 0.208452 0.618678 -0.553617 0.557445
0.589672 0.790173 0.716931 0.698169 0.268134 -0.663826
0.726217 0.744601 0.491672 0.258784 -0.180645 -0.948893
0.485952 0.646546 0.631963 -0.406470 -0.906315 0.115654
0.687270 0.764228 0.735164 -0.203893 -0.204837 -0.957324
0.484321 0.848822 0.567074 -0.167064 -0.734869 -0.657310
0.371355 0.215115 0.596631 -0.721303 -0.166372 0.672341
0.321364 0.749860 0.284672 0.138192 -0.898587 0.416467
0.564618 0.439935 0.438984 0.052560 -0.986697 -0.153839
0.126866 0.742250 0.673549 0.651341 -0.758384 -0.024682
0.486962 0.413344 0.385050 0.053653 -0.863369 0.501713
0.507147 0.504499 0.627078 -0.898456 0.080958 -0.431536
0.319724 0.294291 0.412459 -0.910207 0.127651 -0.393990
0.497151 0.325723 0.673001 0.015650 -0.074611 0.997090
0.828833 0.729589 0.349779 -0.406141 -0.464924 -0.786698
0.537161 0.474305 0.590305 -0.489939 0.546093 -0.679516
0.549695 0.532720 0.620692 -0.843523 -0.187945 0.503136
0.656358 0.613373 0.464780 -0.807613 -0.275376 -0.521469
0.704055 0.515918 0.561794 -0.524256 -0.661695 -0.536018
0.477047 0.084017 0.629703 -0.089102 -0.162946 0.982603
0.404210 0.275626 0.323063 -0.193813 -0.847504 -0.494139
0.508077 0.290031 0.480958 -0.153291 0.441012 -0.884314
0.702588 0.801970 0.311921 -0.579304 -0.763296 0.285982
0.523193 0.493223 0.485966 0.367414 -0.918659 0.145166
0.729960 0.856266 0.350513 -0.665881 -0.704623 -0.245170
0.663486 0.323776 0.561320 0.917036 -0.037115 0.397074
0.536857 0.566053 0.713764 -0.186891 -0.952531 -0.240326
0.473296 0.460601 0.426823 0.254018 -0.947621 -0.193620
0.684395 0.728781 0.471186 -0.394669 0.605708 -0.690908
0.479156 0.339258 0.296973 -0.081346 -0.125035 -0.988812
0.562087 0.116005 0.616820 0.469288 -0.135704 0.872555
0.425077 0.417416 0.593063 0.358012 -0.927231 0.109861
0.681251 0.500240 0.418269 -0.222793 -0.420531 -0.879498
0.472027 0.529862 0.408833 -0.902478 -0.341521 -0.262482
0.165963 0.835792 0.484113 0.359157 -0.917901 0.168715
0.569454 0.687302 0.642733 0.039412 -0.880306 -0.472767
0.716247 0.893436 0.557350 -0.412999 -0.833353 0.367362
0.804998 0.784881 0.318106 -0.783814 -0.082138 0.615539
0.615768 0.708673 0.276918 0.132559 -0.692981 0.708665
0.564334 0.673166 0.461808 -0.441515 -0.706179 0.553512
0.437011 0.457719 0.408735 -0.353758 -0.597179 0.719883
0.619196 0.182047 0.390188 0.797443 -0.136573 -0.587735
0.862887 0.752045 0.380473 -0.625678 -0.777830 -0.059223
0.459889 0.540185 0.339357 -0.474559 -0.496236 0.727010
0.388602 0.335559 0.553637 -0.208152 0.964593 0.161967
0.305964 0.580116 0.461432 0.764077 -0.482479 0.428253
0.771129 0.647001 0.400368 -0.301538 -0.912951 0.274947
0.379955 0.025097 0.474956 -0.073620 -0.997203 -0.012928
0.498312 0.641957 0.254124 -0.235796 -0.832598 0.501179
0.733117 0.569360 0.438088 -0.292131 -0.952064 0.090735
0.456245 0.303119 0.591715 -0.083287 -0.968078 0.236406
0.399702 0.275650 0.648868 0.088400 0.962654 -0.255897
0.385444 0.636710 0.487932 0.631634 -0.726366 -0.270983
0.608301 0.522598 0.386513 -0.353944 -0.935262 0.002819
0.516518 0.782938 0.169445 -0.118202 -0.878577 0.462743
0.344218 0.889124 0.239116 0.761435 -0.495404 0.418082
0.291762 0.788932 0.249883 0.488284 -0.709925 0.507528
0.451740 0.499217 0.484960 -0.478964 -0.757166 0.444177
0.427576 0.175141 0.339111 -0.394763 -0.136600 -0.908571
0.676577 0.275797 0.541453 0.228401 -0.968028 0.103702
0.466149 0.492194 0.537527 0.089607 -0.610327 -0.787065
0.393453 0.761940 0.849720 -0.452503 -0.344552 -0.822511
0.826189 0.733820 0.347924 -0.372925 -0.500077 -0.781569
0.624891 0.275686 0.632333 -0.701634 -0.000550 -0.712537
0.459968 0.532110 0.402204 0.906686 0.339775 0.249945
0.525858 0.736132 0.645595 -0.433121 -0.548053 -0.715572
0.756086 0.879123 0.497471 -0.535123 -0.307273 0.786910
0.343743 0.504370 0.470325 0.384425 -0.107549 -0.916870
0.321985 0.720873 0.511065 0.766117 -0.529422 -0.364386
0.474680 0.549042 0.506402 0.372752 -0.727711 -0.575754
0.612389 0.784159 0.864624 -0.653416 -0.595290 -0.467630
0.130181 0.814108 0.722436 0.314965 -0.900828 -0.298842
0.451950 0.612533 0.384641 0.347669 -0.871824 0.345035
0.392183 0.635152 0.546180 0.687371 0.483725 -0.541786
0.260689 0.554280 0.315201 -0.596928 0.557391 0.577055
0.331090 0.419843 0.382250 0.582659 -0.589045 0.559942
0.326631 0.275455 0.398579 -0.848855 0.230126 -0.475907
0.295969 0.707076 0.569112 0.867990 -0.412616 0.276298
0.647110 0.335364 0.561589 0.325325 0.932622 0.156143
0.670532 0.746698 0.770213 -0.493433 -0.524788 -0.693629
0.443489 0.438167 0.429833 0.326532 -0.666220 0.670469
0.229967 0.536866 0.316922 -0.060413 0.413122 0.908670
0.492134 0.027073 0.623260 0.048070 -0.369865 0.927841
0.608137 0.552453 0.367170 -0.370663 -0.771214 -0.517531
0.493257 0.548558 0.726599 0.652208 -0.707620 -0.271843
0.337178 0.283844 0.606851 0.771688 -0.000491 -0.636001
0.505051 0.305144 0.486133 -0.261660 0.335445 -0.904992
0.128312 0.445166 0.242141 0.603731 0.224323 0.764976
0.699141 0.759581 0.385826 -0.389234 -0.821426 0.416840
0.118972 0.715240 0.274783 0.385677 -0.887687 0.251525
0.246726 0.796097 0.206883 0.573029 -0.578879 0.580118
0.511124 0.660200 0.559243 -0.326304 -0.800419 -0.502847
0.323792 0.303152 0.501963 -0.348647 -0.936936 0.024398
0.530886 0.593752 0.600579 0.798772 0.145646 -0.583739
0.539810 0.306804 0.302394 0.284331 0.033390 -0.958144
0.553141 0.677977 0.460567 -0.381156 -0.714566 0.586613
0.600739 0.665337 0.624356 0.281534 -0.363424 -0.888066
0.604567 0.532470 0.445965 -0.468394 -0.560216 0.683202
0.146029 0.470339 0.174605 0.925314 0.326665 0.192574
0.346712 0.874261 0.233099 0.802267 -0.341940 0.489332
0.566675 0.462291 0.408245 -0.911840 -0.264900 -0.313650
0.453274 0.335448 0.473702 -0.080864 0.996495 -0.021428
0.352824 0.710755 0.178230 0.168378 -0.929796 0.327306
0.297009 0.315647 0.507648 0.985575 0.105796 -0.132092
0.667409 0.290468 0.551029 0.928075 -0.004390 0.372366
0.574183 0.564647 0.450500 0.905432 -0.297661 0.302640
0.358333 0.595883 0.228606 -0.684301 -0.471602 0.556168
0.734876 0.847822 0.342858 -0.604908 -0.272231 0.748316
0.657967 0.750419 0.181687 0.296966 -0.409592 0.862581
0.387022 0.267272 0.620029 -0.529985 -0.560246 0.636585
0.684854 0.342636 0.530688 -0.968334 -0.002924 -0.249642
0.501315 0.287035 0.683459 -0.076999 0.135579 -0.987770
0.658072 0.768035 0.271772 -0.678719 -0.701569 -0.217123
0.374020 0.823561 0.146877 0.606723 -0.483054 0.631305
0.382987 0.825392 0.135496 0.549836 -0.543171 0.634544
0.477194 0.824790 0.608509 -0.554490 -0.829652 -0.064951
0.915033 0.738911 0.423252 -0.791396 -0.446605 -0.417416
0.716600 0.554554 0.523289 0.276269 -0.126789 -0.952680
0.453598 0.694982 0.273531 -0.952252 -0.288218 0.100730
0.327326 0.346064 0.593999 0.852290 -0.000401 -0.523070
0.614394 0.059404 0.555758 0.837529 -0.288204 0.464201
0.613627 0.675373 0.254402 -0.445577 -0.895036 0.019288
0.064499 0.487605 0.157613 0.622141 0.728493 0.286774
0.608361 0.087714 0.572147 0.792736 -0.168371 0.585851
0.442716 0.864083 0.254580 -0.080726 -0.611820 0.786867
0.326854 0.648839 0.575072 0.923108 -0.268756 0.275031
0.475195 0.271728 0.314137 -0.039156 -0.605636 -0.794778
0.561055 0.819615 0.872318 0.359178 -0.063655 -0.931096
0.091685 0.441964 0.239897 -0.280525 0.752521 0.595834
0.463346 0.335553 0.620715 -0.046002 0.951387 0.304545
0.655704 0.650585 0.462546 0.134600 -0.927750 0.348084
0.542314 0.487189 0.594434 -0.982896 0.079004 0.166354
0.792785 0.668926 0.649675 -0.918343 -0.203135 0.339680
0.409133 0.521520 0.375229 0.619136 -0.774587 -0.129173
0.531354 0.308821 0.288707 -0.162816 0.026788 0.986293
0.449024 0.451394 0.394063 -0.288771 -0.946442 0.144425
0.615457 0.282632 0.626184 0.636506 0.005306 0.771254
0.181366 0.765319 0.717155 0.417371 -0.880504 -0.224753
0.450170 0.223485 0.324832 -0.236915 -0.179063 -0.954886
0.516126 0.568759 0.552199 0.801299 -0.099589 -0.589916
0.498624 0.465695 0.487207 -0.373741 -0.243008 0.895134
0.575282 0.600528 0.251616 -0.868528 0.492020 0.059793
0.822686 0.639721 0.728248 -0.971148 -0.166129 -0.171092
0.208153 0.753745 0.618837 0.988444 -0.135168 0.068621
0.479692 0.563595 0.594868 -0.441959 -0.579297 -0.684899
0.764747 0.552288 0.440779 -0.514709 -0.856089 0.046755
0.417787 0.025024 0.378476 -0.342290 -0.817083 -0.463911
0.804976 0.758359 0.306486 0.110432 0.700351 0.705205
0.350100 0.619970 0.599949 0.434296 -0.548743 -0.714330
0.824030 0.622426 0.669680 -0.739073 -0.298060 0.604096
0.223115 0.639555 0.634110 0.405883 -0.887017 -0.220138
0.506811 0.682424 0.549807 -0.971143 -0.049836 0.233234
0.590974 0.033702 0.387744 0.549786 -0.610097 -0.570541
0.669075 0.329707 0.423470 0.948429 -0.035418 -0.315005
0.662610 0.724011 0.150773 0.587134 -0.726904 -0.356208
0.453646 0.632248 0.846858 0.885108 -0.391482 -0.251648
0.487529 0.025122 0.505475 0.000002 1.000000 -0.000765
0.412425 0.025072 0.443629 -0.030069 -0.999166 -0.027608
0.573203 0.546902 0.547847 -0.050435 -0.768549 -0.637800
0.572150 0.648342 0.698934 -0.724701 -0.358099 0.588705
0.529759 0.440503 0.413638 -0.549186 -0.835694 0.003271
0.540312 0.474730 0.495231 0.787228 -0.533000 0.310134
0.493046 0.335531 0.619795 0.014183 0.954018 0.299413
0.348802 0.472158 0.677725 0.641647 -0.762645 -0.081615
0.252028 0.655182 0.284298 0.877327 0.014477 0.479674
0.367910 0.526188 0.501034 0.750630 -0.400018 0.525870
0.598831 0.642428 0.352458 -0.585276 -0.744541 0.321107
0.441916 0.335450 0.464623 -0.105421 0.993586 -0.040903
0.578920 0.572129 0.465633 0.687383 -0.553364 0.470418
0.321397 0.319997 0.386075 0.873695 0.067791 0.481728
0.166510 0.462176 0.132483 0.798113 0.348747 0.491315
0.629807 0.789851 0.126192 -0.494329 -0.446210 0.746013
0.185752 0.858406 0.742910 0.134554 -0.072843 -0.988225
0.679787 0.298384 0.482913 0.995733 0.089091 0.024051
0.397027 0.335563 0.565733 -0.189673 0.963629 0.188261
0.477933 0.085843 0.339362 -0.088693 -0.154022 -0.984079
0.408842 0.704231 0.709325 -0.209585 -0.671509 -0.710739
0.677381 0.680409 0.122005 -0.895418 -0.293518 -0.334774
0.589979 0.547017 0.425862 -0.691649 0.414301 0.591589
0.496434 0.025104 0.483048 0.000001 1.000000 -0.000787
0.292370 0.682764 0.528211 0.476227 0.726250 -0.495752
0.506165 0.335510 0.606479 0.039688 0.962244 0.269279
0.661422 0.754041 0.286142 -0.600724 -0.788589 -0.131371
0.398912 0.642272 0.322598 0.944428 -0.326276 0.039998
0.224601 0.763332 0.723661 0.178377 0.424090 -0.887879
0.470924 0.025180 0.580714 -0.028089 -0.993936 0.106308
0.355350 0.327915 0.356987 -0.742695 -0.037524 -0.668577
0.498362 0.691957 0.559616 0.655215 0.202039 -0.727924
0.614121 0.520462 0.457796 -0.670353 0.722528 -0.169056
0.672246 0.360448 0.542888 0.047519 -0.998409 0.030363
0.428892 0.450777 0.399677 -0.325733 -0.595294 0.734522
0.341193 0.551099 0.374200 -0.620566 -0.259318 0.740035
0.822083 0.764787 0.298410 -0.247796 0.926400 0.283514
0.769137 0.644541 0.392978 -0.261460 -0.916473 0.302847
0.482922 0.388672 0.495168 -0.038267 -0.297084 0.954084
0.600144 0.335327 0.464862 0.223714 0.973202 -0.053200
0.517731 0.449843 0.546799 -0.551738 0.266244 -0.790379
0.351636 0.731395 0.535132 0.319776 -0.195213 -0.927165
0.096311 0.734485 0.308965 -0.261570 -0.400511 0.878164
0.405828 0.706555 0.828783 0.347116 0.751518 -0.561009
0.439650 0.614686 0.746256 0.144737 -0.883085 -0.446331
0.224797 0.721210 0.681220 0.146053 -0.884332 -0.443425
0.418790 0.415967 0.591925 0.315496 -0.941184 0.120977
0.393892 0.548331 0.398349 -0.617452 -0.761603 0.196758
0.497361 0.637673 0.563337 -0.452200 -0.765274 -0.458116
0.274237 0.837183 0.274654 0.419520 -0.266604 0.867713
0.652607 0.721676 0.881709 -0.202129 -0.380471 -0.902433
0.564089 0.550071 0.418802 -0.972321 -0.232490 -0.023262
0.452463 0.495904 0.480386 -0.054341 -0.886302 0.459908
0.659967 0.650633 0.528004 -0.731332 -0.546989 0.407378
0.482756 0.464853 0.503892 -0.330585 -0.872261 -0.360380
0.540747 0.497862 0.503098 0.447028 -0.641405 -0.623511
0.490152 0.651513 0.551428 -0.478164 -0.766956 -0.427946
0.302610 0.580862 0.444603 0.876300 -0.323642 -0.356866
0.516213 0.497751 0.413104 -0.859071 -0.468391 0.206417
0.571307 0.285906 0.301335 -0.342374 0.094753 0.934774
0.470573 0.336668 0.297848 -0.128801 -0.083639 -0.988137
0.328141 0.769559 0.131258 -0.479412 -0.514669 0.710831
0.525226 0.433041 0.552884 -0.177547 -0.506972 0.843479
0.545561 0.555176 0.237403 -0.711013 -0.696108 0.099467
0.467413 0.343126 0.498839 -0.205147 -0.318552 0.925440
0.620058 0.327336 0.599552 0.451238 0.788034 0.418791
0.458016 0.288026 0.680806 0.145802 0.165161 -0.975430
0.694289 0.734160 0.476833 -0.458247 -0.801293 -0.384628
0.498533 0.909541 0.209391 0.794801 -0.526361 0.302052
0.418899 0.549061 0.586074 0.399321 -0.744318 0.535288
0.559213 0.543999 0.386409 -0.627745 -0.768658 0.122887
0.555548 0.592832 0.687141 0.828846 -0.547689 -0.114238
0.569552 0.610254 0.458598 -0.431370 -0.528847 0.730918
0.606239 0.442533 0.485728 -0.248963 -0.957421 0.146162
0.819596 0.579936 0.554727 -0.242031 0.020519 -0.970051
0.325552 0.360326 0.386766 -0.349790 -0.928430 -0.125154
0.478699 0.559010 0.371886 -0.438565 -0.897389 -0.048523
0.521726 0.777015 0.286985 0.198132 -0.649555 0.734045
0.343627 0.634599 0.474144 -0.060132 -0.848663 -0.525505
0.488783 0.303033 0.512283 -0.009733 -0.998035 0.061890
0.616871 0.642435 0.375459 -0.999604 -0.022711 -0.016645
0.547406 0.444008 0.443652 0.408928 -0.196945 -0.891062
0.574334 0.591331 0.442517 -0.454594 -0.376372 0.807272
0.574457 0.287456 0.653778 0.413976 0.000697 0.910288
0.148323 0.774577 0.605795 0.988469 -0.035274 0.147260
0.584517 0.302969 0.526377 0.188031 -0.976870 0.101825
0.401391 0.714239 0.694151 -0.163473 -0.770584 -0.616017
0.466650 0.303059 0.524230 -0.056587 -0.994595 0.087054
0.613531 0.604409 0.425904 -0.317903 -0.946944 0.047265
0.400387 0.800123 0.304102 0.623060 -0.584604 0.519648
0.642169 0.599017 0.378300 -0.773314 -0.615652 0.151518
0.454929 0.247637 0.319903 -0.181100 -0.349222 -0.919373
0.445004 0.494308 0.521604 -0.198710 -0.630165 0.750604
0.376461 0.526240 0.400432 -0.219395 0.561434 0.797908
0.328675 0.583898 0.353371 0.576613 -0.568672 -0.586626
0.677729 0.276311 0.506801 0.983245 0.083091 0.162250
0.632462 0.555004 0.472307 0.618877 -0.759952 0.198656
0.494655 0.360551 0.676216 0.053142 -0.465602 0.883397
0.599872 0.614853 0.226687 -0.288000 -0.864651 0.411625
0.374334 0.303122 0.513208 -0.248750 -0.967053 0.054146
0.510765 0.214880 0.322348 0.120709 -0.167824 -0.978399
0.228585 0.909235 0.508242 0.186313 -0.521062 -0.832935
0.664661 0.275681 0.392593 0.179219 -0.981609 -0.065761
0.350338 0.639674 0.531537 0.844953 -0.268814 0.462378
0.097601 0.750084 0.285852 0.420102 -0.853223 0.309070
0.762325 0.740607 0.505751 0.084068 -0.072706 -0.993804
0.778118 0.733277 0.364962 0.578145 -0.678672 0.452938
0.336567 0.219037 0.428486 -0.925422 -0.172999 -0.337143
0.304322 0.786525 0.259857 0.321208 -0.623808 0.712523
0.356843 0.292874 0.339846 0.709588 0.101302 0.697297
0.343159 0.887680 0.243487 0.784993 -0.473645 0.399307
0.620089 0.663225 0.300883 -0.370296 -0.913550 0.168248
0.515772 0.303068 0.586232 0.039080 -0.972313 0.230391
0.575308 0.329492 0.303492 -0.415319 -0.034562 0.909019
0.384161 0.768548 0.276652 0.519553 -0.829574 0.204625
0.498775 0.499133 0.615675 0.919640 -0.032241 0.391436
0.644368 0.147201 0.468995 0.985617 -0.136469 -0.099678
0.173426 0.631793 0.379063 -0.127371 -0.392945 0.910698
0.572522 0.697759 0.748821 0.330538 0.588479 -0.737860
0.210504 0.711907 0.554336 0.697990 -0.707539 -0.110446
0.395917 0.344792 0.311239 0.470246 -0.010806 0.882469
0.257892 0.665134 0.391891 0.850534 -0.471386 -0.233212
0.444131 0.528114 0.636911 0.648976 -0.713317 -0.264591
0.380569 0.335611 0.610931 -0.217185 0.933046 0.286803
0.327928 0.309361 0.572507 -0.889175 0.063753 0.453103
0.406515 0.341989 0.663602 0.445021 -0.198340 -0.873280
0.444937 0.186061 0.331806 -0.283445 -0.137149 -0.949131
0.586635 0.873157 0.740400 -0.687477 -0.387667 -0.614076
0.586909 0.508668 0.658555 -0.027427 -0.892496 -0.450221
0.760054 0.906758 0.507448 -0.404913 -0.502097 0.764162
0.427568 0.572383 0.417721 0.113405 -0.293210 0.949298
0.467246 0.303070 0.539386 -0.056538 -0.991049 0.120935
0.686146 0.684368 0.346092 -0.793481 -0.581882 0.178330
0.368063 0.644908 0.270029 0.401033 -0.791511 0.461176
0.425870 0.653232 0.517525 0.353875 -0.594969 -0.721654
0.128036 0.501651 0.223458 0.533188 0.647688 0.544252
0.815734 0.825759 0.322627 -0.806575 -0.080341 0.585646
0.424947 0.532580 0.438440 0.962793 -0.132525 -0.235512
0.494110 0.768085 0.368243 0.301504 -0.910989 0.281416
0.468799 0.335555 0.628326 -0.034234 0.946720 0.320234
0.729408 0.830951 0.308950 -0.909867 -0.265213 0.319067
0.500024 0.445092 0.529470 -0.969341 -0.226766 -0.094630
0.510023 0.650522 0.270271 -0.313028 -0.863960 0.394444
0.634419 0.672593 0.841197 -0.283432 -0.194352 -0.939092
0.421432 0.809144 0.303331 -0.171998 -0.636794 0.751605
0.533364 0.303098 0.642725 0.069479 -0.933006 0.353091
0.442886 0.720168 0.793990 0.540049 -0.208587 -0.815376
0.518781 0.422146 0.556550 0.550772 0.366039 -0.750111
0.840088 0.766411 0.289541 -0.785115 -0.458382 0.416511
0.542992 0.025045 0.408855 0.191383 -0.905734 -0.378177
0.582301 0.275659 0.660798 -0.007532 0.999449 -0.032339
0.814333 0.834843 0.463482 -0.339723 -0.561073 -0.754841
0.426626 0.533503 0.387657 0.655118 -0.747303 -0.111167
0.498209 0.552202 0.590062 -0.553097 -0.665325 -0.501424
0.542478 0.786745 0.879367 0.838011 -0.361998 -0.408283
0.718438 0.747915 0.392701 -0.313773 -0.940502 -0.130396
0.613758 0.665052 0.358844 -0.980070 -0.145074 0.135711
0.448765 0.445787 0.464684 0.594964 0.001451 -0.803751
0.883454 0.574469 0.732689 0.463679 0.130873 -0.876284
0.521737 0.357299 0.463886 0.386693 0.130855 0.912878
0.519356 0.835905 0.640795 -0.357199 -0.808461 -0.467761
0.606418 0.262042 0.359583 0.603553 -0.509141 -0.613595
0.296651 0.814338 0.337245 0.501958 -0.447292 0.740249
0.469118 0.233055 0.320055 -0.122539 -0.192005 -0.973714
0.412125 0.666926 0.481592 0.485972 -0.837576 -0.249596
0.435293 0.610989 0.695552 0.411650 -0.784175 -0.464342
0.395299 0.586982 0.311552 -0.948412 -0.314488 0.040154
0.452724 0.451425 0.641517 0.252851 -0.762789 -0.595163
0.513534 0.487054 0.422952 0.702984 -0.313215 -0.638522
0.490881 0.561953 0.479428 -0.236933 -0.765578 -0.598125
0.614465 0.050764 0.416281 0.804909 -0.360839 -0.471080
0.659682 0.598606 0.354707 -0.521930 -0.845771 0.110721
0.850090 0.834211 0.430134 -0.724395 -0.571718 0.385214
0.714229 0.656610 0.348778 -0.484447 -0.863041 0.143079
0.370331 0.849507 0.077267 0.758043 -0.380274 0.529871
0.536125 0.470270 0.587784 -0.479538 0.547725 -0.685595
0.484052 0.335396 0.436638 -0.019588 0.994113 -0.106560
0.766832 0.726392 0.099506 -0.596336 -0.714118 0.366631
0.319609 0.520675 0.530190 0.304032 -0.939716 0.156518
0.561113 0.105014 0.615658 0.467924 -0.140208 0.872576
0.563646 0.628070 0.311808 -0.380838 0.083423 0.920871
0.493153 0.763511 0.289291 0.090401 -0.678738 0.728795
0.381264 0.128504 0.590231 -0.713243 -0.135373 0.687720
0.099497 0.540785 0.173301 0.585952 0.639047 0.498276
0.565697 0.278754 0.310549 0.449755 0.117894 -0.885337
0.133066 0.797238 0.372870 0.770644 -0.502312 0.392160
0.244803 0.780720 0.543722 0.922499 -0.263480 -0.282088
0.375838 0.767745 0.259442 0.499405 -0.866267 0.013275
0.492801 0.654455 0.380334 0.561739 -0.774037 0.292089
0.516125 0.525195 0.544884 -0.234509 -0.906587 -0.350863
0.511516 0.433767 0.429720 0.054999 -0.978740 0.197595
0.545248 0.583571 0.276785 -0.390326 -0.765556 0.511438
0.425379 0.335531 0.552101 -0.132409 0.978838 0.156023
0.414222 0.605730 0.553798 0.485312 -0.823290 0.294392
0.597305 0.294958 0.641259 0.543828 0.000646 0.839196
