0.823472 0.550791 0.535591 -0.144177 -0.960243 0.239053
0.706257 0.063615 0.408109 0.448516 -0.664821 -0.597365
0.801836 0.799422 0.407055 0.276991 -0.115885 -0.953859
0.548527 0.210000 0.553160 -0.126260 0.990083 0.061596
0.531161 0.608344 0.291164 -0.321487 -0.936489 -0.140125
0.709099 0.338756 0.764448 0.216847 -0.932302 0.289466
0.781107 0.739988 0.566407 0.393868 0.868647 -0.300534
0.684895 0.207515 0.424500 0.136675 0.976734 -0.165261
0.714451 0.100031 0.657786 0.498193 -0.520601 0.693381
0.070054 0.497586 0.861444 -0.793084 0.150743 -0.590165
0.775301 0.217201 0.486561 0.962981 0.223222 -0.151128
0.107367 0.384835 0.715939 -0.875936 -0.055535 0.479220
0.525681 0.216844 0.385548 -0.523156 0.255735 -0.812962
0.712407 0.383084 0.719970 0.262799 0.481820 0.835934
0.901821 0.505327 0.751477 0.871460 0.187044 -0.453400
0.673665 0.349903 0.830984 0.540623 0.663866 0.516728
0.524174 0.184457 0.649674 -0.286975 0.848620 0.444398
0.559384 0.577849 0.443014 -0.714835 0.674345 -0.185124
0.450152 0.206024 0.548643 -0.889473 0.432752 0.146845
0.503794 0.157106 0.362819 -0.586655 -0.014251 -0.809711
0.692231 0.184281 0.661401 0.264123 0.848349 0.458851
0.541140 0.606407 0.114709 0.926800 0.369157 0.069029
0.531685 0.457131 0.118710 0.033482 -0.944437 -0.326982
0.775010 0.213001 0.474069 0.905970 0.353529 -0.232888
0.774283 0.619345 0.802101 -0.618861 0.509317 -0.598003
0.530662 0.053363 0.420533 -0.507917 -0.680076 -0.528693
0.655312 0.346835 0.854129 0.540653 0.663860 0.516705
0.745035 0.063445 0.458057 0.664431 -0.665295 -0.340460
0.090805 0.532785 0.842547 -0.793095 0.150735 -0.590152
0.692510 0.383625 0.725914 0.262792 0.481821 0.835936
0.470356 0.113176 0.620293 -0.719332 -0.468158 0.513215
0.567164 0.439602 0.670497 -0.762208 -0.647331 -0.001111
0.921663 0.569464 0.764010 -0.098567 0.068445 0.992774
0.557547 0.211427 0.363627 -0.319398 0.371344 -0.871830
0.860808 0.403276 0.606529 -0.135120 -0.931174 -0.338611
0.530826 0.281019 0.561921 -0.713199 -0.265505 0.648733
0.725863 0.660197 0.400902 0.901582 -0.391594 -0.183859
0.706284 0.189510 0.389352 0.281635 0.863383 -0.418630
0.684818 0.208749 0.585378 0.118018 0.984360 0.130792
0.572130 0.087873 0.364482 -0.246027 -0.572864 -0.781855
0.468630 0.520088 0.474810 0.428664 -0.794933 0.429336
0.384515 0.592333 0.401287 -0.686522 -0.105985 -0.719344
0.356496 0.541517 0.772078 -0.068127 -0.949332 -0.306801
0.728147 0.470445 0.686927 0.536432 0.493423 -0.684672
0.125510 0.462704 0.802836 -0.759154 -0.310648 -0.571999
0.670932 0.561820 0.454983 -0.424628 0.879297 0.215705
0.616162 0.159776 0.710173 -0.016316 0.022179 0.999621
0.567137 0.459457 0.715175 0.267948 0.924023 -0.272735
0.736498 0.204160 0.563054 0.268626 0.955455 0.122250
0.494085 0.144967 0.665133 -0.632240 -0.180310 0.753499
0.798621 0.177529 0.577631 0.909928 0.265021 0.319053
0.477566 0.077320 0.576566 -0.718716 -0.613891 0.326475
0.566005 0.189012 0.532779 -0.764958 0.106305 -0.635247
0.441888 0.180087 0.582246 -0.899194 0.307143 0.311629
0.815567 0.787683 0.412469 0.276973 -0.115811 -0.953873
0.727384 0.207630 0.493560 0.207392 0.977737 -0.031918
0.794005 0.786045 0.406407 0.276936 -0.115833 -0.953881
0.742039 0.051281 0.501602 0.719679 -0.684880 -0.114024
0.812798 0.608028 0.536906 0.413008 0.257245 0.873641
0.496261 0.193942 0.431424 -0.386636 0.877889 -0.282532
0.703518 0.387009 0.719267 -0.933131 -0.358432 -0.028180
0.746335 0.069242 0.451043 0.667822 -0.644778 -0.371854
0.504716 0.045213 0.486039 -0.702034 -0.688766 -0.180966
0.621987 0.659553 0.408423 0.929695 0.285774 -0.232380
0.743913 0.432666 0.563442 -0.332848 -0.721039 0.607713
0.494831 0.052563 0.481809 -0.704958 -0.684359 -0.186247
0.553312 0.054665 0.403465 -0.380533 -0.682244 -0.624290
0.598784 0.557264 0.495756 -0.141722 -0.973094 0.181667
0.772372 0.465105 0.703193 0.656619 0.746776 0.105716
0.771985 0.170913 0.398865 0.791838 0.166958 -0.587467
0.739491 0.048867 0.507727 0.723845 -0.685181 -0.081093
0.820923 0.792230 0.413471 0.276956 -0.115864 -0.953871
0.539177 0.043206 0.602499 -0.472372 -0.685182 0.554427
0.499231 0.136257 0.667867 -0.587398 -0.295800 0.753303
0.633886 0.217215 0.557427 0.060695 0.985866 0.156153
0.687922 0.589736 0.547321 -0.933423 -0.295065 0.204106
0.510175 0.043018 0.555168 -0.678618 -0.690364 0.250748
0.430220 0.445451 0.610054 -0.760950 -0.440495 -0.476361
0.748986 0.056418 0.537473 0.726487 -0.682101 0.083396
0.473349 0.493641 0.550189 0.682845 0.690802 0.237727
0.574543 0.134692 0.332097 -0.216400 -0.316742 -0.923496
0.471316 0.220612 0.594680 -0.907103 -0.111718 0.405812
0.576641 0.646105 0.431457 0.781809 0.044840 -0.621904
0.554810 0.269137 0.554876 0.841333 0.429296 0.328425
0.521030 0.170026 0.684542 -0.506973 0.157557 0.847440
0.643356 0.214786 0.357929 0.176142 0.333742 -0.926062
0.584216 0.450633 0.224118 0.785687 0.275605 -0.553840
0.560721 0.454279 0.700053 0.572373 -0.587575 0.571965
0.563748 0.191812 0.536017 -0.918743 0.002165 -0.394851
0.585095 0.037688 0.416622 -0.240365 -0.693006 -0.679681
0.449867 0.206956 0.492029 -0.893132 0.421932 -0.155846
0.649005 0.465919 0.470286 -0.077539 -0.869960 -0.486988
0.724914 0.326108 0.561471 -0.013750 -0.756385 0.653982
0.721603 0.124519 0.676935 0.503112 -0.415301 0.757894
0.166157 0.415743 0.683662 -0.653707 -0.068961 0.753599
0.793967 0.190239 0.553051 0.868658 0.457147 0.190918
0.548231 0.054711 0.406705 -0.407178 -0.683034 -0.606359
0.479916 0.524726 0.291681 0.854941 -0.174979 0.488321
0.536144 0.037108 0.451053 -0.569157 -0.693689 -0.441425
0.503497 0.516275 0.793078 -0.902052 0.195421 -0.384855
0.175032 0.601995 0.686999 -0.814325 -0.034921 -0.579357
0.705205 0.632040 0.496497 0.006994 -0.986456 -0.163876
0.532742 0.352200 0.574251 0.245413 0.531792 -0.810537
0.768916 0.149878 0.637983 0.774192 -0.112801 0.622818
0.502365 0.097691 0.641926 -0.564069 -0.529000 0.634023
0.709113 0.556696 0.560921 -0.553529 0.507926 0.660013
0.846638 0.331630 0.551024 0.300260 0.276898 -0.912782
0.513637 0.461114 0.192003 -0.324047 -0.939188 -0.113663
0.107754 0.385312 0.871296 0.512935 -0.748982 0.419432
0.688502 0.360320 0.864494 0.695459 -0.072108 -0.714938
0.589776 0.056663 0.386877 -0.177880 -0.681608 -0.709768
0.088022 0.424199 0.637641 0.271248 0.844426 -0.461919
0.597401 0.210057 0.444455 -0.033296 0.990510 -0.133347
0.772647 0.091902 0.572315 0.791711 -0.552962 0.259666
0.744637 0.197140 0.451443 0.406691 0.892625 -0.194480
0.805800 0.759633 0.560954 -0.094446 -0.344092 -0.934174
0.785847 0.739895 0.572352 0.393885 0.868652 -0.300496
0.205172 0.469723 0.761346 -0.536496 0.425688 -0.728671
0.518504 0.616553 0.258988 -0.317310 -0.941282 -0.115335
0.472806 0.192153 0.622901 -0.716122 0.483897 0.503004
0.800170 0.618751 0.539718 0.413017 0.257241 0.873639
0.762171 0.104455 0.612064 0.729592 -0.504279 0.461951
0.199027 0.658412 0.695395 0.622468 -0.762804 -0.175111
0.590980 0.473355 0.386833 -0.109900 -0.835370 0.538591
0.674038 0.660081 0.547157 -0.505192 -0.591654 0.628273
0.509904 0.124824 0.672059 -0.513999 -0.418471 0.748791
0.171499 0.427417 0.673439 -0.828982 0.451761 0.329699
0.793026 0.122462 0.450869 0.843481 -0.425789 -0.327481
0.680676 0.129408 0.337888 0.303343 -0.380927 -0.873429
0.165649 0.601973 0.700190 -0.814331 -0.034910 -0.579351
0.661940 0.146736 0.329579 0.232139 -0.155676 -0.960144
0.551023 0.037277 0.435265 -0.471369 -0.692122 -0.546606
0.763166 0.078503 0.568068 0.759463 -0.605508 0.237856
0.672697 0.097567 0.359491 0.269162 -0.532856 -0.802257
0.589677 0.405339 0.623816 0.244481 -0.724918 0.643990
0.122079 0.420318 0.708712 -0.556937 -0.337063 -0.759085
0.547171 0.208873 0.455196 -0.123524 0.984970 -0.120733
0.679483 0.450278 0.632106 -0.336443 0.072213 0.938931
0.689375 0.501431 0.608269 -0.040225 0.823447 0.565966
0.624089 0.639511 0.419440 0.008784 -0.984062 -0.177608
0.647650 0.180799 0.682225 0.131351 0.836665 0.531732
0.361564 0.654803 0.406559 0.741006 -0.669990 -0.044974
0.388929 0.595209 0.396650 -0.686509 -0.106012 -0.719352
0.783471 0.783244 0.403689 0.276947 -0.115862 -0.953874
0.764586 0.500812 0.741128 0.245286 0.598120 -0.762946
0.714861 0.079319 0.399527 0.490888 -0.606459 -0.625489
0.452892 0.176715 0.420775 -0.825000 0.253522 -0.505076
0.779721 0.622513 0.799170 -0.618890 0.509288 -0.597997
0.760253 0.207312 0.604808 0.768532 0.421279 0.481542
0.505997 0.473483 0.206220 -0.371577 -0.799388 0.472132
0.700981 0.121931 0.351328 0.399855 -0.430631 -0.809119
0.763807 0.151912 0.392315 0.761188 -0.085419 -0.642881
0.476371 0.067402 0.549472 -0.736127 -0.649116 0.191744
0.370612 0.542324 0.756342 -0.580001 -0.202757 0.788979
0.743411 0.051190 0.524538 0.729478 -0.683683 0.020969
0.564383 0.663562 0.298407 0.337542 -0.941012 -0.023687
0.767507 0.529010 0.750113 0.794551 0.555381 -0.245439
0.290086 0.412769 0.896269 0.415620 -0.906830 -0.070144
0.556501 0.209557 0.575114 -0.114460 0.988277 0.101034
0.798970 0.143729 0.452175 0.923458 -0.196214 -0.329736
0.690844 0.195252 0.645505 0.227259 0.880865 0.415247
0.749199 0.080663 0.437782 0.673561 -0.601311 -0.429815
0.533885 0.133743 0.690326 -0.409274 -0.326471 0.852004
0.713288 0.397526 0.755041 0.105848 0.887728 -0.448034
0.429940 0.414710 0.336360 -0.751595 0.651843 0.101026
0.577984 0.208713 0.606679 -0.080471 0.983699 0.160813
0.705365 0.349585 0.760156 0.656491 -0.495460 -0.568804
0.743511 0.473767 0.699708 -0.349095 0.859465 -0.373433
0.689638 0.329586 0.798228 -0.920076 0.353915 -0.167944
0.339254 0.643160 0.423100 0.548415 0.836202 0.002637
0.343005 0.587317 0.803013 -0.338320 0.724113 -0.600999
0.582321 0.479918 0.236004 0.785681 0.275582 -0.553860
0.582281 0.123446 0.521818 -0.691683 -0.293123 0.660041
0.515093 0.545821 0.548654 0.655718 -0.730651 0.190216
0.479482 0.126181 0.386781 -0.664967 -0.411121 -0.623538
0.529413 0.596268 0.298814 -0.514142 0.404166 -0.756510
0.665578 0.202859 0.397240 0.145073 0.946129 -0.289471
0.845797 0.447363 0.722686 0.740420 -0.617361 -0.265789
0.504789 0.488443 0.083068 -0.452544 -0.462516 -0.762419
0.564579 0.374896 0.601311 0.727955 -0.681897 -0.071394
0.807466 0.749450 0.564536 -0.094449 -0.344085 -0.934176
0.619818 0.135624 0.326761 0.010408 -0.304371 -0.952497
0.482449 0.195345 0.575962 -0.436782 0.881753 0.178138
0.688924 0.389669 0.867908 -0.339139 0.927614 -0.156583
0.714301 0.400845 0.879144 -0.339135 0.927608 -0.156623
0.110099 0.407391 0.723549 -0.875935 -0.055554 0.479220
0.794165 0.116739 0.472463 0.862767 -0.452051 -0.226460
0.613516 0.158627 0.324846 -0.011531 0.006535 -0.999912
0.701890 0.417165 0.710789 -0.963223 0.193593 0.186343
0.511970 0.572843 0.315836 -0.316180 0.762444 0.564543
0.314236 0.495810 0.693762 0.306850 0.237864 0.921555
0.628246 0.176349 0.328351 0.073460 0.249828 -0.965500
0.764108 0.136007 0.641272 0.730638 -0.298042 0.614279
0.369179 0.601163 0.803502 0.798749 0.177215 0.574974
0.603292 0.415288 0.629715 0.528235 -0.801897 0.279158
0.666649 0.446045 0.685966 0.848182 0.239023 0.472712
0.660036 0.487781 0.676728 0.848176 0.239063 0.472701
0.715641 0.432651 0.554901 0.366246 -0.779389 0.508348
0.173777 0.583323 0.689889 -0.814324 -0.034916 -0.579359
0.696336 0.344454 0.792868 -0.920080 0.353901 -0.167951
0.588549 0.207959 0.621198 -0.064774 0.979859 0.188893
0.730702 0.195132 0.612813 0.357461 0.879987 0.312801
0.500281 0.375632 0.576294 0.734334 0.104809 0.670648
0.458588 0.101124 0.577965 -0.795686 -0.518864 0.312511
0.484150 0.460004 0.356353 0.511187 -0.296407 -0.806741
0.504938 0.053508 0.452190 -0.644364 -0.681031 -0.347841
0.657956 0.203592 0.639336 0.078999 0.951372 0.297741
0.673981 0.054462 0.400182 0.294630 -0.682999 -0.668361
0.149373 0.610620 0.689899 -0.161866 -0.920510 0.355613
0.742587 0.183219 0.381669 0.647903 0.354675 -0.674112
0.694182 0.336103 0.767077 0.216862 -0.932299 0.289464
0.079290 0.525826 0.856245 -0.793083 0.150731 -0.590170
0.704153 0.061704 0.408179 0.437216 -0.671329 -0.598464
0.698902 0.369171 0.732235 0.262812 0.481796 0.835944
0.499525 0.189091 0.378560 -0.568845 0.438350 -0.695891
0.620135 0.130373 0.708064 0.018096 -0.369483 0.929061
0.449517 0.203905 0.551978 -0.873747 0.457557 0.164950
0.173569 0.413439 0.697799 -0.829000 0.451744 0.329675
0.067534 0.408358 0.685378 0.083833 -0.445004 -0.891596
0.752416 0.194945 0.401549 0.656900 0.519295 -0.546639
0.326192 0.548786 0.230906 0.278471 0.880612 -0.383376
0.587864 0.628413 0.444291 0.781808 0.044843 -0.621904
0.466218 0.535726 0.334755 -0.994992 -0.091092 -0.041140
0.521494 0.525522 0.756670 -0.323092 0.671075 -0.667286
0.467780 0.119783 0.409870 -0.732273 -0.440065 -0.519730
0.543172 0.474572 0.307849 0.945800 0.127982 -0.298466
0.599319 0.160156 0.535616 0.913343 0.353165 0.202679
0.537415 0.041929 0.597201 -0.496720 -0.688496 0.528434
0.151836 0.621896 0.692474 0.664892 0.732997 -0.143645
0.351224 0.451199 0.204078 -0.273678 0.515470 -0.812029
0.366840 0.624108 0.799679 0.798750 0.177232 0.574968
0.497199 0.172412 0.668628 -0.624716 0.188669 0.757716
0.098584 0.404975 0.654866 -0.247672 -0.837247 -0.487520
0.259514 0.415434 0.848097 0.527422 -0.846935 0.067283
0.471093 0.478812 0.574165 -0.938022 0.087312 -0.335399
0.636589 0.201020 0.384685 0.077972 0.930234 -0.358587
0.416056 0.404674 0.297825 -0.751599 0.651841 0.101005
0.724166 0.192660 0.411711 0.346270 0.874260 -0.340246
0.461286 0.116456 0.422402 -0.764440 -0.452214 -0.459493
0.504318 0.199696 0.439360 -0.313834 0.918568 -0.240292
0.305915 0.490611 0.696319 0.381022 -0.338841 0.860238
0.815532 0.470123 0.615353 0.490319 -0.658925 -0.570443
0.779191 0.149380 0.620258 0.836491 -0.120657 0.534532
0.732461 0.675669 0.400298 0.901557 -0.391624 -0.183915
0.737145 0.187369 0.380492 0.612485 0.416102 -0.672101
0.525298 0.288631 0.558230 -0.929156 -0.358632 0.089737
0.100745 0.412990 0.640004 -0.247695 -0.837269 -0.487471
0.369114 0.564655 0.760979 -0.580013 -0.202730 0.788977
0.505690 0.109422 0.380088 -0.557523 -0.482468 -0.675568
0.538055 0.463408 0.286847 0.945800 0.128002 -0.298458
0.769457 0.585460 0.406989 0.183490 -0.687537 -0.702584
0.471199 0.131240 0.639336 -0.714519 -0.359556 0.600152
0.645106 0.144918 0.706875 0.141200 -0.181719 0.973160
0.371366 0.585086 0.778883 0.068484 0.498517 -0.864170
0.413795 0.458210 0.619103 -0.374616 0.251651 -0.892376
0.572452 0.064054 0.651772 -0.211534 -0.662682 0.718405
0.724874 0.047705 0.463299 0.640767 -0.687161 -0.342385
0.583027 0.057094 0.387938 -0.213346 -0.681687 -0.699848
0.494572 0.202359 0.472398 -0.304796 0.941949 -0.140821
0.702229 0.336157 0.761222 0.216852 -0.932302 0.289462
0.691165 0.208897 0.576493 0.130956 0.984748 0.114553
0.239070 0.402670 0.847697 0.527433 -0.846928 0.067292
0.681033 0.215505 0.665115 0.351014 0.326129 0.877741
0.694022 0.028199 0.453274 0.666401 -0.398996 -0.629851
0.223975 0.392130 0.833377 0.527442 -0.846921 0.067305
0.687775 0.339287 0.809215 0.007815 0.904537 0.426324
0.161734 0.406732 0.677229 -0.828984 0.451760 0.329695
0.680448 0.314564 0.816920 -0.920077 0.353916 -0.167933
0.470647 0.103292 0.608224 -0.725817 -0.508310 0.463477
0.624132 0.211522 0.449200 0.015024 0.989795 -0.141704
0.693633 0.525263 0.580450 0.986953 0.019479 -0.159828
0.583719 0.136960 0.705538 -0.167310 -0.287230 0.943136
0.666043 0.468068 0.675919 0.848177 0.239042 0.472710
0.569979 0.163554 0.703713 -0.257061 0.073255 0.963615
0.467400 0.186147 0.571144 -0.483916 0.854145 0.190425
0.621473 0.215040 0.464843 0.010176 0.987353 -0.158213
0.902764 0.498464 0.750459 0.871480 0.187119 -0.453330
0.561723 0.201618 0.395547 -0.132935 0.934792 -0.329383
0.509873 0.547617 0.548512 -0.553663 0.684644 -0.474047
0.626450 0.559961 0.575671 -0.542265 0.529434 0.652417
0.365907 0.545569 0.753717 -0.580002 -0.202757 0.788979
0.345044 0.639414 0.406917 0.548417 0.836201 0.002663
0.484960 0.407009 0.579914 0.844713 0.104946 0.524830
0.167802 0.413818 0.682776 -0.828992 0.451752 0.329686
0.107111 0.490367 0.828357 -0.124424 -0.246449 0.961136
0.541888 0.157391 0.338953 -0.380136 -0.010259 -0.924874
0.754812 0.579335 0.413109 -0.014069 -0.998738 -0.048207
0.693251 0.060325 0.635220 0.426509 -0.672476 0.604869
0.587201 0.209624 0.594883 -0.059485 0.988468 0.139257
0.425700 0.156681 0.498578 -0.994042 -0.020052 -0.107141
0.725573 0.207515 0.477564 0.205990 0.976619 -0.061518
0.619262 0.196908 0.373258 0.019859 0.889725 -0.456065
0.522858 0.208529 0.488251 -0.171416 0.983172 -0.063168
0.807833 0.143710 0.499513 0.975798 -0.197956 -0.092907
0.602656 0.087239 0.357258 -0.094855 -0.571643 -0.815001
0.557880 0.197660 0.548718 -0.797410 -0.256192 0.546354
0.607200 0.448495 0.338150 0.185695 0.037531 -0.981890
0.544171 0.458205 0.303994 0.945800 0.127988 -0.298464
0.661301 0.475262 0.680789 0.848175 0.239051 0.472709
0.867938 0.373980 0.822466 0.784682 0.008938 0.619834
0.367372 0.624819 0.392038 0.548392 0.836218 0.002609
0.777973 0.737570 0.555309 0.393900 0.868631 -0.300539
0.789723 0.194986 0.476284 0.832897 0.521550 -0.185120
0.570961 0.028462 0.605830 -0.377443 -0.418188 0.826230
0.088285 0.408681 0.609425 0.271273 0.844453 -0.461855
0.716061 0.567012 0.558810 -0.553539 0.507867 0.660050
0.349997 0.501250 0.703347 -0.702290 -0.298110 0.646467
0.718886 0.141834 0.353830 0.514970 -0.221721 -0.828037
0.519041 0.122102 0.359655 -0.482268 -0.430278 -0.763072
0.477196 0.459583 0.210339 0.064430 -0.403913 -0.912526
0.084414 0.527110 0.849686 -0.793098 0.150730 -0.590149
0.568368 0.450530 0.686134 0.267932 0.924042 -0.272688
0.756751 0.197651 0.546066 0.427549 0.897936 0.104462
0.904875 0.495582 0.753326 0.871467 0.187080 -0.453371
0.544525 0.468599 0.723931 0.267912 0.924039 -0.272717
0.671558 0.162874 0.703485 0.267402 0.063658 0.961480
0.639400 0.456988 0.487770 -0.077554 -0.869955 -0.486995
0.506878 0.111185 0.377683 -0.550308 -0.475468 -0.686361
0.522596 0.123298 0.678941 -0.453567 -0.424789 0.783474
0.640463 0.216684 0.478021 0.089366 0.986152 -0.139707
0.548167 0.035514 0.440204 -0.501212 -0.690736 -0.521221
0.711580 0.470017 0.684538 0.057358 0.995250 -0.078667
0.476422 0.497177 0.536810 0.995829 -0.053317 -0.074034
0.550885 0.661892 0.286743 0.949087 0.313264 0.033170
0.777650 0.628380 0.806311 -0.618868 0.509300 -0.598011
0.605678 0.372349 0.461976 0.166274 0.475356 -0.863939
0.436366 0.145893 0.456540 -0.933843 -0.168697 -0.315403
0.670844 0.476961 0.767323 -0.548227 -0.730636 0.406963
0.387360 0.578835 0.400561 -0.686513 -0.106000 -0.719350
0.464586 0.090403 0.569911 -0.777934 -0.562723 0.279574
0.546843 0.201436 0.630425 -0.209257 0.934439 0.288157
0.667247 0.722101 0.495776 0.977973 0.168415 -0.123310
0.549570 0.074496 0.383675 -0.372865 -0.622810 -0.687808
0.770289 0.587692 0.797358 0.083311 -0.474224 0.876454
0.786954 0.113943 0.581682 0.832162 -0.462119 0.306518
0.790497 0.198079 0.540326 0.842916 0.523806 0.122960
0.637563 0.472620 0.504799 0.687651 0.629956 -0.360958
0.782659 0.547110 0.750057 0.316581 -0.783071 -0.535329
0.591175 0.180668 0.352188 -0.118404 0.836082 -0.535675
0.553390 0.462077 0.710546 0.267882 0.924041 -0.272742
0.615653 0.073966 0.666999 0.012438 -0.625254 0.780322
0.695126 0.166004 0.341815 0.414383 0.105745 -0.903938
0.135618 0.652404 0.711212 -0.489458 0.012188 0.871942
0.549970 0.460699 0.323442 0.945801 0.127987 -0.298462
0.511340 0.062731 0.425720 -0.580513 -0.668031 -0.465553
0.822061 0.478515 0.611272 0.490322 -0.658924 -0.570442
0.237417 0.476686 0.763217 0.237493 -0.959854 -0.149254
0.739279 0.049961 0.538405 0.719930 -0.686076 0.104883
0.747433 0.385386 0.842700 -0.606727 -0.786898 0.112577
0.530777 0.048662 0.430505 -0.532466 -0.683729 -0.498993
0.460261 0.532645 0.313723 -0.770887 0.119599 -0.625643
0.585364 0.613693 0.523265 -0.451775 0.617979 0.643429
0.529431 0.530983 0.557186 -0.017850 -0.494023 -0.869266
0.648532 0.789868 0.495641 0.296057 0.474813 -0.828796
0.806718 0.129380 0.498086 0.919020 -0.381500 -0.099299
0.333732 0.571873 0.227801 0.892628 -0.448648 0.043939
0.733147 0.087003 0.408285 0.583355 -0.575632 -0.573013
0.614932 0.218977 0.354755 0.038103 0.051325 -0.997955
0.621440 0.045482 0.634809 0.041544 -0.688129 0.724398
0.493780 0.205344 0.518500 -0.265369 0.963971 -0.018435
0.467235 0.505120 0.520327 -0.705210 0.667557 0.238845
0.669309 0.206404 0.626920 0.087453 0.970476 0.224786
0.799254 0.455937 0.714666 -0.094690 0.579743 0.809279
0.530958 0.576330 0.162271 -0.463914 0.026685 -0.885478
0.803621 0.131998 0.478561 0.916053 -0.350205 -0.195457
0.445494 0.201452 0.495493 -0.866034 0.484765 -0.122426
0.793659 0.197754 0.522950 0.850761 0.524070 0.039449
0.692238 0.190999 0.354390 0.383057 0.467996 -0.796397
0.161127 0.406117 0.676545 -0.828983 0.451761 0.329696
0.755982 0.180149 0.421882 0.432974 0.834295 -0.341299
0.120348 0.386687 0.724916 -0.556939 -0.337072 -0.759080
0.625078 0.186385 0.676373 0.041048 0.854330 0.518107
0.780345 0.457689 0.680012 -0.839061 -0.515712 -0.173256
0.507916 0.207833 0.533290 -0.204960 0.978622 0.017013
0.717124 0.478150 0.567424 -0.469682 0.882826 0.004072
0.875400 0.380811 0.812921 0.784683 0.008970 0.619833
0.791273 0.111863 0.478034 0.857293 -0.473466 -0.202184
0.505696 0.067757 0.608526 -0.572357 -0.650377 0.499417
0.403008 0.441473 0.202743 -0.294490 -0.938206 0.181781
0.622825 0.213709 0.355370 0.051816 0.346802 -0.936506
0.594655 0.044828 0.631714 -0.126822 -0.689087 0.713495
0.667219 0.469295 0.628644 0.247365 0.922528 0.296232
0.280581 0.406761 0.890106 -0.668977 0.409708 0.620169
0.708228 0.470783 0.572690 0.364009 0.774704 0.517040
0.191650 0.558965 0.702564 -0.208638 0.373028 0.904058
0.428448 0.156751 0.477587 -0.976379 -0.019022 -0.215225
0.769736 0.461578 0.702972 -0.938682 -0.047282 -0.341528
0.629381 0.494466 0.742894 -0.548232 -0.730625 0.406975
0.447567 0.151768 0.424180 -0.869357 -0.086944 -0.486475
0.511390 0.204296 0.384230 -0.543650 0.454156 -0.705823
0.648347 0.458519 0.643821 -0.799169 0.597860 -0.062392
0.574079 0.643510 0.428050 0.781809 0.044841 -0.621904
0.658100 0.335262 0.866080 0.540628 0.663876 0.516711
0.526414 0.540933 0.751881 -0.902069 0.195397 -0.384827
0.769910 0.111745 0.425563 0.750110 -0.474195 -0.460949
0.531128 0.556703 0.540954 0.289510 0.028355 0.956755
0.170685 0.427211 0.671675 -0.828982 0.451760 0.329698
0.807268 0.154541 0.492155 0.990682 -0.049599 -0.126839
0.622327 0.397112 0.453560 0.972087 -0.005790 0.234549
0.646696 0.162218 0.327378 0.163503 0.055218 -0.984996
0.500263 0.485312 0.216420 -0.800996 0.181175 -0.570598
0.554788 0.074529 0.654934 -0.301967 -0.621295 0.723054
0.791524 0.733626 0.565297 -0.116835 -0.914165 0.388140
0.748096 0.106183 0.633279 0.655751 -0.496213 0.569002
0.141230 0.632168 0.695795 0.664902 0.732988 -0.143645
0.646629 0.449982 0.353100 0.799087 0.534338 0.275578
0.251964 0.519745 0.947958 0.817966 0.502035 0.280879
0.692972 0.048042 0.422879 0.442179 -0.686877 -0.576782
0.586055 0.431916 0.660900 0.871895 0.120996 0.474510
0.636367 0.200128 0.382498 0.079407 0.922104 -0.378708
0.258536 0.426874 0.915818 -0.739570 -0.339250 -0.581331
0.663391 0.208510 0.429471 0.093498 0.983021 -0.157888
0.562956 0.184449 0.341567 -0.256302 0.372719 -0.891846
0.486561 0.368654 0.576091 -0.902561 -0.323735 0.283864
0.717502 0.064273 0.617401 0.549734 -0.662807 0.508409
0.097124 0.396671 0.698589 -0.875926 -0.055576 0.479233
0.521480 0.315421 0.553723 0.208168 0.417139 -0.884682
0.105749 0.387109 0.880660 -0.175240 -0.918011 0.355733
0.726931 0.455100 0.567320 -0.220043 -0.060592 -0.973606
0.614143 0.035701 0.414074 -0.047568 -0.692463 -0.719883
0.469081 0.210969 0.591679 -0.837155 0.376304 0.396946
0.666460 0.210942 0.465859 0.097535 0.990170 -0.100254
0.754457 0.064164 0.481464 0.716998 -0.662024 -0.218260
0.542281 0.193175 0.388010 -0.238887 0.875785 -0.419445
0.609004 0.060007 0.656721 -0.013932 -0.674487 0.738155
0.572010 0.200347 0.646052 -0.149028 0.923834 0.352592
0.789557 0.431092 0.631997 -0.759911 -0.397971 0.513959
0.596972 0.461160 0.247452 0.785664 0.275623 -0.553862
0.619246 0.474567 0.459576 -0.077549 -0.869957 -0.486992
0.626870 0.470875 0.215743 -0.431818 -0.391114 -0.812751
0.761506 0.197433 0.520792 0.447381 0.894030 0.023696
0.448085 0.176702 0.427787 -0.846810 0.252353 -0.468221
0.879623 0.411319 0.725113 -0.004374 0.365921 0.930636
0.204339 0.538761 0.707057 0.215322 0.438091 -0.872761
0.871454 0.392396 0.632200 -0.135134 -0.931171 -0.338614
0.594957 0.457087 0.242568 0.785661 0.275623 -0.553867
0.767019 0.580100 0.794934 0.100808 -0.994705 -0.019971
0.712499 0.626233 0.531765 0.006521 -0.986518 -0.163520
0.720060 0.346320 0.780597 0.216846 -0.932303 0.289463
0.624156 0.208549 0.419220 0.021987 0.983302 -0.180647
0.381306 0.595712 0.403851 -0.686528 -0.105983 -0.719338
0.585745 0.202611 0.643874 -0.107235 0.944060 0.311852
0.685634 0.624488 0.563000 0.148097 -0.901773 -0.406045
0.733627 0.081173 0.414853 0.587723 -0.597590 -0.545406
0.767505 0.499944 0.742603 0.766741 -0.364378 -0.528524
0.542997 0.472719 0.306499 0.945800 0.127986 -0.298466
0.702711 0.409806 0.716914 -0.582890 0.248986 0.773463
0.784221 0.146259 0.610568 0.861746 -0.163675 0.480213
0.647863 0.780850 0.480598 0.442012 -0.862638 -0.245927
0.486402 0.465070 0.585670 0.481022 0.306215 0.821493
0.585851 0.166504 0.327253 -0.148380 0.111939 -0.982575
0.520374 0.098226 0.380834 -0.497999 -0.530704 -0.685821
0.562608 0.616083 0.134885 0.334280 -0.884041 0.326693
0.235210 0.515858 0.712633 0.130319 0.802674 0.582007
0.647406 0.768382 0.482929 0.296051 0.474823 -0.828792
0.660128 0.465537 0.638393 0.761532 0.134482 0.634021
0.122806 0.659675 0.735328 0.291162 -0.950698 0.106763
0.484884 0.201299 0.542454 -0.358767 0.932046 0.050764
0.461880 0.457671 0.213232 -0.307577 0.735596 0.603568
0.683605 0.124853 0.693930 0.324811 -0.417998 0.848396
0.810462 0.375626 0.560982 -0.412803 -0.025843 -0.910454
0.597198 0.219846 0.496808 -0.114205 0.985434 -0.126002
0.782908 0.391281 0.769817 0.289954 -0.693282 -0.659762
0.626570 0.213604 0.576382 0.021348 0.988322 0.150876
0.802418 0.471658 0.602310 0.490322 -0.658924 -0.570441
0.605101 0.678298 0.293063 0.337407 -0.941065 -0.023517
0.153778 0.617641 0.697465 0.445383 0.711052 -0.544095
0.534575 0.610671 0.303000 -0.514161 0.404162 -0.756500
0.554895 0.451205 0.206982 0.286694 0.191904 -0.938605
0.627819 0.450229 0.453909 0.337529 -0.617445 0.710519
0.578083 0.208483 0.545286 0.894078 0.270113 0.357300
0.503873 0.048017 0.475896 -0.687574 -0.687074 -0.234887
0.225970 0.400814 0.705428 -0.121490 -0.452476 0.883462
0.679875 0.194358 0.383507 0.207482 0.879484 -0.428321
0.759817 0.403816 0.784800 0.568717 0.144496 0.809742
0.144918 0.424373 0.698084 0.460719 0.248123 0.852158
0.578241 0.128199 0.527914 -0.562316 -0.304194 0.768939
0.484197 0.154453 0.658316 -0.692397 -0.050308 0.719760
0.777301 0.746866 0.581303 0.393813 0.868684 -0.300500
0.359098 0.544152 0.748348 -0.580000 -0.202727 0.788988
0.651891 0.605509 0.596012 0.700892 0.409444 -0.584044
0.785423 0.740460 0.573427 0.393881 0.868643 -0.300529
0.543874 0.210224 0.502024 -0.134010 0.990486 -0.031278
0.507301 0.191086 0.375099 -0.526403 0.468257 -0.709673
0.778743 0.714719 0.464071 -0.473130 0.253317 -0.843788
0.517645 0.483143 0.271579 0.333351 -0.250731 -0.908851
0.481130 0.523049 0.467606 0.202795 -0.862556 -0.463543
0.425874 0.153798 0.486677 -0.984134 -0.059193 -0.167263
0.553379 0.212527 0.547818 -0.917799 -0.252930 0.306059
0.531469 0.622947 0.156116 0.926808 0.369138 0.069026
0.541316 0.180915 0.344619 -0.367303 0.315890 -0.874816
0.655936 0.221843 0.678908 0.154435 -0.230193 0.960813
0.723010 0.657046 0.393625 0.901554 -0.391626 -0.183931
0.379502 0.530532 0.759847 -0.580000 -0.202758 0.788980
0.613522 0.165352 0.324440 -0.007755 0.096595 -0.995294
0.516434 0.556909 0.131894 -0.089759 -0.992790 0.079445
0.488366 0.507488 0.259027 -0.721210 -0.657931 0.216755
0.576160 0.451324 0.214499 0.560780 -0.804551 -0.195510
0.463721 0.205146 0.590318 -0.816183 0.443942 0.369812
0.610954 0.209936 0.595996 -0.015094 0.989733 0.142132
0.576527 0.040141 0.415099 -0.291189 -0.689086 -0.663603
0.625551 0.069660 0.662839 0.067068 -0.643145 0.762802
0.803758 0.177880 0.489774 0.953957 0.273364 -0.123443
0.566984 0.057842 0.644295 -0.243371 -0.678069 0.693537
0.644027 0.678163 0.406324 0.386973 -0.642743 0.661161
0.569041 0.190235 0.344081 -0.222089 0.457239 -0.861167
0.289954 0.408154 0.899297 -0.668955 0.409716 0.620187
0.731054 0.470185 0.694284 -0.027148 0.959849 0.279201
0.771943 0.133721 0.631666 0.762483 -0.326263 0.558724
0.681589 0.197089 0.646162 0.189280 0.891907 0.410701
0.495552 0.496977 0.233529 0.758711 -0.360344 0.542687
0.534933 0.475373 0.287448 -0.299733 0.731970 0.611867
0.222360 0.412803 0.711071 -0.121475 -0.452447 0.883479
0.674026 0.393276 0.510766 -0.237376 -0.967496 0.087200
0.331305 0.527252 0.577433 0.550223 -0.620493 0.558787
0.685037 0.204844 0.672608 0.351887 0.449523 0.821039
0.747018 0.120399 0.385960 0.626309 -0.437505 -0.645234
0.684671 0.197627 0.643387 0.194986 0.897398 0.395800
0.468974 0.129389 0.636295 -0.718850 -0.382012 0.580793
0.665692 0.774355 0.492883 0.296052 0.474811 -0.828799
0.840752 0.542453 0.512338 -0.942211 0.206702 -0.263652
0.703200 0.209400 0.511276 0.157422 0.987515 -0.005737
0.323076 0.547066 0.224689 0.278483 0.880614 -0.383360
0.474228 0.099913 0.608572 -0.712079 -0.522765 0.468679
0.639489 0.215595 0.472254 0.068451 0.987008 -0.145363
0.767692 0.120739 0.406855 0.722718 -0.432802 -0.538852
0.589116 0.102375 0.686555 -0.132663 -0.512721 0.848244
0.138387 0.409473 0.654712 -0.192375 -0.616650 0.763370
0.677472 0.206352 0.411691 0.133658 0.969892 -0.203580
0.722140 0.152211 0.680596 0.532760 -0.080894 0.842391
0.092430 0.398860 0.727208 0.495960 -0.451580 0.741686
0.508859 0.186013 0.637109 -0.338537 0.851958 0.399451
0.659605 0.606928 0.606266 0.700888 0.409431 -0.584056
0.582408 0.347177 0.244060 0.567939 -0.503986 0.650725
0.706704 0.181382 0.659412 0.317661 0.837161 0.445256
0.780786 0.222155 0.499639 0.964796 -0.261286 -0.029956
0.568259 0.229368 0.552730 0.660247 0.230969 0.714652
0.462004 0.432136 0.589704 0.040218 0.820885 -0.569676
0.478912 0.196534 0.560594 -0.446619 0.885955 0.124959
0.812414 0.807643 0.409128 0.276972 -0.115887 -0.953864
0.634090 0.574649 0.572245 -0.302038 0.241556 -0.922184
0.704784 0.687157 0.596868 -0.559971 -0.098401 -0.822648
0.764525 0.578683 0.816431 0.097318 -0.993772 -0.054275
0.686466 0.191262 0.381741 0.221935 0.869893 -0.440489
0.559652 0.380015 0.595653 0.073537 0.596475 -0.799255
0.522321 0.525703 0.753740 -0.902061 0.195449 -0.384818
0.789203 0.373701 0.566617 0.462532 -0.351172 0.814090
0.529938 0.292269 0.548417 -0.192230 0.143276 -0.970834
0.706452 0.421268 0.712957 0.217767 0.428502 0.876906
0.671053 0.803779 0.437104 0.428289 -0.873359 -0.231975
0.656293 0.187362 0.338184 0.208277 0.413039 -0.886577
0.448781 0.205590 0.525706 -0.897089 0.440578 0.033511
0.395931 0.514532 0.257082 -0.517709 -0.716353 -0.467779
0.515310 0.557283 0.135306 -0.089714 -0.992799 0.079386
0.602537 0.156128 0.324088 -0.066928 -0.027417 -0.997381
0.167164 0.429815 0.802558 0.404312 -0.901241 -0.155871
0.438453 0.177396 0.577874 -0.919208 0.265972 0.290373
0.527487 0.352533 0.578646 -0.792336 0.588497 0.160854
0.564242 0.091177 0.671325 -0.255865 -0.558668 0.788938
0.779558 0.431743 0.689461 0.922543 0.335831 0.190084
0.716702 0.094405 0.649802 0.515795 -0.545193 0.660848
0.654198 0.599424 0.594516 0.700903 0.409432 -0.584038
0.104618 0.412573 0.638753 -0.247705 -0.837270 -0.487465
0.538552 0.272698 0.548514 -0.554495 -0.027209 -0.831742
0.679085 0.391552 0.505412 -0.237395 -0.967490 0.087221
0.841036 0.397334 0.630758 -0.135132 -0.931168 -0.338622
0.749593 0.174973 0.654666 0.663152 0.228692 0.712692
0.263723 0.416517 0.828735 0.527413 -0.846939 0.067301
0.259957 0.496905 0.878824 0.852400 -0.522120 0.028372
0.789543 0.379541 0.768254 0.568725 0.144506 0.809734
0.692073 0.201349 0.405276 0.212279 0.932445 -0.292376
0.717879 0.039181 0.476503 0.662647 -0.690075 -0.291025
0.551549 0.097763 0.361806 -0.344391 -0.529336 -0.775369
0.667333 0.128763 0.332077 0.235874 -0.385790 -0.891924
0.542851 0.499622 0.751722 0.068249 -0.143579 0.987283
0.355933 0.632252 0.413934 0.548386 0.836221 0.002605
0.740917 0.387786 0.824356 -0.606732 -0.786896 0.112563
0.927295 0.556151 0.765487 -0.098576 0.068473 0.992771
0.098922 0.375930 0.878652 0.213056 -0.542492 0.812594
0.588763 0.219567 0.506465 -0.155369 0.985332 -0.070581
0.671618 0.188775 0.691474 0.253585 0.434263 0.864355
0.201422 0.560591 0.717468 0.505302 -0.797947 0.328559
0.766820 0.619157 0.809663 -0.618844 0.509323 -0.598015
0.510182 0.331359 0.568808 -0.556276 -0.125203 0.821512
0.663009 0.473044 0.678847 0.848176 0.239050 0.472708
0.652371 0.448892 0.658344 0.474939 -0.871342 0.123270
0.561063 0.578956 0.440557 -0.714797 0.674362 -0.185206
0.242926 0.477890 0.770250 0.825425 -0.103733 -0.554898
0.663373 0.342222 0.793900 0.182170 -0.073646 -0.980505
0.820313 0.604981 0.568431 -0.085791 -0.950690 0.298040
0.643158 0.602415 0.583363 0.700909 0.409430 -0.584032
0.324759 0.544969 0.221095 0.278486 0.880616 -0.383355
0.573487 0.160099 0.330783 -0.219431 0.026649 -0.975264
0.464693 0.520344 0.469561 -0.336883 0.418667 -0.843343
0.457041 0.220754 0.481787 -0.951258 -0.126151 -0.281414
0.467143 0.086838 0.466298 -0.777242 -0.576953 -0.251039
0.773303 0.183137 0.572631 0.515782 0.842728 0.154204
0.511409 0.466222 0.064213 0.145337 -0.914161 0.378401
0.570825 0.223664 0.551702 0.686263 0.223934 0.692024
0.773941 0.106126 0.593030 0.784791 -0.497841 0.369130
0.776603 0.168228 0.407740 0.823740 0.133937 -0.550921
0.104566 0.657751 0.767946 0.291254 -0.950666 0.106796
0.541677 0.473147 0.302500 0.945800 0.127986 -0.298465
0.618712 0.219199 0.550840 -0.003479 0.984993 0.172561
0.498900 0.182840 0.403131 -0.405757 0.842255 -0.354920
0.785088 0.155514 0.610139 0.872105 -0.036194 0.487978
0.706323 0.035469 0.568641 0.634594 -0.694707 0.338633
0.453929 0.186401 0.431060 -0.803651 0.397836 -0.442573
0.488312 0.528072 0.464489 -0.488947 0.635615 -0.597431
0.699066 0.393075 0.866122 -0.339135 0.927614 -0.156588
0.694644 0.583456 0.550764 -0.589111 -0.209135 0.780520
0.471649 0.209769 0.435742 -0.792625 0.389568 -0.469022
0.543148 0.209647 0.481226 -0.133234 0.988571 -0.070548
0.480984 0.066229 0.475054 -0.728106 -0.655910 -0.199105
0.516143 0.042149 0.568647 -0.636527 -0.687612 0.349318
0.585909 0.167438 0.521895 0.241947 0.435042 -0.867294
0.628107 0.133149 0.707572 0.056897 -0.336076 0.940115
0.741952 0.205471 0.519727 0.264293 0.964201 0.021598
0.537814 0.106105 0.673005 -0.387675 -0.496443 0.776693
0.663065 0.196214 0.656243 0.134540 0.884214 0.447286
0.466011 0.511581 0.505797 -0.576836 0.769477 0.274164
0.541940 0.037786 0.441995 -0.525421 -0.690249 -0.497482
0.557849 0.572162 0.428226 -0.714803 0.674354 -0.185215
0.552719 0.460994 0.317712 0.519891 -0.592687 -0.615171
0.135445 0.408538 0.630014 -0.247777 -0.837215 -0.487522
0.559842 0.461256 0.714102 0.267961 0.924018 -0.272740
0.640005 0.490633 0.750325 -0.548223 -0.730627 0.406983
0.481026 0.065979 0.559644 -0.712493 -0.656636 0.247350
0.655233 0.209262 0.680660 0.188329 0.395592 0.898910
0.723727 0.093447 0.642327 0.551793 -0.550369 0.626593
0.659108 0.070595 0.376301 0.193430 -0.637285 -0.745957
0.666867 0.472838 0.623293 -0.338876 -0.485444 -0.805920
0.607052 0.053080 0.388044 -0.086972 -0.679383 -0.728611
0.741221 0.375976 0.819715 0.441564 -0.580195 -0.684394
0.571725 0.219865 0.673825 -0.338832 -0.037738 0.940090
0.375492 0.589298 0.787114 -0.338259 0.724114 -0.601033
0.191122 0.457328 0.772783 -0.796446 0.588709 -0.138189
0.691666 0.186863 0.684099 0.354694 0.408782 0.840886
0.701697 0.035834 0.578308 0.597996 -0.691293 0.405604
0.648544 0.586973 0.579002 0.700906 0.409441 -0.584029
0.514795 0.337520 0.569619 0.660368 0.196816 0.724692
0.506072 0.207602 0.493939 -0.204210 0.977272 -0.056896
0.802784 0.135114 0.562766 0.924364 -0.310681 0.221423
0.691300 0.672262 0.600333 -0.262329 0.964868 -0.014582
0.382306 0.593474 0.788310 -0.338251 0.724143 -0.601001
0.625062 0.535969 0.500599 -0.019220 -0.700458 -0.713435
0.749402 0.067978 0.458763 0.685265 -0.648196 -0.332045
0.458486 0.114170 0.428877 -0.779368 -0.460373 -0.425020
0.732035 0.708395 0.484835 -0.324325 -0.091322 -0.941527
0.696058 0.342408 0.790079 -0.920079 0.353901 -0.167953
0.408635 0.463948 0.627499 0.342800 0.830699 -0.438665
0.208446 0.411341 0.708409 -0.121480 -0.452469 0.883467
0.767207 0.146750 0.639300 0.764061 -0.155594 0.626099
0.518827 0.180984 0.359368 -0.483905 0.320766 -0.814215
0.738157 0.197881 0.591933 0.361309 0.900127 0.243367
0.718150 0.399935 0.760962 0.105831 0.887733 -0.448029
0.428581 0.177411 0.509205 -0.962016 0.265951 -0.061606
0.110847 0.402675 0.724369 -0.875938 -0.055547 0.479216
0.714330 0.047300 0.590111 0.600176 -0.683665 0.415200
0.465476 0.533462 0.386542 0.769377 -0.637052 -0.047159
0.705684 0.470665 0.678108 0.294031 0.779920 -0.552512
0.745883 0.383810 0.823324 -0.606731 -0.786897 0.112565
0.482619 0.184304 0.427335 -0.451849 0.848377 -0.275843
0.659580 0.039349 0.617227 0.296326 -0.692450 0.657803
0.659975 0.057418 0.645840 0.258833 -0.679860 0.686145
0.568238 0.526464 0.414612 0.746610 0.616394 -0.250262
0.199510 0.568374 0.700495 -0.208613 0.373041 0.904058
0.764747 0.578968 0.789413 -0.241761 -0.067026 0.968018
0.354108 0.600999 0.824489 0.798748 0.177235 0.574970
0.602582 0.140515 0.522302 0.724503 0.514094 -0.459133
0.220419 0.405874 0.707255 -0.121483 -0.452468 0.883467
0.532156 0.088179 0.652753 -0.426126 -0.571662 0.701155
0.711632 0.567403 0.554796 -0.553531 0.507899 0.660032
0.483382 0.200156 0.546599 -0.382607 0.921807 0.062327
0.644868 0.207498 0.404976 0.064550 0.976373 -0.206228
0.707661 0.385376 0.720141 0.262807 0.481814 0.835935
0.541447 0.484868 0.749673 0.068249 -0.143589 0.987281
0.569293 0.054372 0.639657 -0.241841 -0.680310 0.691875
0.469415 0.449939 0.350714 0.511184 -0.296410 -0.806742
0.687344 0.322938 0.796790 -0.920076 0.353911 -0.167948
0.685700 0.038455 0.599973 0.472621 -0.692316 0.545277
0.491605 0.186665 0.382045 -0.611904 0.401412 -0.681500
0.617419 0.081219 0.672480 0.018892 -0.597976 0.801291
0.486921 0.060213 0.472084 -0.703780 -0.677531 -0.213649
0.113567 0.665078 0.698657 -0.489461 0.012172 0.871940
0.456000 0.196779 0.588301 -0.777998 0.536530 0.326886
0.585756 0.191215 0.694633 -0.171700 0.470244 0.865673
0.593275 0.049249 0.397151 -0.162510 -0.685845 -0.709372
0.109510 0.399475 0.721553 -0.875925 -0.055541 0.479240
0.456925 0.462899 0.338038 0.511198 -0.296416 -0.806731
0.527853 0.318052 0.565988 0.753736 0.308406 0.580317
0.756607 0.061743 0.505715 0.735880 -0.670860 -0.091795
0.775265 0.528117 0.544956 0.705070 -0.329184 -0.628103
0.535695 0.349455 0.583048 0.546089 -0.759729 0.352987
0.251522 0.499624 0.905302 -0.659457 0.700016 -0.274033
0.416979 0.453795 0.626551 -0.145141 -0.737569 0.659489
0.627418 0.533658 0.506756 -0.022690 0.629852 0.776384
0.571912 0.199002 0.649385 -0.155818 0.910974 0.381899
0.299374 0.579910 0.540826 -0.972864 -0.171651 -0.155152
0.082967 0.375389 0.669187 0.800831 -0.419073 -0.427842
0.466161 0.210050 0.449746 -0.832936 0.388857 -0.393710
0.832625 0.542424 0.541355 -0.942202 0.206722 -0.263670
0.693505 0.498552 0.576406 0.986953 0.019478 -0.159824
0.442607 0.124754 0.447487 -0.845024 -0.418479 -0.332881
0.424168 0.435620 0.206817 -0.294488 -0.938207 0.181783
0.635387 0.520623 0.519288 -0.335407 0.445732 0.829955
0.631783 0.083796 0.673289 0.090312 -0.589140 0.802968
0.670080 0.352734 0.831099 0.540620 0.663869 0.516728
0.541390 0.209812 0.541155 -0.139330 0.989478 0.038994
0.738550 0.115801 0.382996 0.589754 -0.457351 -0.665598
0.078500 0.499424 0.850562 -0.793092 0.150721 -0.590160
0.828330 0.397180 0.636255 -0.135148 -0.931168 -0.338618
0.861054 0.394254 0.631240 -0.135142 -0.931170 -0.338612
0.683338 0.211757 0.502008 0.140592 0.989591 -0.030717
0.529027 0.088307 0.650827 -0.442585 -0.571076 0.691369
0.785744 0.786698 0.403929 0.276922 -0.115834 -0.953885
0.808240 0.607669 0.539168 0.412997 0.257241 0.873648
0.651083 0.209752 0.590578 0.057428 0.989235 0.134600
0.332685 0.527735 0.572856 0.116329 0.748168 0.653232
0.645450 0.089143 0.358864 0.127215 -0.566593 -0.814119
0.274815 0.518009 0.896219 -0.659447 0.700012 -0.274067
0.495835 0.189085 0.421078 -0.400540 0.862929 -0.308093
0.881625 0.387622 0.804943 0.784680 0.008959 0.619836
0.200349 0.542965 0.711172 -0.208624 0.373034 0.904058
0.342639 0.492158 0.672616 -0.355755 0.901349 -0.247000
0.376175 0.606535 0.807496 -0.338227 0.724131 -0.601030
0.704869 0.050462 0.606137 0.522825 -0.685799 0.506294
0.531245 0.209375 0.525391 -0.157829 0.987432 0.008303
0.530865 0.160218 0.344908 -0.437922 0.028100 -0.898574
0.649395 0.061485 0.654521 0.198367 -0.669110 0.716200
0.603404 0.221358 0.506317 -0.121839 0.986908 -0.105680
0.809982 0.393762 0.818350 0.739784 0.339380 -0.580983
0.178810 0.444603 0.780653 -0.878551 0.448347 -0.164721
0.512563 0.044459 0.568599 -0.642832 -0.687009 0.338801
0.829582 0.493767 0.580806 0.438691 0.738609 0.511866
0.950577 0.555239 0.767862 -0.098560 0.068432 0.992775
0.590030 0.148749 0.707870 -0.145062 -0.128942 0.980985
0.601965 0.036780 0.621454 -0.081474 -0.692347 0.716950
0.759736 0.372930 0.821938 -0.606733 -0.786893 0.112578
0.772785 0.083346 0.501191 0.800896 -0.590161 -0.101367
0.807916 0.729395 0.570925 0.393812 0.868672 -0.300537
0.650511 0.192438 0.665899 0.105269 0.872077 0.477913
0.760061 0.183782 0.595234 0.477898 0.846939 0.233042
0.044426 0.405100 0.684831 0.083817 -0.444929 -0.891635
0.533182 0.610186 0.270563 -0.317305 -0.941290 -0.115287
0.518173 0.181941 0.649893 -0.300986 0.840547 0.450430
0.835730 0.439620 0.720455 0.395998 0.141545 0.907276
0.481501 0.514506 0.270711 -0.190102 -0.936151 0.295776
0.340979 0.439665 0.173753 0.971224 0.016087 -0.237622
0.699662 0.350815 0.759648 -0.901096 0.106515 0.420333
0.542891 0.281278 0.561348 0.453632 0.208823 0.866378
0.568596 0.196216 0.525657 -0.144011 0.299880 -0.943045
0.519447 0.533081 0.556378 0.008200 -0.394447 -0.918882
0.525032 0.347429 0.566742 -0.315794 0.756137 -0.573175
0.329181 0.563268 0.232424 0.892615 -0.448679 0.043887
0.780392 0.457690 0.679856 -0.845308 -0.504844 -0.174893
0.500714 0.166343 0.364166 -0.591197 0.109883 -0.799007
0.784094 0.455912 0.678163 0.350833 -0.935916 0.031273
0.581240 0.216373 0.547577 -0.125841 0.986337 0.106313
0.674801 0.208909 0.591308 0.099296 0.985107 0.140370
0.569249 0.618141 0.133659 0.334285 -0.884038 0.326696
0.299827 0.554643 0.565952 -0.972860 -0.171676 -0.155146
0.134199 0.406782 0.705831 -0.556946 -0.337037 -0.759090
0.429990 0.123881 0.512835 -0.906163 -0.422580 -0.017174
0.102238 0.423210 0.644183 0.271225 0.844434 -0.461917
0.795346 0.186756 0.476010 0.893626 0.406593 -0.190039
0.128878 0.500722 0.833831 -0.124456 -0.246466 0.961127
0.793608 0.592864 0.550444 0.412992 0.257267 0.873643
0.748209 0.089564 0.613675 0.676746 -0.563283 0.474054
0.686315 0.042807 0.608035 0.454687 -0.688488 0.565016
0.352618 0.605901 0.777883 0.163949 -0.725119 -0.668822
0.555590 0.576312 0.452061 -0.714827 0.674344 -0.185153
0.521443 0.344641 0.571956 -0.802565 0.582493 0.128807
0.583240 0.157742 0.706710 -0.184004 -0.005536 0.982910
0.476006 0.067545 0.548747 -0.737849 -0.648334 0.187726
0.789310 0.143755 0.434322 0.881779 -0.197551 -0.428299
0.669498 0.783034 0.499215 0.296064 0.474807 -0.828797
0.653556 0.464805 0.546287 -0.407969 -0.283108 0.867993
0.224385 0.403688 0.715090 -0.598115 0.781175 -0.178953
0.572177 0.525113 0.565622 0.195993 0.898081 0.393748
0.602086 0.061985 0.377543 -0.109124 -0.667500 -0.736570
0.642140 0.480159 0.734396 -0.548241 -0.730621 0.406970
0.779798 0.092956 0.537090 0.829079 -0.552232 0.087567
0.518947 0.049233 0.444344 -0.592011 -0.686609 -0.422008
0.465351 0.538105 0.369923 0.082834 0.996077 -0.031119
0.528774 0.039562 0.454691 -0.599421 -0.692235 -0.401877
0.498200 0.207052 0.496820 -0.221907 0.973534 -0.054675
0.765865 0.213916 0.451756 0.867721 0.343975 -0.358806
0.623921 0.178005 0.329122 0.051307 0.275063 -0.960056
0.519432 0.180147 0.653668 -0.292242 0.835333 0.465633
0.603727 0.040794 0.407228 -0.110659 -0.688475 -0.716768
0.702197 0.461540 0.679617 0.202479 -0.933220 -0.296821
0.534209 0.564072 0.160696 -0.801116 0.438510 0.407336
0.678971 0.689350 0.495821 0.405571 -0.694045 -0.594823
0.784046 0.513722 0.547817 0.535987 0.091919 -0.839207
0.550191 0.573102 0.461218 -0.714806 0.674369 -0.185146
0.434034 0.118649 0.498780 -0.892382 -0.443439 -0.083760
0.452869 0.173539 0.417292 -0.826631 0.205462 -0.523895
0.626850 0.215367 0.466763 0.031659 0.987156 -0.156592
0.777550 0.096977 0.465720 0.800159 -0.532777 -0.275488
0.470465 0.144455 0.639691 -0.755620 -0.188218 0.627386
0.702614 0.118618 0.680328 0.421104 -0.444444 0.790659
0.475808 0.118387 0.401313 -0.695976 -0.446218 -0.562590
0.633257 0.049989 0.394741 0.072902 -0.685500 -0.724414
0.688015 0.054695 0.405967 0.367582 -0.678924 -0.635567
0.604561 0.373391 0.462335 0.166273 0.475357 -0.863938
0.580271 0.625222 0.141543 0.334301 -0.884096 0.326524
0.484403 0.056298 0.517600 -0.730706 -0.682185 0.026316
0.752515 0.115855 0.639374 0.665407 -0.455534 0.591373
0.619797 0.035386 0.620165 0.038743 -0.694159 0.718779
0.572441 0.470758 0.300120 -0.340328 0.184036 -0.922121
0.080248 0.507553 0.850290 -0.793089 0.150735 -0.590160
0.625651 0.190913 0.670067 0.029722 0.868859 0.494166
0.766351 0.572955 0.785841 0.319497 0.577878 -0.750986
0.796953 0.385480 0.563614 0.282224 -0.469857 -0.836412
0.710999 0.373462 0.728350 0.749439 -0.272887 -0.603220
0.637077 0.153701 0.708072 0.098843 -0.061176 0.993221
0.679777 0.198188 0.644051 0.174702 0.903601 0.391131
0.822768 0.480347 0.595132 0.136517 -0.929504 -0.342616
0.773741 0.128601 0.627694 0.756049 -0.389102 0.526299
0.640822 0.497992 0.764637 -0.548219 -0.730627 0.406988
0.538081 0.261752 0.559378 -0.829062 -0.289462 0.478401
0.357745 0.602217 0.819061 0.798746 0.177228 0.574975
0.692385 0.342980 0.811408 -0.920075 0.353926 -0.167926
0.569002 0.459201 0.360396 -0.109894 -0.835382 0.538573
0.813695 0.787688 0.411925 0.276971 -0.115813 -0.953874
0.646784 0.787788 0.493824 0.296079 0.474821 -0.828784
0.760309 0.197630 0.525062 0.440751 0.896851 0.037374
0.630873 0.777877 0.482462 0.296056 0.474818 -0.828794
0.116194 0.667228 0.700102 -0.489460 0.012178 0.871941
0.349514 0.540559 0.245624 -0.423069 -0.071119 0.903302
0.461939 0.503118 0.368220 -0.947215 0.090020 -0.307702
0.700815 0.559675 0.551670 -0.553520 0.507904 0.660038
0.755493 0.715013 0.481261 0.159592 0.987169 -0.005298
0.792165 0.199867 0.513468 0.865235 0.501289 -0.008804
0.715422 0.090300 0.388503 0.487736 -0.562125 -0.667929
0.475314 0.521854 0.471930 0.408274 -0.883205 0.230783
0.732648 0.207490 0.522897 0.213968 0.976557 0.023532
0.727827 0.096826 0.393065 0.552153 -0.536676 -0.638049
0.048817 0.392078 0.752248 0.496047 -0.451506 0.741673
0.625165 0.443272 0.449124 0.337533 -0.617452 0.710510
0.355793 0.607521 0.786051 0.229483 0.250700 0.940472
0.660813 0.217359 0.674338 0.224265 0.206685 0.952358
0.746461 0.084372 0.426698 0.651753 -0.584970 -0.482730
0.544514 0.210406 0.532489 -0.136031 0.990368 0.025832
0.768236 0.622896 0.811382 -0.618840 0.509303 -0.598036
0.511335 0.324504 0.555204 -0.261256 0.187993 -0.946786
0.677498 0.059457 0.641398 0.347663 -0.679915 0.645637
0.695350 0.490551 0.586823 0.986953 0.019479 -0.159826
