0.354135 0.863380 0.142876 0.400404 0.478531 -0.781463
0.622162 0.569249 0.400479 0.653425 0.362542 0.664529
0.262219 0.320946 0.275009 0.784044 0.433948 0.443807
0.429327 0.065583 0.363802 -0.772799 0.589550 -0.234973
0.392480 0.183037 0.352549 0.839168 0.300677 0.453201
0.192326 0.410012 0.331309 0.409676 -0.836872 0.363057
0.228398 0.938189 0.339808 -0.466536 0.861463 -0.200561
0.366496 0.406631 0.517853 0.298659 -0.710713 -0.636938
0.489605 0.311461 0.566154 -0.290905 -0.333222 -0.896849
0.481140 0.430637 0.207654 -0.609462 -0.792612 -0.017975
0.345457 0.351524 0.420947 -0.805682 0.487949 -0.335831
0.468436 0.273916 0.398750 0.000000 -1.000000 0.000000
0.343526 0.428378 0.205668 0.302549 0.872159 -0.384453
0.237508 0.292495 0.352635 0.900383 0.422871 -0.102425
0.455250 0.075291 0.301186 0.769113 -0.399959 -0.498496
0.138485 0.379575 0.322184 0.583281 -0.703835 0.405461
0.281431 0.192682 0.419305 0.672751 0.416610 -0.611425
0.334123 0.356863 0.096012 -0.414322 -0.523319 0.744630
0.354704 0.359405 0.353172 -0.633671 0.295135 -0.715092
0.551548 0.254321 0.569507 0.232662 0.373233 0.898090
0.523970 0.291140 0.367482 0.997016 0.058583 0.050278
0.495967 0.453461 0.476781 -0.062612 -0.777433 -0.625842
0.544265 0.655421 0.404841 -0.430598 -0.648933 -0.627273
0.452727 0.318236 0.264970 -0.551184 0.439414 0.709304
0.462094 0.180087 0.421519 0.728848 -0.368681 0.576936
0.380957 0.225704 0.360328 0.756331 0.332235 0.563545
0.498893 0.936049 0.280574 -0.768127 -0.609888 0.194980
0.335760 0.065583 0.334556 0.244237 0.936582 0.251321
0.306212 0.198610 0.325952 0.826881 -0.343344 0.445403
0.475056 0.214825 0.415104 0.778915 -0.357608 0.515178
0.481986 0.956265 0.370674 0.056787 0.985734 0.158445
0.280164 0.427152 0.574651 -0.675422 0.278498 0.682821
0.418056 0.288039 0.462134 -0.488809 0.431336 -0.758298
0.339069 0.305278 0.350368 0.673623 -0.291641 0.679101
0.356927 0.430869 0.335214 -0.544547 0.000775 -0.838730
0.324208 0.335204 0.357839 -0.520151 -0.223253 0.824379
0.583037 0.637979 0.389556 0.550643 0.520836 0.652320
0.344227 0.228243 0.389435 0.940531 -0.221945 0.257180
0.197781 0.328130 0.353109 -0.871097 0.465701 -0.155923
0.357155 0.203060 0.301129 0.474975 0.327395 -0.816830
0.399884 0.367106 0.302364 -0.382028 -0.563355 -0.732588
0.266101 0.219147 0.410038 0.762285 0.417116 -0.494910
0.202359 0.717712 0.394236 -0.608340 0.570438 -0.551836
0.406030 0.192274 0.382452 -0.653553 0.251358 0.713924
0.105641 0.508430 0.396120 0.893202 -0.301752 0.333371
0.553981 0.355017 0.165529 -0.851343 -0.508922 0.127333
0.590489 0.515459 0.262702 0.944587 0.295877 0.142168
0.378161 0.158122 0.467928 0.092859 -0.371738 0.923682
0.286411 0.098385 0.402688 0.804817 0.404798 -0.434061
0.386157 0.507974 0.356502 -0.765006 0.234475 0.599823
0.151965 0.626717 0.377913 -0.792621 0.444106 -0.417758
0.238859 0.952175 0.355300 -0.222879 0.938755 -0.262801
0.473629 0.949727 0.261050 0.602859 0.796448 -0.047241
0.408146 0.702447 0.403747 -0.537207 0.764045 -0.357274
0.164704 0.665174 0.403491 -0.770908 0.459299 -0.441300
0.339289 0.672800 0.286999 -0.595572 -0.629064 -0.499573
0.331300 0.576091 0.344168 -0.203259 0.173052 -0.963711
0.287270 0.952051 0.342075 -0.112864 -0.946325 0.302872
0.481655 0.693472 0.406988 0.123270 0.913174 0.388481
0.618100 0.384694 0.325546 0.634536 0.653184 0.413177
0.420995 0.273916 0.278959 0.000000 -1.000000 0.000000
0.175248 0.423560 0.475850 -0.761111 0.611167 -0.217220
0.272699 0.576710 0.517917 -0.584753 0.425857 0.690442
0.314403 0.557416 0.342695 0.153743 -0.192567 0.969165
0.432204 0.647135 0.212055 0.613712 0.690231 -0.383326
0.378134 0.432725 0.396324 0.422903 -0.684709 0.593571
0.355696 0.244438 0.335214 -0.468246 -0.005226 -0.883583
0.441105 0.273916 0.318236 0.000000 -1.000000 0.000000
0.394336 0.412798 0.393913 -0.949371 0.140018 0.281230
0.353072 0.946127 0.211871 0.232876 0.856149 -0.461279
0.443979 0.611204 0.170455 -0.643218 -0.543552 0.539279
0.365345 0.300275 0.301421 -0.886064 -0.242089 -0.395327
0.400076 0.625142 0.315140 0.172375 0.446446 0.878051
0.289948 0.313741 0.248930 0.617815 0.430178 0.658218
0.268485 0.076922 0.397381 -0.805338 -0.386976 0.449088
0.494260 0.673641 0.330271 -0.659514 -0.742772 -0.115460
0.412953 0.656953 0.302862 -0.142029 -0.699491 -0.700386
0.427296 0.566574 0.552454 0.010967 0.275239 0.961313
0.255711 0.206730 0.366901 0.891895 0.416075 -0.177213
0.308897 0.393115 0.393777 -0.312065 0.736369 -0.600313
0.591246 0.521154 0.249642 -0.936843 -0.319014 -0.143370
0.509675 0.273623 0.570777 0.251306 0.324879 0.911756
0.219734 0.393105 0.184236 -0.003860 0.597315 -0.801997
0.452132 0.221736 0.263717 0.723753 -0.360175 -0.588605
0.654588 0.297691 0.373028 0.836554 0.364138 0.409367
0.385298 0.292866 0.511488 0.172819 0.078237 0.981841
0.319709 0.711459 0.262891 0.549861 0.804106 0.225980
0.322064 0.394657 0.320760 -0.840817 -0.479215 -0.251752
0.416469 0.127279 0.251971 0.425435 -0.382209 -0.820318
0.434496 0.429204 0.289541 -0.136783 0.889135 0.436725
0.252900 0.720640 0.363638 0.106707 0.836118 -0.538071
0.390651 0.375609 0.151574 -0.404633 -0.730505 0.550122
0.376691 0.304331 0.327695 -0.500659 -0.223433 -0.836312
0.556886 0.617376 0.435878 0.496219 0.591604 0.635430
0.268543 0.301270 0.220866 -0.563356 0.180041 -0.806359
0.396805 0.025000 0.286801 0.287355 -0.616909 -0.732701
0.236029 0.686758 0.300379 0.334793 -0.789421 0.514517
0.155029 0.206262 0.120958 0.287354 -0.331564 0.898606
0.431247 0.474505 0.102206 -0.691306 -0.292534 0.660697
0.272452 0.111099 0.369557 0.905038 0.409137 -0.116248
0.351031 0.273916 0.446202 0.000000 -1.000000 0.000000
0.216791 0.327503 0.280593 -0.713063 0.464747 -0.524930
0.471259 0.437893 0.448396 0.180687 -0.944885 -0.273029
0.273504 0.916373 0.463457 0.509646 -0.703851 -0.494828
0.298497 0.576643 0.536603 -0.602755 0.388253 0.697099
0.441677 0.441977 0.271689 0.008108 0.949311 0.314235
0.345266 0.542706 0.298991 -0.971947 -0.148430 0.182448
0.321535 0.319251 0.297705 0.851475 0.267930 -0.450781
0.562543 0.607163 0.443244 0.519323 0.569160 0.637465
0.442580 0.542854 0.139064 0.660389 0.277169 -0.697900
0.396411 0.557413 0.350594 -0.824801 0.218382 0.521549
0.228400 0.709127 0.376126 0.390620 -0.709462 0.586582
0.291776 0.691046 0.285868 0.441836 0.874352 -0.200723
0.471043 0.175610 0.406004 0.814745 -0.371453 0.445212
0.211047 0.271771 0.302001 -0.972973 -0.166823 -0.159667
0.346851 0.521364 0.328992 -0.644318 0.235505 -0.727593
0.354575 0.280136 0.489895 -0.192471 -0.335031 0.922339
0.410393 0.273916 0.320607 0.000000 -1.000000 0.000000
0.452110 0.221873 0.418074 -0.752336 0.429317 -0.499678
0.278175 0.708370 0.206571 0.369131 0.545656 -0.752331
0.281396 0.633138 0.164363 -0.208821 -0.446695 0.869975
0.349096 0.294773 0.362024 -0.194248 -0.292251 0.936406
0.474113 0.399992 0.529717 0.163600 0.661086 0.732257
0.338788 0.609806 0.339251 0.893178 0.209215 0.398073
0.354761 0.372521 0.283512 -0.732099 -0.602166 -0.318477
0.507612 0.410033 0.200654 0.698072 0.715917 -0.012557
0.228859 0.429734 0.216952 -0.124239 -0.666264 0.735294
0.342481 0.644874 0.312055 0.774794 0.350698 0.526028
0.208880 0.281656 0.394476 -0.932714 -0.054516 0.356473
0.451279 0.605983 0.540578 0.006588 -0.373865 -0.927460
0.367060 0.952661 0.274540 0.332171 0.941713 0.053283
0.372320 0.161889 0.344145 0.882901 -0.017424 0.469236
0.334111 0.362545 0.362206 -0.512881 0.313192 -0.799289
0.297707 0.272712 0.250575 0.568490 0.422429 0.705955
0.301859 0.435718 0.266763 0.496427 0.863054 0.093265
0.261458 0.273916 0.326972 0.000000 -1.000000 0.000000
0.381785 0.026828 0.259190 0.071172 -0.415036 -0.907017
0.423956 0.685187 0.507167 0.082511 -0.579261 -0.810956
0.374226 0.025000 0.274340 0.029254 -0.564514 -0.824905
0.128198 0.592276 0.398666 -0.888664 0.331610 -0.316721
0.260881 0.201753 0.321407 0.886368 0.413774 0.207708
0.341768 0.570899 0.349003 -0.936683 -0.218304 -0.273805
0.336549 0.139470 0.461931 -0.250479 -0.371525 0.893996
0.295181 0.416216 0.386361 0.411566 0.688431 -0.597224
0.267894 0.952066 0.331460 0.000464 -0.957121 0.289689
0.360553 0.940274 0.388106 -0.609833 0.763582 -0.212240
0.468937 0.329084 0.441620 -0.694569 0.713884 0.089125
0.476310 0.439275 0.491550 0.002669 -0.812718 -0.582651
0.353690 0.649044 0.296568 0.684796 0.492609 0.537021
0.436458 0.114790 0.409199 -0.695505 0.417751 -0.584600
0.374273 0.691270 0.422455 0.470079 -0.835804 0.283650
0.393147 0.426559 0.368702 -0.597053 0.149305 0.788185
0.435285 0.695530 0.311309 -0.319218 0.824674 0.466918
0.703337 0.212017 0.347074 -0.809887 -0.369785 -0.455348
0.057946 0.264954 0.346623 0.796111 -0.418319 0.437282
0.319730 0.122277 0.437591 0.460603 0.411314 -0.786553
0.186881 0.418499 0.432308 0.653320 -0.683063 0.326492
0.506270 0.330006 0.555837 -0.280174 -0.400852 -0.872250
0.231646 0.715142 0.378184 0.383625 -0.721460 0.576478
0.291553 0.693627 0.375334 -0.606638 -0.628931 0.486247
0.469655 0.135707 0.386683 0.871977 -0.382256 0.305836
0.471015 0.285349 0.469740 0.730090 -0.010587 0.683269
0.252068 0.368223 0.171274 0.067094 0.635567 -0.769125
0.341523 0.587780 0.310308 0.955933 0.184150 -0.228650
0.337722 0.454436 0.355518 -0.969871 0.231781 -0.075014
0.496420 0.273916 0.385067 0.000000 -1.000000 0.000000
0.077653 0.276600 0.320351 0.823714 -0.369235 0.430303
0.344863 0.541313 0.309131 0.951441 0.165395 -0.259625
0.443994 0.710318 0.291784 -0.102286 0.909781 0.402288
0.347434 0.939233 0.198002 0.244126 0.774119 -0.584073
0.310458 0.304999 0.238799 0.476274 0.431059 0.766388
0.188062 0.685173 0.378249 0.658755 -0.538659 0.525250
0.487878 0.329084 0.397154 -0.812867 0.582105 -0.020053
0.349047 0.432468 0.323460 -0.373232 -0.236613 0.897057
0.198229 0.297726 0.139999 0.241002 -0.346577 0.906533
0.474282 0.696820 0.301067 0.496774 0.846527 0.191333
0.397196 0.555270 0.330924 0.149710 0.192091 0.969891
0.430168 0.555919 0.132171 0.661784 0.299352 -0.687335
0.462635 0.434173 0.239535 -0.471408 -0.881891 -0.006572
0.368596 0.326783 0.589968 0.354344 -0.474277 -0.805917
0.428211 0.394110 0.336903 0.750255 -0.401944 -0.524937
0.447502 0.589596 0.547945 0.007326 0.334229 0.942463
0.401070 0.547633 0.360051 -0.891101 0.196758 0.408932
0.493382 0.240528 0.362466 0.917940 -0.348738 0.189124
0.323505 0.473276 0.384413 -0.736477 0.133211 -0.663217
0.318016 0.384625 0.333957 0.762982 0.391866 -0.514100
0.382624 0.684872 0.410870 -0.520953 0.764660 -0.379346
0.343235 0.410814 0.320192 -0.351983 -0.216515 0.910620
0.331110 0.473947 0.329039 -0.629086 0.233664 -0.741385
0.516354 0.881620 0.228621 -0.849056 -0.473976 0.233348
0.585931 0.292597 0.200585 0.918168 0.353655 -0.178594
0.256029 0.844615 0.503170 -0.617026 0.459927 0.638550
0.370689 0.472572 0.350418 0.636932 0.226272 0.736966
0.477300 0.307704 0.241100 0.731650 0.254570 -0.632363
0.368731 0.200483 0.320716 0.965595 0.236672 0.107759
0.188418 0.441988 0.473199 -0.725272 0.640453 -0.252586
0.238894 0.311497 0.369694 0.867359 0.432049 -0.247024
0.376110 0.443229 0.317054 0.825582 0.146896 0.544826
0.337465 0.675933 0.283332 0.579700 0.657064 0.481887
0.221276 0.309617 0.268132 -0.792646 0.276284 -0.543489
0.342097 0.273916 0.339629 0.000000 -1.000000 0.000000
0.334038 0.965069 0.266022 0.357193 0.910398 0.208779
0.140987 0.609570 0.286239 0.627164 -0.417700 0.657413
0.354969 0.812124 0.333301 0.989990 0.107426 0.091544
0.315561 0.315023 0.281515 -0.848831 -0.318869 0.421673
0.179525 0.871637 0.324746 -0.801131 0.452888 -0.391257
0.477746 0.293647 0.262378 -0.286460 -0.703405 0.650509
0.250857 0.133485 0.366335 -0.922616 -0.370304 0.107959
0.295765 0.148445 0.280985 0.623081 0.411960 0.664876
0.286699 0.237602 0.434883 0.560930 0.424584 -0.710694
0.350767 0.568069 0.326868 -0.837849 -0.178643 -0.515845
0.062951 0.264220 0.337506 0.802896 -0.401293 0.440821
0.331998 0.352746 0.090667 -0.413295 -0.501548 0.760024
0.410721 0.588574 0.548712 0.004113 0.342373 0.939555
0.234192 0.445911 0.404673 -0.237274 0.888414 -0.392965
0.317574 0.675862 0.214481 0.446809 0.649606 -0.615121
0.334366 0.192717 0.387999 0.963911 -0.261548 0.049684
0.386622 0.662787 0.164965 0.649140 0.566923 -0.507165
0.313793 0.061837 0.261488 -0.503715 -0.391811 -0.769906
0.302348 0.712279 0.275333 -0.550706 -0.762723 -0.339081
0.336487 0.520784 0.340183 0.362290 -0.194929 0.911454
0.335116 0.226992 0.475942 -0.300316 -0.352209 0.886431
0.123943 0.548630 0.377794 0.909684 -0.282938 0.304008
0.215924 0.929102 0.316799 0.692711 -0.663557 0.282566
0.171879 0.310795 0.151071 -0.241450 0.378032 -0.893752
0.377106 0.371141 0.323107 -0.290496 0.264538 0.919582
0.625145 0.506224 0.420854 0.660396 0.308595 0.684578
0.430816 0.664994 0.369737 -0.829435 0.521588 0.199960
0.401992 0.369968 0.300828 0.366316 0.594629 0.715702
0.255396 0.453611 0.289151 0.465048 0.883915 -0.049254
0.384426 0.315311 0.335307 0.290019 -0.247751 -0.924396
0.601606 0.382846 0.359851 -0.561815 -0.721624 -0.404502
0.282343 0.226582 0.450792 -0.669743 -0.348829 0.655564
0.463821 0.195384 0.322032 -0.853526 0.426078 0.299919
0.350486 0.520602 0.364064 0.905354 -0.211108 0.368467
0.338275 0.273916 0.235154 0.000000 -1.000000 0.000000
0.271143 0.234313 0.285927 0.764827 0.421416 0.487286
0.361904 0.597641 0.339049 -0.958337 -0.023304 0.284687
0.492703 0.282849 0.390992 0.852086 -0.343913 0.394554
0.337630 0.343890 0.341755 0.952054 0.273313 0.137455
0.362750 0.614721 0.367192 0.810868 -0.197806 0.550787
0.375318 0.700241 0.429656 -0.422546 0.883191 -0.203538
0.349487 0.189775 0.638301 0.431690 -0.363563 -0.825509
0.257639 0.442355 0.359257 0.321431 0.912321 -0.253678
0.313551 0.318182 0.573535 -0.337836 0.495581 0.800166
0.482902 0.281710 0.423541 0.732049 -0.334378 0.593545
0.238783 0.325819 0.378246 0.844482 0.436993 -0.309657
0.285167 0.680149 0.350973 0.589449 0.675131 -0.443563
0.611575 0.445363 0.252388 -0.947253 -0.279757 -0.156356
0.291339 0.936081 0.461095 -0.539190 0.819240 0.195244
0.313042 0.161130 0.324339 -0.456188 -0.189537 0.869464
0.260232 0.422332 0.368783 -0.272191 -0.830225 0.486456
0.387935 0.400808 0.189718 -0.351102 -0.819820 0.452353
0.543048 0.631566 0.428194 0.445769 0.637468 0.628431
0.501476 0.443982 0.303200 0.142350 -0.948135 -0.284213
0.323572 0.248687 0.343462 0.786201 -0.309626 0.534808
0.329733 0.253470 0.601852 -0.400616 0.343251 0.849521
0.405269 0.580889 0.362606 0.944447 -0.175037 -0.278177
0.419929 0.689026 0.503062 0.133543 -0.634522 -0.761280
0.486864 0.948210 0.408193 -0.350570 -0.907774 -0.230320
0.500875 0.318075 0.560726 -0.287675 -0.356242 -0.889008
0.317911 0.426518 0.260737 0.514987 0.850620 0.105993
0.403580 0.942104 0.321252 0.038963 -0.644905 -0.763269
0.346683 0.066830 0.269034 0.060877 0.412903 0.908738
0.405785 0.334983 0.313382 0.428081 0.375754 0.821922
0.277247 0.267003 0.272336 0.718559 0.427792 0.548331
0.169406 0.266992 0.136112 -0.267093 0.350381 -0.897716
0.353336 0.025000 0.435701 0.018907 -0.518351 0.854959
0.216511 0.286559 0.328864 0.859138 -0.506974 0.069704
0.417480 0.531408 0.109961 0.677235 0.327515 -0.658853
0.376655 0.577995 0.334651 -0.413129 0.217510 0.884315
0.418156 0.310018 0.201882 0.391819 0.283301 -0.875339
0.370716 0.457018 0.332100 -0.955501 -0.214302 -0.202715
0.359644 0.486577 0.347386 -0.486121 0.218296 0.846188
0.077642 0.319108 0.352542 0.786004 -0.452383 0.421363
0.260662 0.711349 0.354579 0.306994 0.818065 -0.486338
0.234292 0.254375 0.325875 -0.888494 -0.344609 -0.303023
0.315781 0.279668 0.225126 -0.196702 -0.341003 -0.919252
0.429575 0.535558 0.124332 -0.673776 -0.298481 0.675970
0.304677 0.615301 0.355483 0.168892 -0.431489 0.886167
0.256450 0.134625 0.387908 -0.888113 -0.370879 0.271484
0.610815 0.207003 0.153111 -0.919994 -0.371172 0.125865
0.240868 0.324352 0.456014 -0.767080 0.439171 0.467673
0.248504 0.328915 0.288010 0.844918 0.426634 0.322641
0.254043 0.285506 0.435730 -0.822121 -0.336716 0.459064
0.404561 0.273916 0.297251 0.000000 -1.000000 0.000000
0.409172 0.608519 0.378934 -0.937469 0.250351 0.241820
0.420712 0.684392 0.506762 0.103633 -0.600955 -0.792536
0.432273 0.210619 0.246356 0.577805 -0.358478 -0.733236
0.448241 0.125270 0.281498 0.715723 -0.385484 -0.582360
0.221123 0.293647 0.340518 -0.703921 -0.608074 -0.367070
0.320861 0.462905 0.385537 0.732310 -0.129492 0.668546
0.528535 0.387726 0.197304 0.750124 0.659452 -0.049363
0.352338 0.336231 0.090701 0.408483 0.442618 -0.798268
0.419587 0.310817 0.373194 0.862641 -0.201792 -0.463822
0.682124 0.262707 0.346269 0.805509 0.393783 0.442822
0.351961 0.329084 0.483441 -0.148824 0.482258 -0.863295
0.312130 0.296668 0.359516 0.433789 -0.208035 0.876669
0.509386 0.274360 0.282710 0.824359 -0.137214 -0.549185
0.476051 0.141577 0.338102 0.918451 -0.382571 -0.100432
0.308029 0.092525 0.258193 -0.506899 -0.382487 -0.772500
0.361728 0.575752 0.340362 0.354789 0.011303 0.934878
0.118215 0.338759 0.448180 -0.877243 0.474308 -0.074008
0.252403 0.228156 0.283349 -0.742809 -0.346487 -0.572872
0.592524 0.522902 0.240052 -0.931628 -0.334228 -0.142689
0.349828 0.286444 0.203127 0.144226 -0.501111 0.853280
0.212778 0.698711 0.320463 0.368390 -0.733551 0.571132
0.387133 0.241466 0.361434 0.623184 -0.318564 -0.714254
0.357460 0.175448 0.456622 0.050667 0.418249 -0.906918
0.372111 0.203978 0.330579 -0.949170 -0.286905 0.129471
0.467474 0.387238 0.601442 0.094506 -0.265576 -0.959447
0.221802 0.438403 0.418509 0.489691 -0.804670 0.335721
0.349950 0.256514 0.378627 0.957834 -0.272057 0.092403
0.347064 0.569221 0.327421 0.856305 0.215502 -0.469362
0.357837 0.677582 0.341610 0.585131 0.046602 0.809599
0.249798 0.958297 0.346516 0.052096 -0.955244 0.291195
0.240391 0.325146 0.249017 -0.580602 0.445446 -0.681527
0.382514 0.065583 0.400527 -0.200715 0.750813 -0.629280
0.457739 0.300416 0.274068 -0.614414 0.435239 0.658075
0.213435 0.294551 0.411453 -0.917488 0.099438 0.385134
0.355159 0.115707 0.341986 -0.914839 -0.021025 -0.403270
0.420985 0.952064 0.360101 -0.228539 0.966273 0.118689
0.356405 0.507980 0.353260 0.706999 0.200382 -0.678232
0.376159 0.955481 0.400167 0.340393 -0.935379 -0.095915
0.349014 0.176627 0.294785 -0.442034 -0.296443 0.846598
0.277749 0.271031 0.211660 -0.640025 -0.169652 -0.749391
0.454009 0.251780 0.281492 -0.651326 0.426847 0.627357
0.237342 0.207216 0.343436 -0.924573 -0.351448 -0.147132
0.459269 0.293039 0.464255 -0.673097 -0.493498 -0.550818
0.340838 0.596200 0.326358 -0.932166 -0.187754 0.309541
0.473352 0.139134 0.374993 0.898515 -0.382455 0.215403
0.606338 0.463993 0.253024 -0.945458 -0.287453 -0.153232
0.330571 0.418500 0.372479 -0.883098 0.177359 -0.434375
0.364202 0.305741 0.301768 0.886510 0.254539 0.386407
0.357386 0.403118 0.516702 0.299369 -0.716429 -0.630165
0.302003 0.244209 0.234647 -0.328110 -0.343651 -0.879914
0.300398 0.278888 0.246475 0.534904 0.423111 0.731338
0.402045 0.668685 0.317576 -0.533931 0.445435 0.718684
0.506509 0.703383 0.364453 0.291575 0.834714 0.467159
0.441714 0.702657 0.495642 -0.096717 0.600205 0.793977
0.344482 0.339715 0.412054 0.861677 -0.373246 0.343801
0.241369 0.230443 0.314148 -0.860122 -0.350920 -0.370196
0.270797 0.313556 0.436384 0.575306 0.435895 -0.692112
0.240708 0.293647 0.271529 0.528591 -0.831372 -0.171498
0.264089 0.130255 0.410898 -0.792452 -0.370721 0.484341
0.322920 0.433167 0.191613 -0.344531 -0.842207 0.414711
0.374902 0.285235 0.202891 -0.018320 -0.509010 0.860565
0.261837 0.578951 0.507871 -0.575481 0.445955 0.685526
0.520957 0.682987 0.380568 -0.338510 -0.760078 -0.554700
0.477255 0.222162 0.293144 0.867786 -0.355609 -0.347115
0.364909 0.265404 0.349314 0.788590 0.296592 0.538664
0.402309 0.680484 0.504010 0.227951 -0.715855 -0.659992
0.375062 0.300206 0.228872 0.019086 0.432293 0.901531
0.144906 0.390927 0.334816 0.566344 -0.717029 0.406354
0.433306 0.570986 0.551563 -0.010480 -0.285992 -0.958175
0.378900 0.886528 0.336779 0.228603 -0.365192 -0.902428
0.204217 0.378872 0.177997 -0.064211 0.554584 -0.829646
0.372238 0.598366 0.303141 -0.761937 -0.283603 -0.582255
0.404144 0.426689 0.429268 0.441297 -0.889262 0.120289
0.448077 0.415800 0.514432 -0.088609 0.849832 0.519553
0.427553 0.328503 0.384915 0.836007 -0.303042 -0.457447
0.218089 0.271542 0.322974 0.793015 -0.540142 0.281734
0.355942 0.710240 0.438862 -0.383266 0.922603 0.043704
0.186400 0.342312 0.158353 -0.191094 0.443702 -0.875564
0.350532 0.578285 0.337160 0.821855 0.222207 -0.524575
0.489217 0.206027 0.356849 0.926672 -0.361138 0.104207
0.380467 0.698428 0.451482 -0.330102 0.939187 0.094660
0.333085 0.065583 0.368876 0.332622 0.928575 -0.164655
0.559670 0.873540 0.400699 0.783923 0.488761 0.382855
0.216532 0.930538 0.329580 -0.647400 0.718689 -0.253689
0.222840 0.425181 0.210619 -0.083926 -0.647053 0.757811
0.403632 0.213059 0.329416 0.481280 0.187722 0.856230
0.460468 0.113325 0.407238 0.816422 -0.388102 0.427588
0.549508 0.363948 0.186904 -0.809579 -0.579314 0.094746
0.306847 0.673050 0.361860 0.663789 0.482036 -0.571861
0.397291 0.198185 0.362552 -0.204558 0.234265 0.950408
0.337128 0.285602 0.062810 -0.431455 -0.431825 0.792069
0.329441 0.439345 0.445915 -0.234744 0.971507 -0.032716
0.241803 0.316507 0.320826 0.894037 0.435681 0.104307
0.281586 0.934108 0.416283 -0.509300 0.842305 0.176453
0.333868 0.442926 0.361450 -0.966415 0.230327 -0.113980
0.366833 0.645079 0.381162 -0.768705 0.364941 -0.525271
0.356263 0.299975 0.350800 -0.945206 0.316505 0.080061
0.339156 0.333225 0.084083 -0.414323 -0.444581 0.794156
0.357289 0.503251 0.354011 0.747154 0.191832 -0.636366
0.390888 0.687017 0.480290 0.342134 -0.861781 -0.374536
0.221161 0.440287 0.359809 0.256147 -0.924558 0.282103
0.477521 0.348102 0.560539 0.264202 0.475684 0.839001
0.249074 0.143611 0.338682 -0.919610 -0.369774 -0.132608
0.278928 0.153416 0.430940 -0.705611 -0.366287 0.606586
0.336437 0.639299 0.327087 -0.924850 -0.232742 0.300805
0.365561 0.500396 0.349815 -0.221134 0.237803 0.945806
0.236559 0.275397 0.400059 -0.917939 -0.339086 0.205935
0.393705 0.309551 0.472258 -0.337664 0.438298 -0.832993
0.465824 0.218753 0.314877 -0.830574 0.429424 0.354601
0.340748 0.602055 0.321105 -0.947848 -0.179158 0.263603
0.407842 0.273916 0.392954 0.000000 -1.000000 0.000000
0.569076 0.586315 0.294698 0.900615 0.412010 0.138352
0.505894 0.913828 0.257800 -0.803609 -0.556131 0.211972
0.242589 0.442663 0.361904 -0.094332 -0.956707 0.275343
0.326801 0.227848 0.247367 0.349300 0.423214 0.835990
0.312889 0.706161 0.419277 0.304678 -0.949925 0.069386
0.349410 0.548527 0.341291 -0.932744 -0.215243 -0.289239
0.359386 0.526462 0.324806 0.393018 -0.212775 0.894575
0.271826 0.273916 0.339306 0.000000 -1.000000 0.000000
0.487775 0.275606 0.435749 -0.665128 -0.526099 -0.529928
0.428632 0.928991 0.321584 0.015220 0.670970 0.741328
0.555048 0.612431 0.306748 -0.806741 -0.558686 -0.192457
0.548222 0.371472 0.245389 0.697402 0.716368 -0.021158
0.324970 0.636669 0.294785 -0.864769 -0.468511 0.180757
0.361459 0.352093 0.386143 0.905110 -0.294716 0.306461
0.389867 0.214113 0.457276 -0.284301 0.425329 -0.859225
0.391515 0.401445 0.384183 -0.819550 0.519443 -0.241902
0.394890 0.693339 0.274886 0.195052 0.860756 0.470163
0.306266 0.670404 0.291466 0.655675 0.739957 -0.150182
0.260527 0.433220 0.330216 0.310440 0.915815 -0.254773
0.662178 0.284929 0.366112 0.835491 0.355846 0.418723
0.389568 0.483899 0.365634 -0.766003 0.220443 0.603858
0.434813 0.071331 0.280188 0.608625 -0.405306 -0.682131
0.154524 0.380077 0.420159 -0.721002 0.643261 -0.257625
0.336246 0.209315 0.381907 -0.953449 0.291540 0.077063
0.340010 0.310824 0.587603 0.356032 -0.436374 -0.826329
0.460168 0.439972 0.268273 0.237970 0.959394 0.151437
0.307941 0.631304 0.337082 -0.715786 -0.388758 0.580101
0.329088 0.290016 0.309181 0.838007 0.212088 -0.502756
0.348866 0.084457 0.439064 0.228722 0.412264 -0.881887
0.361747 0.249409 0.336014 -0.845735 -0.252132 0.470278
0.518805 0.933817 0.396926 0.581969 0.753267 0.306432
0.178069 0.338293 0.158314 0.224739 -0.408297 0.884752
0.383894 0.616870 0.332767 -0.587033 0.190195 0.786904
0.471837 0.950492 0.412257 -0.109794 -0.978693 -0.173510
0.242116 0.456533 0.416364 0.169945 -0.893794 0.415032
0.377725 0.065583 0.307467 -0.295412 0.795616 0.528892
0.446544 0.125803 0.424874 0.688917 -0.385888 0.613583
0.366502 0.273916 0.427235 0.000000 -1.000000 0.000000
0.335493 0.418106 0.301320 0.474250 0.556280 0.682378
0.473472 0.273916 0.403054 0.000000 -1.000000 0.000000
0.357760 0.294995 0.341262 0.054981 -0.303291 -0.951310
0.274541 0.127426 0.283840 -0.728263 -0.376344 -0.572711
0.237015 0.460775 0.447631 0.406725 -0.829222 0.383362
0.203164 0.320149 0.373171 -0.918607 0.395173 0.000015
0.455973 0.316089 0.268708 -0.579547 0.438618 0.686833
0.312670 0.065583 0.391073 0.645737 0.652306 -0.396889
0.341800 0.635864 0.327768 0.830022 0.209718 0.516799
0.393467 0.451203 0.377874 0.873485 -0.184995 -0.450334
0.267317 0.328151 0.436248 0.581313 0.437941 -0.685772
0.367631 0.768709 0.334439 -0.995312 0.049994 -0.082796
0.244591 0.248685 0.413648 -0.882198 -0.339466 0.326327
0.351121 0.886098 0.341220 0.915495 0.211636 0.342167
0.372320 0.624698 0.347289 0.933173 0.002882 0.359415
0.462883 0.602002 0.540141 0.006864 -0.358249 -0.933601
0.315627 0.342171 0.292728 -0.814651 -0.357157 0.456926
0.329171 0.423088 0.164143 -0.409187 -0.751825 0.517035
0.099370 0.312723 0.300422 0.827286 -0.391028 0.403354
0.301159 0.322935 0.500984 -0.466777 0.423743 0.776248
0.323911 0.937559 0.374849 0.538701 -0.829750 0.146000
0.147960 0.381450 0.430524 0.756045 -0.618251 0.214853
0.397023 0.295542 0.469020 -0.355907 0.436723 -0.826198
0.397214 0.111398 0.455138 0.296415 -0.387440 0.872942
0.222184 0.688285 0.358581 -0.455394 0.677286 -0.577841
0.497059 0.329084 0.299567 0.134208 0.863288 0.486542
0.390166 0.247551 0.351112 0.200524 -0.250392 -0.947150
0.645727 0.316740 0.380397 -0.824297 -0.398779 -0.401883
0.446149 0.566158 0.148294 -0.653314 -0.306321 0.692350
0.114217 0.326895 0.487685 0.910632 -0.411790 0.034315
0.323429 0.406220 0.304425 0.723076 0.640152 0.259551
0.184791 0.416079 0.431611 0.658065 -0.680643 0.321988
0.362344 0.567485 0.350869 0.940478 -0.230374 0.249858
0.248296 0.233321 0.286517 -0.767788 -0.344472 -0.540223
0.385596 0.660245 0.304270 -0.183007 -0.545119 -0.818140
0.354710 0.348859 0.305491 -0.884587 -0.346061 -0.312647
0.436111 0.476362 0.108276 -0.693163 -0.282122 0.663274
0.353133 0.273916 0.417885 0.000000 -1.000000 0.000000
0.451250 0.271493 0.489505 0.659273 -0.166029 0.733343
0.261929 0.318930 0.477075 -0.669409 0.378402 0.639300
0.593295 0.573834 0.430279 0.683018 0.325746 0.653741
0.226852 0.399991 0.189818 -0.034591 -0.620407 0.783517
0.416348 0.947780 0.451511 -0.123479 0.946463 0.298263
0.310007 0.123999 0.452277 -0.420342 -0.375366 0.826083
0.564588 0.603765 0.280119 0.864160 0.475989 0.163284
0.305372 0.186704 0.329869 -0.852849 0.327614 -0.406592
0.396896 0.527586 0.363374 0.697972 -0.143214 -0.701659
0.376621 0.334939 0.102247 -0.407847 -0.479621 0.776933
0.355159 0.310184 0.343143 -0.998596 -0.012608 -0.051447
0.399030 0.578065 0.347750 -0.845940 0.216200 0.487487
0.238269 0.465039 0.266745 -0.258881 -0.837205 0.481735
0.617335 0.549810 0.412015 0.659083 0.333812 0.673928
0.286030 0.067176 0.311765 0.751811 0.398093 0.525645
0.349573 0.415141 0.179215 0.382378 0.801883 -0.459098
0.328673 0.351216 0.557143 0.315007 -0.598165 -0.736864
0.267787 0.875517 0.488449 -0.563735 0.526676 0.636251
0.433532 0.654566 0.520633 -0.047545 0.498144 0.865790
0.359516 0.152883 0.234255 -0.014302 -0.371925 -0.928152
0.414449 0.644152 0.354299 0.917152 -0.267470 -0.295451
0.348379 0.273916 0.393248 0.000000 -1.000000 0.000000
0.390612 0.413598 0.204804 0.279136 0.835687 -0.472980
0.413226 0.661512 0.200212 -0.622707 -0.667470 0.408313
0.371975 0.585971 0.305404 0.760876 0.253610 0.597286
0.355442 0.418267 0.279963 -0.324027 -0.775002 -0.542567
0.561968 0.404489 0.355700 0.437719 0.812661 0.384687
0.390427 0.704522 0.242511 0.392017 0.915673 -0.088691
0.177301 0.415955 0.441066 0.698163 -0.658911 0.280007
0.324853 0.406781 0.296826 0.675699 0.687639 0.265674
0.518953 0.399987 0.208977 -0.705079 -0.708851 0.019862
0.353049 0.500124 0.321046 -0.376583 0.215164 -0.901049
0.437667 0.068671 0.397415 -0.716920 0.414119 -0.560830
0.370377 0.382796 0.303147 -0.439435 -0.514369 -0.736425
0.367679 0.457648 0.338654 -0.962936 -0.216937 -0.160289
0.438244 0.676396 0.367698 0.768847 -0.613040 -0.181814
0.381798 0.482924 0.350120 -0.939531 0.201779 0.276708
0.343885 0.479001 0.344626 -0.893045 0.229584 -0.386992
0.375223 0.367381 0.316905 -0.491177 -0.369760 -0.788684
0.294542 0.243881 0.237677 -0.395124 -0.343832 -0.851855
0.507682 0.279487 0.428196 0.930324 -0.077767 0.358398
0.255992 0.176635 0.411964 -0.831168 -0.359428 0.424231
0.426625 0.523751 0.116905 -0.682669 -0.307090 0.663067
0.498065 0.364487 0.545738 -0.247941 -0.523373 -0.815234
0.159888 0.341583 0.164933 -0.226157 0.412816 -0.882290
0.410847 0.075217 0.445529 0.473959 -0.397856 0.785540
0.464738 0.285126 0.476017 0.692361 -0.013121 0.721432
0.289957 0.131026 0.413710 0.716225 0.412920 -0.562601
0.355703 0.269066 0.339240 0.958017 0.285582 -0.025414
0.341091 0.276536 0.499026 0.185127 -0.521810 -0.832732
0.335596 0.651364 0.323836 -0.815933 -0.279207 -0.506258
0.425725 0.273916 0.227061 0.000000 -1.000000 0.000000
0.312275 0.357404 0.351769 0.502335 0.321958 -0.802498
0.277490 0.130455 0.304035 0.767986 0.405417 0.495816
0.341021 0.293437 0.340214 0.780632 -0.311839 0.541637
0.486947 0.290072 0.287636 0.891495 -0.335060 -0.304911
0.435933 0.638861 0.204148 -0.621648 -0.663757 0.415910
0.249647 0.242266 0.366498 0.884890 0.418002 -0.205533
0.345084 0.294619 0.397126 -0.892373 0.199445 -0.404837
0.397505 0.273916 0.365843 0.000000 -1.000000 0.000000
0.466724 0.494259 0.572624 -0.036965 0.289142 0.956572
0.453335 0.698724 0.344547 0.720154 -0.657556 -0.221356
0.353871 0.385242 0.359627 0.557464 -0.312168 0.769275
0.216368 0.921526 0.303494 0.719551 -0.621515 0.309782
0.378314 0.197277 0.335246 -0.938375 -0.310663 0.151465
0.359885 0.250823 0.340314 -0.954828 -0.288086 0.072872
0.192326 0.423741 0.355312 0.413353 -0.838494 0.355058
0.320605 0.291283 0.357274 0.494165 -0.226553 0.839330
0.468540 0.953659 0.263431 0.518989 0.853322 0.049912
0.308308 0.429583 0.432248 0.241951 -0.948922 0.202502
0.519363 0.329431 0.551686 0.281650 0.395495 0.874218
0.399043 0.126620 0.264400 -0.383824 0.420781 0.821963
0.423505 0.641712 0.184041 0.635975 0.607836 -0.475470
0.504943 0.355636 0.548500 -0.259345 -0.494616 -0.829515
0.399255 0.550837 0.358412 -0.854306 0.211553 0.474771
0.235756 0.268281 0.440302 0.532319 -0.812834 0.236511
0.472147 0.112570 0.363206 0.916313 -0.393187 0.075995
0.524322 0.389996 0.186953 0.762457 0.644630 -0.055779
0.382016 0.094796 0.248079 0.139659 -0.394115 -0.908388
0.413959 0.438218 0.435128 -0.361011 0.930871 -0.056125
0.324898 0.398560 0.353810 -0.753055 -0.346045 0.559608
0.337705 0.651287 0.366809 -0.235034 0.429824 -0.871786
0.357122 0.441385 0.246604 -0.247305 -0.949789 -0.191678
0.320600 0.354673 0.365744 0.485369 -0.342232 0.804546
0.274755 0.273916 0.267760 0.000000 -1.000000 0.000000
0.366252 0.248879 0.359432 0.673963 0.305898 0.672459
0.259817 0.438088 0.349501 0.331142 0.908146 -0.256155
0.131979 0.560682 0.357081 0.910767 -0.289310 0.294623
0.370393 0.252923 0.351976 -0.092663 -0.300871 -0.949152
0.557694 0.356185 0.190379 -0.817517 -0.566639 0.102888
0.241293 0.665799 0.265117 -0.407567 0.738670 -0.536894
0.273782 0.117637 0.378597 0.885788 0.407930 -0.221296
0.486417 0.224597 0.378689 0.887432 -0.358301 0.289974
0.489194 0.678891 0.296641 0.598162 0.771073 0.218284
0.451290 0.321025 0.215090 0.601914 0.396240 -0.693320
0.510480 0.708990 0.350040 0.258597 0.844913 0.468241
0.277818 0.433789 0.409530 -0.324973 -0.812300 0.484314
0.408677 0.084481 0.430029 -0.376527 0.412329 -0.829586
0.263410 0.161754 0.337010 0.902488 0.409147 0.134589
0.575184 0.307976 0.168664 -0.892750 -0.428090 0.140487
0.420196 0.273916 0.325939 0.000000 -1.000000 0.000000
0.259485 0.251354 0.408911 0.764161 0.420905 -0.488770
0.363025 0.545117 0.339955 -0.929496 -0.030269 0.367588
0.383762 0.383933 0.323746 -0.934710 -0.183737 -0.304232
0.316645 0.428162 0.428904 0.251052 -0.934434 0.252600
0.393752 0.685724 0.377180 -0.755863 0.458541 -0.467345
0.268693 0.954051 0.338744 -0.022729 -0.955155 0.295232
0.362061 0.957671 0.242589 0.303491 0.947339 -0.102185
0.355159 0.450756 0.337679 -0.840899 -0.002144 -0.541188
0.372641 0.241532 0.355095 0.105626 0.300565 0.947895
0.112090 0.356405 0.323570 -0.674327 0.615021 -0.408695
0.095443 0.274860 0.485149 -0.921229 0.385837 -0.049671
0.412286 0.287344 0.504247 0.368863 0.012857 0.929395
0.536053 0.658179 0.405696 0.403928 0.670928 0.621850
0.324709 0.189645 0.376023 0.920830 -0.322544 -0.219173
0.254500 0.293647 0.440420 -0.847113 -0.462234 0.262182
0.164996 0.278849 0.141672 0.259725 -0.364477 0.894259
0.254400 0.453973 0.289597 -0.464028 -0.884181 0.053862
0.359409 0.654896 0.335214 -0.569719 0.009837 -0.821781
0.373076 0.376203 0.373389 -0.918962 0.301776 -0.253849
0.237374 0.273916 0.304010 0.000000 -1.000000 0.000000
0.344168 0.550408 0.312578 0.947056 0.170092 -0.272312
0.229215 0.257433 0.342951 -0.921503 -0.338219 -0.190893
0.398695 0.273916 0.477023 0.000000 -1.000000 0.000000
0.360774 0.473578 0.349985 -0.223922 0.004884 0.974595
0.246983 0.443040 0.362149 -0.166271 -0.948482 0.269697
0.459975 0.421771 0.591205 0.084211 -0.267562 -0.959854
0.044682 0.226115 0.340892 -0.803660 0.390769 -0.448809
0.364214 0.488900 0.328490 0.913736 0.196163 0.355817
0.450663 0.128847 0.389963 -0.814525 0.425750 -0.394064
0.254557 0.456842 0.429872 0.074517 -0.894643 0.440525
0.262268 0.323140 0.227140 -0.455285 0.426258 -0.781678
0.338380 0.245500 0.345396 0.154156 0.289295 -0.944745
0.392379 0.955914 0.403937 -0.289998 0.946280 0.143023
0.312634 0.293647 0.484453 -0.705949 -0.629214 0.325157
0.477708 0.273916 0.435845 0.000000 -1.000000 0.000000
0.301623 0.590502 0.146508 -0.146788 -0.390217 0.908947
0.358449 0.315825 0.337720 0.692725 0.288160 0.661133
0.326850 0.329084 0.487116 -0.456220 0.745135 -0.486454
0.345489 0.126338 0.259380 0.130980 0.416226 0.899778
0.447770 0.067674 0.362510 -0.879787 0.422373 -0.218120
0.287162 0.677088 0.189474 0.319873 0.518397 -0.793061
0.273088 0.418240 0.570485 0.684307 -0.265943 -0.678968
0.416960 0.684440 0.505564 -0.133307 0.631159 0.764112
0.455597 0.430564 0.462539 -0.169821 0.941068 0.292494
0.205634 0.437426 0.441278 0.580307 -0.736041 0.348551
0.119573 0.354856 0.304763 0.640788 -0.652043 0.405253
0.292824 0.730205 0.245758 0.491528 0.776390 -0.394486
0.450720 0.423694 0.506759 0.105910 -0.861343 -0.496862
0.372855 0.367951 0.319121 0.502484 0.347941 0.791484
0.273031 0.503629 0.539164 0.644075 -0.260314 -0.719308
0.449454 0.945330 0.307038 -0.084455 -0.768605 -0.634125
0.160204 0.401784 0.448049 -0.754478 0.619148 -0.217758
0.372502 0.697037 0.428812 -0.433282 0.873853 -0.220562
0.338413 0.605266 0.298095 -0.937997 -0.260358 0.228855
0.314741 0.651167 0.191114 -0.402269 -0.559178 0.724913
0.204173 0.686083 0.305939 -0.403721 0.673390 -0.619319
0.386507 0.421160 0.443298 0.427261 -0.897834 0.106498
0.404410 0.353573 0.306517 0.403292 0.489074 0.773409
0.430799 0.273916 0.476190 0.000000 -1.000000 0.000000
0.475229 0.693561 0.329643 -0.333464 -0.913068 -0.234753
0.588927 0.405966 0.334161 -0.527974 -0.746204 -0.405491
0.352050 0.528694 0.359566 0.936384 -0.227778 0.267025
0.566713 0.395371 0.369781 0.451765 0.797399 0.400079
0.362795 0.950769 0.307250 0.359077 0.896190 0.260591
0.517329 0.656899 0.412045 -0.348379 -0.729109 -0.589095
0.295140 0.603956 0.150724 -0.183164 -0.430293 0.883911
0.469471 0.108930 0.370952 0.906839 -0.394619 0.148050
0.506602 0.304373 0.562654 -0.282768 -0.332392 -0.899754
0.354458 0.248966 0.349960 -0.396473 -0.289840 0.871092
0.458441 0.171219 0.317071 -0.844853 0.424034 0.326218
0.377378 0.384092 0.372577 -0.911516 0.331939 -0.242806
0.302112 0.293647 0.484601 -0.244801 -0.842549 -0.479775
0.402629 0.635714 0.312502 0.154478 0.517305 0.841743
0.508429 0.279971 0.279146 0.835210 -0.073638 -0.544978
0.489058 0.257114 0.315748 0.925001 -0.351122 -0.145214
0.511420 0.287088 0.414260 0.946391 0.010084 0.322867
0.343556 0.272563 0.396189 -0.906529 0.203490 -0.369862
0.472611 0.273916 0.333480 0.000000 -1.000000 0.000000
0.336699 0.349368 0.089453 0.412294 0.499227 -0.762093
0.372361 0.533410 0.341994 -0.303278 0.223119 0.926412
0.475941 0.329084 0.253876 0.697580 0.715882 0.029915
0.518313 0.399009 0.200837 -0.721237 -0.692081 0.028988
0.337561 0.603917 0.291520 -0.934239 -0.283683 0.216154
0.417186 0.284948 0.201622 0.266728 -0.014858 -0.963657
0.457607 0.316321 0.221407 0.634688 0.346667 -0.690647
0.336361 0.964792 0.254514 -0.333015 -0.942778 -0.016448
0.355416 0.682916 0.264448 0.571997 0.746253 0.340478
0.255918 0.270653 0.407678 0.763847 0.424207 -0.486402
0.337095 0.250202 0.480289 -0.296660 -0.346872 0.889760
0.337555 0.634608 0.325545 -0.928599 -0.222533 0.296957
0.242350 0.295839 0.457496 -0.739772 0.113578 0.663203
0.296986 0.158647 0.450174 -0.543216 -0.367226 0.755024
0.369899 0.239870 0.237603 -0.001579 0.425036 0.905175
0.186748 0.436079 0.457069 0.702508 -0.657090 0.273341
0.360539 0.520990 0.344606 0.592999 0.222380 0.773885
0.419051 0.065583 0.336244 -0.728612 0.677010 0.103831
0.469217 0.324154 0.424391 -0.809352 0.435025 -0.394592
0.407995 0.273916 0.374640 0.000000 -1.000000 0.000000
0.408523 0.585656 0.121724 0.662042 0.350387 -0.662517
0.493127 0.947545 0.400102 0.403798 0.884726 0.232824
0.138847 0.370352 0.426709 -0.771680 0.605225 -0.195483
0.281540 0.660625 0.178081 0.261336 0.482498 -0.836002
0.323332 0.304870 0.296194 -0.869357 -0.229127 0.437858
0.289792 0.470114 0.568501 -0.657576 0.297509 0.692158
0.349932 0.170953 0.453855 0.108824 0.418113 -0.901853
0.355744 0.232652 0.051052 0.450507 0.378897 -0.808381
0.298379 0.941500 0.450614 0.536845 -0.839774 -0.081092
0.381918 0.601442 0.326494 -0.226554 -0.227066 -0.947161
0.373730 0.025000 0.270236 0.015468 -0.527301 -0.849538
0.389879 0.527247 0.333437 -0.181579 -0.151625 -0.971617
0.378575 0.433920 0.339598 -0.959154 -0.240945 -0.148219
0.359687 0.228708 0.238412 0.072295 0.421943 0.903735
0.349473 0.342328 0.353212 0.629503 -0.288778 0.721341
0.518523 0.288572 0.316767 0.961114 0.027081 -0.274822
0.489520 0.423030 0.217689 -0.612778 -0.789950 -0.021965
0.385782 0.669784 0.370631 0.796731 -0.361312 0.484431
0.330624 0.629758 0.353685 -0.709747 -0.207036 0.673346
0.576575 0.301099 0.159221 -0.888849 -0.437029 0.137670
0.172562 0.394081 0.314494 0.474375 -0.783367 0.401626
0.508705 0.268281 0.418334 0.937540 -0.310714 0.156444
0.362103 0.843832 0.348840 -0.208931 0.077189 -0.974879
0.350674 0.549618 0.333424 -0.589597 0.234246 -0.772984
0.355556 0.362895 0.555113 0.321911 -0.598022 -0.733991
0.284715 0.293647 0.469959 -0.650390 -0.431675 0.625019
0.364579 0.323551 0.349299 0.946772 -0.310206 -0.085992
0.118578 0.340336 0.462442 0.885539 -0.460490 0.061392
0.254908 0.258478 0.308197 0.872429 0.421100 0.248079
0.309464 0.178472 0.260438 0.449329 0.413763 0.791772
0.477381 0.441714 0.454336 -0.126590 0.924225 0.360254
0.271709 0.452241 0.269323 0.421625 0.897542 -0.129038
0.283285 0.214866 0.255452 -0.529757 -0.355934 -0.769850
0.374368 0.384704 0.319303 -0.281178 0.271305 0.920507
0.336690 0.095137 0.437589 0.337556 0.414720 -0.845023
0.366064 0.240189 0.311667 -0.927925 -0.193891 -0.318374
0.496971 0.453175 0.477989 -0.073687 -0.767280 -0.637065
0.373350 0.235986 0.465369 -0.159329 0.424830 -0.891142
0.278934 0.651476 0.173348 -0.238473 -0.466803 0.851602
0.396761 0.417692 0.340565 -0.282203 -0.148990 -0.947715
0.239448 0.323728 0.325104 0.897195 0.436638 0.066241
0.224667 0.681198 0.343107 -0.512728 0.672875 -0.533244
0.386293 0.693741 0.456304 0.314723 -0.930745 -0.186180
0.385854 0.375390 0.314756 -0.839848 -0.137477 -0.525124
0.341811 0.359091 0.554289 -0.316679 0.604166 0.731230
0.258648 0.292832 0.285019 0.809706 0.426399 0.403187
0.366239 0.329084 0.202353 0.339488 0.916208 -0.212864
0.233088 0.733319 0.396559 -0.345768 0.731284 -0.587936
0.244943 0.284767 0.375542 0.858862 0.429118 -0.279666
0.359201 0.752202 0.334607 -0.757135 0.040917 0.651976
0.502235 0.268900 0.401311 -0.726151 -0.548571 -0.414456
0.416131 0.949522 0.371242 -0.213562 0.969335 0.121573
0.467172 0.438472 0.284677 0.186242 0.967060 0.173517
0.375521 0.251825 0.484040 -0.016732 -0.346648 0.937846
0.266903 0.275208 0.258278 -0.573595 -0.342271 -0.744204
0.364603 0.170539 0.335214 0.343237 -0.015273 -0.939125
0.591820 0.269264 0.184915 -0.917683 -0.369168 0.146879
0.319147 0.707376 0.414111 -0.253121 0.936866 -0.241273
0.364451 0.386282 0.141655 -0.408491 -0.698846 0.587153
0.481779 0.444986 0.473656 -0.034050 0.855035 0.517451
0.400344 0.516515 0.394172 -0.982312 0.129109 0.135627
0.247178 0.957804 0.351296 -0.082285 0.954092 -0.287990
0.286458 0.243258 0.458654 -0.639041 -0.342916 0.688502
0.364552 0.290472 0.605521 0.381759 -0.413807 -0.826453
0.328477 0.182112 0.403840 0.928455 -0.190456 0.318901
0.438924 0.067559 0.285146 0.649164 -0.404983 -0.643875
0.347668 0.966195 0.373850 0.653926 -0.633876 0.413017
0.391987 0.895635 0.334477 -0.075138 0.442151 0.893788
0.336249 0.065583 0.426435 0.395342 0.473433 -0.787125
0.273374 0.428096 0.352139 0.471407 0.831730 -0.293258
0.357508 0.556597 0.360676 -0.915339 0.224341 -0.334402
0.413504 0.942983 0.311198 0.004403 0.706112 0.708086
0.293493 0.216437 0.436830 0.538249 0.421541 -0.729788
0.507652 0.709328 0.349107 0.198436 0.867501 0.456141
0.342623 0.595654 0.330140 -0.895395 -0.206361 0.394568
0.423109 0.299910 0.385770 0.872389 -0.218667 -0.437175
0.477525 0.279612 0.320472 -0.835337 0.435958 0.334891
0.289882 0.368271 0.343522 0.499697 0.533657 -0.682285
0.395805 0.163027 0.388170 -0.424465 0.293583 0.856527
0.287888 0.566268 0.137989 -0.047499 -0.289018 0.956145
0.434065 0.214008 0.270210 -0.555079 0.426776 0.713967
0.291398 0.092459 0.406317 0.775637 0.407635 -0.481893
0.465349 0.431277 0.231637 0.487002 0.872857 0.030817
0.417338 0.313468 0.364116 -0.832207 0.218304 0.509682
0.347876 0.293647 0.210260 0.426331 -0.718397 -0.549679
0.305462 0.280306 0.330382 0.616892 0.178138 -0.766623
0.356524 0.613107 0.345588 0.417836 -0.223700 0.880552
0.576275 0.302767 0.161898 0.890073 0.434358 -0.138210
0.253755 0.109340 0.362336 -0.921164 -0.375179 0.103430
0.311145 0.297865 0.200892 -0.317603 0.138566 -0.938045
0.279539 0.282735 0.460603 -0.676351 -0.337090 0.654919
0.326328 0.243049 0.283592 -0.885835 -0.171795 0.431026
0.497325 0.323428 0.261124 0.816796 0.425873 -0.389199
0.530639 0.652845 0.276418 0.776306 0.592434 0.215338
0.399559 0.501597 0.392037 0.975816 -0.134455 -0.172350
0.466133 0.954240 0.254491 0.556261 0.830911 0.012715
0.554226 0.622716 0.253620 -0.869320 -0.465495 -0.166125
0.275453 0.617433 0.487349 0.554610 -0.548811 -0.625470
0.346641 0.312386 0.365374 0.244285 0.287979 -0.925955
0.437965 0.136486 0.435852 0.600525 -0.379634 0.703738
0.429453 0.321047 0.204913 0.486665 0.403438 -0.774851
0.318297 0.162373 0.260625 0.387029 0.413000 0.824403
0.419166 0.226761 0.397231 -0.871460 0.172161 0.459258
0.512130 0.939352 0.394567 -0.538229 -0.794513 -0.281174
0.262341 0.197507 0.385866 0.849251 0.415926 -0.325237
0.420872 0.705500 0.288627 0.383755 -0.741559 -0.550292
0.261860 0.493579 0.119584 -0.007509 -0.257327 0.966295
0.456668 0.220810 0.436093 0.628716 -0.357579 0.690546
0.300070 0.273916 0.279945 0.000000 -1.000000 0.000000
0.309993 0.624660 0.166925 -0.283786 -0.495862 0.820723
0.332256 0.367140 0.345308 0.767380 0.265057 -0.583843
0.351332 0.564672 0.340608 -0.550605 -0.222135 -0.804668
0.273617 0.710076 0.335944 0.518716 0.836252 -0.177809
0.386562 0.344330 0.319050 0.467603 0.323032 0.822798
0.357368 0.412591 0.187716 -0.364000 -0.828600 0.425354
0.461969 0.697801 0.375709 -0.480930 0.855933 0.189960
0.264668 0.329084 0.465145 -0.629297 0.771551 0.093238
0.292588 0.392363 0.359169 -0.459264 -0.620566 0.635590
0.325309 0.328848 0.310744 -0.843517 -0.245477 0.477724
0.293329 0.731998 0.247495 -0.505490 -0.790236 0.346420
0.499985 0.708083 0.363081 -0.147821 -0.892426 -0.426292
0.349668 0.273916 0.295059 0.000000 -1.000000 0.000000
0.396918 0.389627 0.294470 0.323158 0.697921 0.639121
0.538208 0.425989 0.333705 0.383668 0.870406 0.308532
0.342961 0.565214 0.323390 -0.923533 -0.186671 0.335024
0.422709 0.069216 0.435995 0.575250 -0.396651 0.715370
0.392386 0.419431 0.368291 -0.583162 0.151133 0.798174
0.421243 0.695123 0.257569 -0.346927 -0.937645 0.021526
0.358775 0.065583 0.437296 0.156467 0.419689 -0.894080
0.266147 0.445209 0.296876 -0.520741 -0.840982 -0.146893
0.301240 0.286204 0.327965 0.611645 0.212661 -0.762015
0.201489 0.399418 0.192980 0.030340 -0.577565 0.815781
0.162818 0.817463 0.310791 -0.817715 0.387130 -0.425996
0.345856 0.490326 0.319210 -0.495460 0.235430 -0.836118
0.281699 0.951522 0.337183 0.075436 0.951500 -0.298258
0.367904 0.941576 0.462745 0.161358 -0.924838 -0.344438
0.340344 0.683593 0.225764 0.412387 0.748355 -0.519521
0.399801 0.180507 0.255561 -0.297484 0.421685 0.856554
0.580064 0.302906 0.187508 0.907200 0.386996 -0.164994
0.234671 0.441077 0.349350 0.049034 -0.960885 0.272571
0.325980 0.622914 0.353795 0.233829 -0.323272 0.916962
0.293847 0.208106 0.435273 0.547664 0.420230 -0.723513
0.360407 0.710746 0.246888 -0.299991 -0.919344 -0.254583
0.350330 0.273345 0.358572 -0.564356 -0.269291 -0.780375
0.185652 0.672456 0.305880 -0.467845 0.610327 -0.639236
0.221210 0.683748 0.301942 0.354312 -0.741439 0.569853
0.152951 0.801253 0.316007 0.823370 -0.373823 0.426987
0.329236 0.349599 0.558698 0.316593 -0.592929 -0.740408
0.251386 0.180661 0.307320 -0.845108 -0.361410 -0.393924
0.326393 0.269493 0.594758 0.385669 -0.344907 -0.855745
0.337387 0.065583 0.325965 0.219675 0.906794 0.359815
0.344469 0.486699 0.355481 -0.962972 0.231591 -0.138023
0.305804 0.029550 0.274566 -0.624268 -0.402313 -0.669652
0.536757 0.641479 0.289054 0.777360 0.592228 0.212077
0.373627 0.192709 0.307715 -0.938003 -0.186228 -0.292353
0.312211 0.393724 0.338673 -0.739517 -0.456347 0.494835
0.351886 0.334032 0.344597 -0.722449 0.307324 -0.619370
0.251631 0.415835 0.216380 0.199153 0.719740 -0.665065
0.379725 0.066516 0.269301 -0.291011 0.417085 0.861019
0.227435 0.699716 0.364391 -0.435170 0.699175 -0.567258
0.368179 0.461737 0.360142 0.191785 -0.241674 -0.951216
0.300273 0.593695 0.348835 -0.174103 0.329125 -0.928097
0.314498 0.370364 0.530115 -0.306188 0.687884 0.658076
0.355684 0.440769 0.335214 -0.635514 0.000287 -0.772090
0.251286 0.287719 0.433470 -0.834720 -0.335100 0.436979
0.317662 0.698400 0.229159 -0.401141 -0.702900 0.587382
0.337633 0.375303 0.324716 0.904071 0.338469 0.260948
0.397071 0.567028 0.329571 -0.164379 -0.215605 -0.962546
0.356957 0.323233 0.336596 0.680544 0.286884 0.674209
0.379410 0.049514 0.254823 0.069997 -0.407575 -0.910485
0.339483 0.188035 0.296317 -0.675753 -0.246029 0.694858
0.332560 0.285286 0.321064 -0.785030 -0.234622 0.573307
0.272460 0.132160 0.321742 0.854749 0.410559 0.317561
0.425029 0.650479 0.389048 0.815552 -0.558702 -0.150756
0.352325 0.710733 0.426462 0.291743 -0.927143 0.235142
0.360100 0.531489 0.331185 0.792244 0.234790 -0.563226
0.393991 0.181918 0.369253 0.016922 -0.270155 -0.962668
0.426799 0.092579 0.290759 -0.704120 0.423426 0.570022
