0.770876 0.429519 0.559974 0.199373 0.974898 0.099119
0.521281 0.025000 0.436973 0.130745 -0.991129 0.023864
0.546672 0.444300 0.723473 -0.083886 0.989499 -0.117704
0.377345 0.248592 0.503005 -0.648508 0.512016 0.563274
0.446526 0.025000 0.434300 -0.110431 -0.991602 0.067312
0.401551 0.060743 0.325915 -0.471498 -0.691993 -0.546659
0.505127 0.327968 0.437398 0.206250 0.059406 0.976694
0.483722 0.340206 0.433267 -0.934748 0.344417 0.087311
0.526275 0.082877 0.551601 0.304646 -0.459681 0.834197
0.121382 0.415801 0.548160 -0.150515 0.986833 0.059204
0.566991 0.227331 0.423926 -0.254747 0.967002 0.003350
0.070364 0.404086 0.539079 -0.321273 0.939191 0.121256
0.406824 0.576318 0.593201 0.425281 0.793225 -0.435810
0.321925 0.705639 0.374682 0.554824 0.829449 0.064693
0.561260 0.181122 0.294137 0.500765 0.129211 -0.855885
0.610481 0.785483 0.273109 -0.359027 0.905698 0.225413
0.374713 0.242570 0.432038 0.745714 0.658433 -0.101869
0.374281 0.574982 0.432542 0.760426 0.635880 0.131946
0.329563 0.493172 0.375398 0.474411 0.808224 0.348866
0.430881 0.408978 0.431362 0.666071 0.374901 -0.644824
0.379999 0.568700 0.442622 0.737960 0.665374 0.112658
0.221601 0.675632 0.404187 0.346294 0.937057 0.044765
0.648252 0.427684 0.495631 -0.124389 0.989039 -0.079552
0.418881 0.541420 0.407859 0.955372 0.284039 0.081155
0.512193 0.025951 0.335542 0.297143 -0.770675 -0.563708
0.407057 0.577838 0.596984 0.427153 0.795165 -0.430410
0.460335 0.224562 0.414821 -0.991231 0.086842 -0.099597
0.144459 0.693670 0.419135 0.078216 0.996923 0.005114
0.423934 0.025000 0.410455 -0.182528 -0.983182 -0.006132
0.488814 0.227331 0.400629 -0.028864 0.998080 0.054796
0.572044 0.423629 0.307764 -0.260085 0.905849 0.334354
0.481346 0.381504 0.438811 0.976153 0.205662 0.069492
0.398420 0.593802 0.627681 -0.520271 -0.519468 -0.677843
0.533066 0.459330 0.385332 -0.273252 0.373209 0.886594
0.539318 0.589987 0.403433 -0.851809 0.153057 0.500993
0.476901 0.032877 0.520190 -0.081100 -0.841134 0.534711
0.352140 0.209592 0.348141 -0.826675 0.280005 -0.488063
0.508041 0.237200 0.457493 0.767990 0.120699 -0.628985
0.487646 0.674471 0.320648 -0.454451 0.620557 0.639048
0.490546 0.025000 0.457599 0.029677 -0.993236 0.112260
0.603222 0.121200 0.333859 0.785836 -0.257044 -0.562486
0.571774 0.383256 0.436094 -0.648120 0.757951 0.073834
0.245571 0.470029 0.551649 0.030783 0.999500 0.007177
0.477809 0.651753 0.335217 -0.490527 0.544415 0.680438
0.231066 0.671823 0.419549 0.358007 0.932905 0.038978
0.590533 0.141786 0.526787 0.725438 -0.090563 0.682303
0.529171 0.544751 0.314244 -0.036415 0.678720 0.733494
0.354660 0.575117 0.579930 0.317068 0.891687 -0.323052
0.611358 0.596122 0.540196 -0.542430 0.725383 -0.423779
0.379766 0.825198 0.360897 -0.434234 0.882905 -0.178660
0.423142 0.036713 0.338085 -0.255655 -0.901110 -0.350201
0.228588 0.673131 0.404502 0.362956 0.930237 0.054050
0.492387 0.699747 0.507383 -0.348811 -0.573995 0.740851
0.322052 0.619664 0.432462 0.669791 -0.273088 0.690509
0.603641 0.420321 0.927833 0.057063 0.965270 0.254947
0.247502 0.543423 0.332008 0.298673 0.927306 0.225605
0.644782 0.464659 0.161358 0.020817 0.999429 -0.026620
0.535316 0.480270 0.434500 -0.693497 0.717752 -0.062403
0.423579 0.244443 0.332324 0.320524 0.740032 0.591284
0.586924 0.736147 0.332179 0.734251 -0.502217 -0.456785
0.705375 0.457952 0.117300 0.201361 0.952540 -0.228303
0.388121 0.510945 0.488822 0.519353 0.706100 -0.481348
0.564482 0.378917 0.422522 -0.637613 0.766904 0.072857
0.569342 0.520940 0.491136 -0.975927 -0.216141 0.029157
0.567767 0.681031 0.471039 -0.894589 0.370017 -0.250594
0.215317 0.677493 0.417833 0.318485 0.947590 0.025289
0.508688 0.411872 0.439884 -0.593188 -0.037414 0.804194
0.375641 0.227331 0.452532 0.601547 0.750499 -0.273665
0.339333 0.636477 0.757189 0.329532 -0.898102 -0.291242
0.495374 0.229594 0.283332 0.123535 0.401383 -0.907541
0.591314 0.527725 0.434140 -0.577973 0.813545 -0.063959
0.510122 0.450100 0.413556 -0.788446 0.608307 -0.091189
0.516904 0.327718 0.452092 -0.637184 0.127938 -0.760019
0.543808 0.542673 0.320736 0.241819 -0.680844 -0.691357
0.488224 0.109949 0.569947 0.057141 -0.240215 0.969036
0.329698 0.697947 0.394589 0.663156 0.746779 0.050448
0.520120 0.237323 0.441900 -0.665803 0.093228 -0.740281
0.422947 0.381664 0.406504 0.741581 0.354190 0.569742
0.368554 0.437664 0.496361 0.362994 0.916385 -0.168743
0.434158 0.550647 0.246042 0.037406 0.849379 0.526455
0.560570 0.678200 0.366160 0.716447 -0.512049 -0.473824
0.464984 0.731967 0.515122 0.208615 0.471282 -0.856956
0.425631 0.260900 0.506361 0.537072 0.234612 -0.810254
0.599234 0.056282 0.434716 0.685798 -0.727037 0.033155
0.409978 0.417353 0.393012 0.681760 0.526216 0.508232
0.584739 0.053257 0.472836 0.588866 -0.773475 0.234466
0.256447 0.660582 0.435142 0.418299 0.906239 0.061293
0.327868 0.637966 0.759208 0.230544 -0.951367 -0.204331
0.562533 0.680505 0.483194 -0.876702 0.396788 -0.271942
0.652350 0.562025 0.411476 -0.420497 0.906515 -0.037596
0.486574 0.407495 0.538230 -0.092069 0.936743 -0.337691
0.553711 0.266690 0.348502 -0.371332 0.736375 0.565566
0.432139 0.370840 0.356939 0.425614 0.687887 0.587932
0.928817 0.443288 0.382245 0.486934 0.871675 -0.055482
0.488790 0.337258 0.451036 0.733553 0.176911 -0.656203
0.531036 0.201849 0.561823 0.333610 0.246039 0.910038
0.360092 0.590296 0.423976 0.724355 0.679963 0.113840
0.273177 0.652138 0.405088 0.359683 0.582322 0.729060
0.461718 0.277144 0.418404 -0.989221 0.120802 -0.082761
0.552567 0.398020 0.352697 -0.332688 0.845806 0.417051
0.633091 0.797941 0.495818 -0.717049 0.647838 -0.257189
0.627135 0.113003 0.447811 0.950812 -0.265953 0.158824
0.414301 0.412782 0.483626 0.459572 0.863558 -0.207512
0.327058 0.155576 0.425548 -0.999631 -0.026481 0.006121
0.518914 0.469338 0.438075 -0.945532 0.117419 -0.303615
0.595480 0.750222 0.498869 -0.810664 0.516959 -0.274913
0.588733 0.064993 0.356614 0.660906 -0.621815 -0.420178
0.507477 0.178624 0.437066 -0.574481 0.044658 0.817299
0.317546 0.435039 0.151418 -0.042482 0.997231 -0.061043
0.510177 0.338679 0.411786 -0.310838 0.166576 0.935752
0.591936 0.675267 0.047271 0.002796 0.999963 -0.008149
0.522097 0.339300 0.450512 -0.687388 0.127502 -0.715011
0.527626 0.542731 0.412688 -0.817742 0.218711 0.532412
0.519220 0.258093 0.302810 0.299020 0.581157 -0.756864
0.545501 0.069400 0.308643 0.433068 -0.554434 -0.710672
0.498170 0.207675 0.569368 0.117341 0.269963 0.955694
0.372908 0.238065 0.419841 0.626303 0.779030 -0.029273
0.442406 0.025000 0.398699 -0.115738 -0.991793 -0.054328
0.777505 0.468749 0.390764 -0.043983 0.998746 -0.023927
0.535648 0.580209 0.273694 -0.191799 0.790193 0.582072
0.585843 0.257693 0.354695 0.666504 0.591791 -0.453382
0.446254 0.712301 0.396172 -0.197824 -0.681950 -0.704138
0.531330 0.365278 0.390815 -0.444937 0.723841 0.527337
0.533595 0.285603 0.428555 -0.407416 0.906343 0.112044
0.416264 0.528687 0.438843 0.796284 0.602251 0.056795
0.347413 0.430861 0.218005 0.079408 0.990515 0.112137
0.663925 0.438079 0.428344 -0.404981 0.913161 0.046123
0.421393 0.391538 0.404461 0.737906 0.376094 0.560399
0.595656 0.416549 0.490966 -0.102704 0.983446 -0.149283
0.512326 0.590448 0.471895 -0.334259 -0.256201 0.906991
0.521232 0.329865 0.416356 -0.251992 0.163423 0.953831
0.582401 0.213211 0.317542 0.661096 0.334849 -0.671438
0.291866 0.594455 0.645362 0.024027 0.999460 -0.022416
0.533007 0.265048 0.433248 -0.006768 0.992379 0.123040
0.619631 0.545611 0.436922 -0.512085 0.857226 -0.054148
0.601051 0.533980 0.436042 -0.550770 0.832404 -0.061278
0.548399 0.049112 0.512105 0.374897 -0.806647 0.456917
0.633066 0.167737 0.426443 0.998341 0.044509 0.036517
0.556755 0.645656 0.474329 -0.465202 0.737394 -0.489732
0.522118 0.606240 0.458804 -0.569192 0.575044 -0.587661
0.634109 0.799306 0.259886 -0.324322 0.922835 0.207826
0.565713 0.233035 0.490514 -0.279540 0.922023 -0.267826
0.535229 0.062517 0.534683 0.342610 -0.663575 0.665046
0.542419 0.580791 0.414027 -0.847325 0.194022 0.494365
0.583264 0.446676 0.816533 0.008152 0.998559 0.053050
0.378670 0.618700 0.696856 0.289337 0.923423 -0.252140
0.578009 0.109496 0.311449 0.631664 -0.315612 -0.708089
0.454898 0.260064 0.324650 0.245228 0.368882 0.896543
0.744120 0.434583 0.522065 0.093891 0.994551 0.045307
0.689852 0.578366 0.415708 -0.323365 0.945695 -0.033102
0.482705 0.326863 0.446542 0.855128 0.232317 -0.463449
0.483611 0.296649 0.445079 0.852606 0.221867 -0.473115
0.446345 0.469822 0.394921 -0.589174 0.200265 0.782795
0.421789 0.393235 0.403247 0.744037 0.368556 0.557292
0.536814 0.327466 0.436739 -0.649767 0.754142 0.095253
0.587192 0.260786 0.480108 0.564761 0.732234 0.380628
0.461776 0.207353 0.569653 -0.117642 0.266951 0.956503
0.485226 0.407365 0.538303 -0.092919 0.935529 -0.340810
0.500508 0.514491 0.422421 0.752583 0.155601 0.639849
0.557315 0.661510 0.141230 -0.123876 0.900975 0.415812
0.347697 0.600950 0.414135 0.837346 0.470524 0.278313
0.409206 0.241903 0.535152 -0.472593 0.487623 0.734085
0.484200 0.396562 0.459857 0.708938 0.238958 -0.663556
0.689349 0.851473 0.520576 -0.487993 0.858323 -0.158568
0.458242 0.096508 0.280079 -0.145390 -0.313094 -0.938528
0.572194 0.384181 0.428028 -0.627923 0.774981 0.071535
0.502610 0.497948 0.423825 0.825781 0.103058 0.554496
0.641978 0.807960 0.494442 -0.702828 0.666290 -0.249178
0.803520 0.470964 0.415600 -0.042299 0.998829 -0.023495
0.616172 0.085407 0.394471 0.860799 -0.471870 -0.190693
0.538545 0.025000 0.426779 0.192814 -0.980901 -0.025613
0.539299 0.146914 0.563429 0.388449 -0.047793 0.920230
0.498293 0.702869 0.510541 -0.353205 -0.377347 0.856070
0.691110 0.679745 0.647477 -0.191674 0.949645 -0.247861
0.454724 0.081257 0.286833 -0.166612 -0.421045 -0.891606
0.598949 0.415708 0.936769 -0.016647 0.999592 -0.023216
0.190152 0.685643 0.409073 0.251808 0.967582 0.019417
0.419943 0.773217 0.377477 -0.617170 -0.512846 -0.596732
0.116564 0.449954 0.565342 -0.399897 0.900530 0.170670
0.486042 0.610733 0.470476 0.280137 0.279041 -0.918509
0.203097 0.471956 0.526816 -0.016760 0.999450 0.028607
0.412180 0.386396 0.340872 0.293227 0.860468 0.416668
0.137613 0.692997 0.417669 0.060909 0.998135 0.004161
0.519255 0.461657 0.423133 -0.774552 0.626312 -0.088325
0.790364 0.472182 0.426857 -0.141492 0.989865 -0.012150
0.442703 0.285571 0.392404 0.601664 0.211155 0.770334
0.408040 0.072629 0.534938 -0.439598 -0.581305 0.684717
0.502660 0.526012 0.454262 0.189251 0.191464 -0.963081
0.571719 0.720859 0.331553 0.676829 -0.584476 -0.447538
0.829824 0.399734 0.587340 0.454889 0.857530 0.240245
0.582084 0.241034 0.334986 0.650358 0.510563 -0.562458
0.569736 0.637787 0.194830 -0.146068 0.864401 0.481118
0.366062 0.238949 0.350048 -0.736800 0.459577 -0.495898
0.468233 0.711391 0.505213 0.218628 0.428748 -0.876571
0.616839 0.229163 0.446657 0.899368 0.398928 0.178870
0.441072 0.543802 0.450203 0.221964 0.322655 -0.920123
0.526216 0.319010 0.411240 -0.567958 0.647875 0.507624
0.497868 0.245838 0.317530 -0.198082 0.527860 0.825910
0.694114 0.580020 0.428427 -0.331817 0.942775 -0.032760
0.440686 0.116473 0.276650 -0.258689 -0.189058 -0.947279
0.543937 0.406280 0.735144 0.128461 0.876569 0.463816
0.481772 0.613107 0.470076 0.271028 0.288291 -0.918386
0.297135 0.422598 0.090508 -0.199071 0.934324 -0.295650
0.463783 0.732949 0.515315 0.218871 0.470057 -0.855069
0.289017 0.464276 0.535434 0.158446 0.986104 -0.049945
0.748862 0.433881 0.525071 0.111851 0.992286 0.053467
0.457072 0.025000 0.445809 -0.075560 -0.991713 0.103904
0.532038 0.025000 0.411525 0.185171 -0.979556 -0.078626
0.736896 0.434099 0.544774 0.084599 0.995505 0.042571
0.440615 0.565528 0.607178 0.433425 0.811210 -0.392532
0.513848 0.477963 0.417037 -0.857795 0.146708 0.492610
0.425693 0.545780 0.554819 0.468473 0.756737 -0.455941
0.222905 0.674593 0.424687 0.332375 0.942776 0.026450
0.603471 0.254362 0.452317 0.803240 0.549354 0.230253
0.544022 0.355432 0.422940 -0.687572 0.721236 0.084043
0.363579 0.262263 0.391743 -0.589085 0.770871 -0.242359
0.555962 0.688708 0.346304 0.700381 -0.537358 -0.469802
0.351309 0.140560 0.503544 -0.855443 -0.097439 0.508648
0.514265 0.346988 0.411606 -0.277797 0.173793 0.944788
0.542771 0.659219 0.355723 0.619388 -0.683862 -0.385605
0.431171 0.761367 0.374751 -0.572140 -0.514905 -0.638379
0.482607 0.679803 0.495445 0.153359 0.236132 -0.959543
0.971224 0.407786 0.383386 0.608469 0.790543 -0.069330
0.510494 0.282529 0.431714 0.054061 0.075600 0.995672
0.437396 0.227331 0.419341 0.115628 0.993291 0.001900
0.467969 0.365654 0.455850 0.758646 0.538619 -0.366532
0.446180 0.025000 0.383798 -0.104577 -0.988712 -0.107293
0.705517 0.443538 0.070606 0.235401 0.925898 -0.295464
0.521689 0.025000 0.461157 0.128716 -0.986217 0.103961
0.629246 0.172076 0.452522 0.976441 0.078738 0.200904
0.399828 0.227331 0.378225 0.189885 0.976189 0.104879
0.599066 0.673866 0.496253 -0.256664 0.932551 -0.253914
0.610334 0.235410 0.383464 0.870132 0.418403 -0.260402
0.614033 0.419384 0.476921 -0.024080 0.992095 -0.123153
0.488247 0.452901 0.499325 0.663786 0.489808 -0.565223
0.309198 0.432940 0.137731 -0.074605 0.991503 -0.106568
0.436211 0.503888 0.418672 0.819006 0.568605 0.076925
0.479024 0.403092 0.530289 -0.101577 0.922428 -0.372571
0.482252 0.672267 0.491811 0.223629 0.288587 -0.930971
0.464982 0.639679 0.417337 0.783521 0.009556 0.621292
0.498713 0.058475 0.542616 0.108574 -0.625396 0.772717
0.741036 0.433285 0.551163 0.101503 0.993519 0.051154
0.625980 0.633605 0.586600 -0.339476 0.842008 -0.419260
0.594059 0.267688 0.428960 0.327821 0.940484 0.089569
0.382915 0.040763 0.380862 -0.456585 -0.877099 -0.149089
0.578502 0.227331 0.417974 -0.308452 0.950729 0.031163
0.590085 0.255952 0.359832 0.697732 0.572404 -0.430724
0.513988 0.265536 0.517773 -0.281162 0.530157 -0.799926
0.437283 0.054261 0.312549 -0.256071 -0.721595 -0.643217
0.513961 0.455225 0.448948 -0.941492 0.112356 -0.317757
0.462428 0.566751 0.375001 -0.556750 0.338310 0.758667
0.293400 0.426580 0.105147 -0.153835 0.963159 -0.220588
0.152783 0.463929 0.564370 -0.123455 0.991178 0.048223
0.445221 0.386889 0.459555 0.618501 0.729339 -0.292439
0.343527 0.490539 0.361908 0.492882 0.792635 0.358884
0.442931 0.491528 0.441635 0.850062 0.521479 0.073857
0.508023 0.447121 0.414979 -0.796875 0.596729 -0.094366
0.374928 0.120785 0.312819 -0.681072 -0.210187 -0.701400
0.516289 0.274839 0.420532 -0.273274 0.122923 0.954050
0.508685 0.379195 0.439455 -0.606073 -0.028395 0.794902
0.680014 0.458862 0.104848 0.127098 0.979306 -0.157500
0.645707 0.427002 0.492107 -0.126432 0.988565 -0.082183
0.601646 0.059559 0.410346 0.714435 -0.690251 -0.114613
0.480674 0.749525 0.530177 0.234681 0.519888 -0.821366
0.725811 0.460049 0.417869 -0.265071 0.963870 0.026289
0.498172 0.413046 0.441689 0.568531 0.062279 0.820301
0.556061 0.447875 0.794544 -0.004099 0.999987 -0.003093
0.352928 0.243770 0.458622 -0.847237 0.468468 0.250453
0.331595 0.582433 0.584065 0.246327 0.940463 -0.234206
0.581044 0.446007 0.824175 0.018766 0.995916 0.088309
0.541483 0.025000 0.428483 0.203423 -0.978855 -0.021471
0.513892 0.441540 0.391178 -0.309584 0.299044 0.902624
0.465970 0.772482 0.539917 0.228479 0.559583 -0.796658
0.555998 0.692896 0.341434 0.697974 -0.551191 -0.457187
0.504560 0.227331 0.491566 -0.032943 0.979835 -0.197076
0.298878 0.636194 0.444187 0.600702 0.771944 0.207990
0.437797 0.511931 0.299556 0.038155 0.748116 0.662471
0.633668 0.797590 0.269078 -0.346167 0.913376 0.214271
0.596983 0.434747 0.888538 -0.022890 0.999607 0.016194
0.517279 0.296958 0.472924 -0.258574 0.307550 -0.915725
0.496973 0.710304 0.279148 -0.305773 0.854968 0.418967
0.367195 0.048877 0.414638 -0.609483 -0.792756 0.008204
0.530109 0.291726 0.416455 -0.651038 0.595220 0.471024
0.307023 0.631751 0.414086 -0.043577 -0.871596 0.488285
0.479705 0.554909 0.434035 0.741978 0.189840 0.642985
0.482833 0.251264 0.550723 -0.023073 0.531613 0.846673
0.444270 0.306515 0.402456 0.079095 0.141117 0.986828
0.489513 0.774209 0.548422 0.226261 0.582151 -0.780965
0.417282 0.410332 0.478669 0.468694 0.857857 -0.210730
0.337647 0.633106 0.720360 0.523190 0.701807 -0.483466
0.337545 0.142405 0.365534 -0.926660 -0.086495 -0.365814
0.534681 0.398562 0.570259 -0.099584 0.900375 -0.423566
0.533753 0.443650 0.463545 -0.645142 0.204631 -0.736151
0.497908 0.171517 0.269880 0.066002 0.080486 -0.994568
0.551190 0.447352 0.775295 -0.030058 0.998842 -0.037555
0.517365 0.367793 0.443346 -0.859082 0.062146 0.508052
0.576070 0.031060 0.417700 0.424976 -0.899916 -0.097704
0.475270 0.147858 0.415506 -0.134105 -0.156713 0.978497
0.213532 0.471273 0.537122 -0.018234 0.999454 0.027560
0.496582 0.566495 0.461528 0.269318 0.241817 -0.932198
0.527041 0.274822 0.415327 -0.700978 0.559347 0.442448
0.477032 0.771010 0.542027 0.228860 0.562406 -0.794558
0.510701 0.471139 0.369870 -0.283640 0.509292 0.812508
0.482240 0.620704 0.360751 -0.529175 0.452686 0.717670
0.281388 0.647335 0.414766 0.555770 -0.142564 0.819021
0.493901 0.639928 0.482937 0.340692 0.286270 -0.895532
0.370421 0.372472 0.450502 0.467493 0.870181 -0.155676
0.254913 0.545680 0.313257 0.261983 0.942145 0.209113
0.435878 0.426854 0.372687 0.015941 0.528015 0.849085
0.473213 0.037132 0.320558 0.007117 -0.830593 -0.556834
0.543464 0.406669 0.592596 -0.100979 0.926218 -0.363212
0.391905 0.258365 0.372626 0.793597 0.435940 0.424453
0.331274 0.201351 0.423566 -0.977745 0.209705 0.006221
0.552865 0.639787 0.186027 -0.135913 0.878442 0.458113
0.590943 0.244365 0.494172 0.702389 0.516008 0.490292
0.507719 0.360991 0.434828 0.394702 0.054019 0.917220
0.421435 0.239018 0.543163 -0.408266 0.475272 0.779382
0.418187 0.559159 0.230962 0.024603 0.891245 0.452854
0.714141 0.444550 0.080185 0.264358 0.911208 -0.315933
0.481674 0.048902 0.309582 0.051463 -0.745070 -0.664998
0.598701 0.158442 0.519108 0.774774 0.005681 0.632213
0.336612 0.157138 0.365882 -0.930998 -0.001798 -0.365019
0.502161 0.096697 0.280706 0.151853 -0.382060 -0.911576
0.483463 0.683583 0.497437 0.076407 0.161769 -0.983866
0.357482 0.246925 0.374166 -0.792491 0.504666 -0.342449
0.479101 0.413043 0.558300 -0.086959 0.943775 -0.318947
0.505818 0.184735 0.571840 0.185793 0.166137 0.968442
0.413627 0.560448 0.396739 0.935877 0.342697 0.081812
0.416077 0.264836 0.498829 0.603692 0.289947 -0.742621
0.387511 0.621938 0.390094 0.887324 0.453286 0.084778
0.421127 0.383349 0.408167 0.731843 0.368955 0.572956
0.542148 0.235713 0.510713 -0.217810 0.889718 -0.401198
0.594952 0.751704 0.320286 0.729304 -0.514779 -0.450686
0.895299 0.457994 0.386126 0.341862 0.938934 -0.039159
0.614524 0.134123 0.350815 0.877608 -0.137104 -0.459354
0.554158 0.651796 0.161086 -0.126199 0.895676 0.426425
0.432830 0.667510 0.519845 0.180361 0.671569 -0.718654
0.562746 0.666333 0.379878 0.725338 -0.489038 -0.484486
0.289559 0.593239 0.660578 -0.017930 0.999686 0.017488
0.485536 0.669062 0.324360 -0.463846 0.602428 0.649560
0.352391 0.065300 0.417065 -0.771404 -0.636344 -0.001538
0.432116 0.488382 0.418899 0.969026 0.219407 0.113355
0.525402 0.252141 0.415784 -0.763593 0.505792 0.401374
0.384756 0.051645 0.486639 -0.579300 -0.678974 0.451007
0.628997 0.136052 0.452170 0.973137 -0.125217 0.193199
0.832092 0.470588 0.395386 0.085808 0.996091 -0.020987
0.498445 0.248638 0.447737 0.755930 0.106442 -0.645940
0.502513 0.699615 0.509921 0.288028 0.452054 -0.844208
0.517751 0.249290 0.468968 -0.257174 0.268859 -0.928211
0.402309 0.242201 0.493493 0.697235 0.130508 -0.704862
0.596645 0.413476 0.464770 0.111677 0.984042 -0.138528
0.490869 0.737095 0.525788 0.237479 0.500932 -0.832268
0.446231 0.061652 0.302799 -0.211525 -0.622663 -0.753358
0.448325 0.381640 0.410880 0.994413 0.105243 -0.008173
0.557257 0.035000 0.485544 0.321485 -0.919288 0.227061
0.513551 0.434864 0.441616 -0.959901 0.081772 -0.268148
0.554202 0.674157 0.360391 0.715046 -0.514010 -0.473818
0.508474 0.450631 0.431397 -0.770915 0.633036 -0.070394
0.559260 0.536872 0.512677 0.155820 -0.778106 0.608499
0.450490 0.382298 0.393567 0.067213 0.276081 0.958781
0.288188 0.428043 0.113303 -0.153519 0.963613 -0.218821
0.509502 0.397161 0.445731 -0.975487 0.073684 -0.207354
0.490224 0.333119 0.451699 0.737535 0.168742 -0.653887
0.252633 0.470281 0.524417 0.130810 0.990997 -0.028524
0.583887 0.241909 0.337586 0.656698 0.519983 -0.546228
0.548960 0.665928 0.358835 0.682889 -0.575924 -0.449414
0.544731 0.227331 0.359997 -0.398872 0.842485 0.362105
0.603064 0.094183 0.351558 0.779243 -0.427798 -0.458006
0.521554 0.428958 0.614268 -0.015740 0.992303 -0.122831
0.554516 0.492391 0.477763 -0.669333 0.378027 -0.639601
0.511391 0.245827 0.437025 -0.871585 0.042966 0.488357
0.447507 0.460006 0.427189 0.238089 0.179182 -0.954572
0.555708 0.504869 0.487702 -0.817911 -0.084471 -0.569110
0.439477 0.403300 0.437398 0.648611 0.329812 -0.685950
0.186080 0.686081 0.429634 0.213248 0.976875 0.015513
0.512056 0.160226 0.572411 0.235520 0.046965 0.970734
0.522843 0.227331 0.503204 -0.074706 0.971866 -0.223375
0.499487 0.253412 0.523131 -0.152200 0.542018 -0.826470
0.515292 0.194811 0.276922 0.213866 0.202297 -0.955687
0.731477 0.693062 0.688032 -0.077617 0.991868 -0.100865
0.475073 0.227751 0.561982 -0.052003 0.390744 0.919029
0.523331 0.597250 0.448111 -0.577621 0.577644 -0.576785
0.618301 0.414670 0.426930 -0.498230 0.865185 0.056767
0.503091 0.227910 0.451123 0.756447 0.107243 -0.645203
0.668696 0.440465 0.414927 -0.372726 0.926980 0.042229
0.347108 0.218169 0.480387 -0.863720 0.324887 0.385273
0.616566 0.110103 0.480540 0.884279 -0.287878 0.367664
0.404492 0.592103 0.137897 0.008483 0.989301 0.145640
0.637265 0.798463 0.485183 -0.715897 0.649489 -0.256235
0.204551 0.556384 0.321282 0.185641 0.972102 0.143369
0.652971 0.433501 0.410241 -0.397360 0.916549 0.045212
0.475689 0.472075 0.503961 0.614571 0.572973 -0.542221
0.658940 0.463541 0.203216 -0.037888 0.998185 0.046821
0.644935 0.429552 0.407027 -0.408812 0.911432 0.046519
0.389078 0.227331 0.464157 0.550899 0.767343 -0.328170
0.342584 0.603390 0.443039 0.792475 0.524969 0.310468
0.502013 0.236949 0.556719 0.115527 0.445923 0.887585
0.516915 0.457091 0.427387 -0.840014 0.121685 0.528743
0.409145 0.258309 0.349841 0.664459 0.347117 0.661819
0.538639 0.387434 0.362919 -0.351123 0.829063 0.435164
0.255870 0.469211 0.518160 0.162465 0.985662 -0.045556
0.638596 0.796424 0.282250 -0.368554 0.901660 0.226224
0.546160 0.263322 0.348138 -0.641336 0.148474 0.752757
0.429950 0.508805 0.303219 0.024227 0.762589 0.646429
0.487284 0.353074 0.439840 -0.791236 0.603639 -0.097804
0.514421 0.030540 0.511723 0.130997 -0.915513 0.380362
0.495431 0.788380 0.561360 0.215598 0.622992 -0.751930
0.656154 0.464207 0.183110 0.001353 0.999998 -0.001130
0.624408 0.795256 0.513631 -0.727390 0.634687 -0.260914
0.455821 0.442969 0.361906 0.030044 0.588536 0.807912
0.847001 0.468685 0.410581 0.106198 0.994014 -0.025662
0.441717 0.231835 0.396534 0.618086 0.157536 0.770164
0.589316 0.236800 0.503282 0.692622 0.471462 0.545893
0.696999 0.450954 0.396421 -0.288975 0.956899 0.028934
0.681873 0.664298 0.604937 -0.280471 0.888896 -0.362214
0.417737 0.483729 0.483916 0.533917 0.645106 -0.546599
0.474083 0.227331 0.505439 0.074653 0.949873 -0.303593
0.493948 0.580028 0.460731 -0.586190 0.527793 -0.614668
0.512405 0.227331 0.415176 -0.086445 0.996116 0.016752
0.517326 0.304193 0.405320 -0.614451 0.623084 0.483959
0.521509 0.384889 0.405918 -0.248686 0.227385 0.941516
0.691005 0.852510 0.521318 -0.475419 0.866066 -0.154615
0.531421 0.443443 0.395368 -0.254610 0.321524 0.912029
0.552355 0.365552 0.418521 -0.658153 0.748799 0.078327
0.494512 0.397586 0.471427 0.730667 0.284680 -0.620551
0.588422 0.673023 0.502322 -0.263801 0.923184 -0.279536
0.312210 0.627786 0.416058 0.166609 -0.789796 0.590308
0.511938 0.432870 0.658663 0.043176 0.998179 -0.042121
0.396985 0.170382 0.294071 -0.541019 0.073811 -0.837765
0.302030 0.715799 0.400929 0.419678 0.905222 0.066661
0.499567 0.742673 0.531749 0.235772 0.519272 -0.821443
0.422155 0.385474 0.405966 0.738253 0.365970 0.566612
0.469618 0.025000 0.461586 -0.035239 -0.987207 0.155504
0.545122 0.490560 0.429764 -0.684230 0.726286 -0.065865
0.298278 0.427448 0.104625 -0.155574 0.961356 -0.227137
0.537373 0.448073 0.462830 -0.661890 0.169791 -0.730118
0.548332 0.491674 0.413613 -0.695290 0.715001 -0.073110
0.567510 0.227331 0.486826 -0.188503 0.968488 -0.162780
0.613222 0.081634 0.389916 0.837740 -0.499412 -0.220858
0.166237 0.419972 0.498575 0.000224 1.000000 -0.000302
0.084422 0.425356 0.583772 -0.549228 0.794204 0.259978
0.230859 0.671934 0.417984 0.362240 0.930898 0.047013
0.374277 0.044518 0.397679 -0.530618 -0.845267 -0.062993
0.475539 0.621303 0.354906 -0.532398 0.455373 0.713575
0.624099 0.455178 0.237701 -0.179137 0.958775 0.220593
0.625990 0.117927 0.382858 0.939672 -0.228215 -0.254823
0.408706 0.126577 0.287867 -0.464919 -0.172815 -0.868323
0.699285 0.581784 0.435105 -0.320583 0.946699 -0.031436
0.302045 0.432212 0.135991 -0.088908 0.987936 -0.126795
0.589824 0.069258 0.494189 0.679752 -0.601323 0.419937
0.481655 0.304686 0.440426 0.858159 0.255396 -0.445349
0.487752 0.249323 0.447304 0.873701 0.187409 -0.448916
0.563013 0.375812 0.433419 -0.665736 0.742226 0.076785
0.520949 0.157213 0.569542 0.284251 0.026005 0.958397
0.502771 0.257664 0.546490 0.101677 0.566682 0.817639
0.242495 0.667556 0.426331 0.380563 0.923588 0.046439
0.726240 0.690147 0.672788 -0.110353 0.983477 -0.143509
0.376295 0.139450 0.310121 -0.677641 -0.103792 -0.728031
0.587780 0.669532 0.132784 -0.070556 0.970769 0.229410
0.291521 0.520976 0.353620 0.396914 0.867944 0.298550
0.597714 0.083244 0.351122 0.732868 -0.506630 -0.454127
0.574385 0.675546 0.390037 0.728587 -0.488196 -0.480444
0.426741 0.504692 0.308000 0.020945 0.760189 0.649365
0.464536 0.232817 0.311877 -0.000002 0.863502 0.504346
0.416522 0.213540 0.554016 -0.414719 0.325242 0.849839
0.510797 0.323091 0.437869 -0.993691 0.066499 0.090311
0.076666 0.413771 0.596783 -0.771403 0.522471 0.363264
0.525853 0.432673 0.662894 0.084310 0.996415 0.006962
0.446575 0.393336 0.419422 0.991600 0.099202 0.083002
0.466222 0.364426 0.407055 -0.971983 0.178944 -0.152406
0.332691 0.160520 0.464249 -0.972580 0.000522 0.232569
0.654390 0.824359 0.508247 -0.646303 0.728927 -0.225736
0.385130 0.215888 0.532159 -0.605786 0.355888 0.711595
0.458428 0.025000 0.448377 -0.070755 -0.991032 0.113354
0.454224 0.388114 0.391096 0.075735 0.323882 0.943061
0.448871 0.340165 0.414977 0.816847 0.173896 -0.550020
0.549168 0.227331 0.416927 -0.196651 0.980238 0.021476
0.603441 0.417666 0.932269 0.049285 0.972200 0.228906
0.510720 0.305337 0.431006 0.217397 0.077727 0.972983
0.456534 0.227331 0.442063 0.075869 0.995360 -0.059175
0.442064 0.231249 0.524566 0.415846 0.334923 -0.845517
0.519541 0.412137 0.439909 -0.853731 0.086032 0.513558
0.388931 0.818653 0.359301 -0.822262 -0.114350 -0.557502
0.570610 0.214764 0.307559 0.593967 0.318326 -0.738832
0.526343 0.025000 0.376254 0.222173 -0.934671 -0.277542
0.517945 0.397204 0.440241 -0.854449 0.075834 0.513971
0.613833 0.193854 0.488846 0.874806 0.197707 0.442297
0.518751 0.326624 0.450466 -0.644420 0.124169 -0.754523
0.298523 0.430682 0.124198 -0.110200 0.981432 -0.156995
0.503458 0.170501 0.573918 0.184105 0.098579 0.977951
0.354453 0.202591 0.501465 -0.823918 0.242644 0.512136
0.479481 0.519831 0.435236 -0.651656 0.342508 -0.676782
0.461203 0.523383 0.555916 0.515953 0.726655 -0.453612
0.568826 0.230218 0.529798 0.561977 0.405745 0.720800
0.082541 0.407230 0.542474 -0.272556 0.956269 0.106124
0.479677 0.447807 0.484938 0.675306 0.451434 -0.583241
0.442357 0.301947 0.403565 0.786537 0.130339 0.603631
0.481412 0.473600 0.511758 0.609848 0.587191 -0.532251
0.387465 0.241229 0.325813 -0.584474 0.489736 -0.646953
0.672157 0.573110 0.445918 -0.353101 0.934958 -0.034249
0.520043 0.294327 0.471935 -0.250578 0.316517 -0.914892
0.407869 0.506365 0.503007 0.486167 0.714306 -0.503398
0.403906 0.583926 0.407286 0.926625 0.365862 0.086670
0.546871 0.623878 0.393393 0.647990 -0.510475 -0.565265
0.436294 0.537361 0.265798 0.035743 0.815121 0.578186
0.545462 0.112993 0.287980 0.426668 -0.263541 -0.865159
0.550518 0.148707 0.557951 0.462156 -0.046499 0.885579
0.552593 0.410117 0.600292 -0.114483 0.928947 -0.352066
0.482552 0.295338 0.441155 0.861922 0.237609 -0.447920
0.572671 0.070614 0.516348 0.582711 -0.586303 0.562758
0.541094 0.418477 0.449265 -0.623287 0.276211 -0.731587
0.513851 0.094471 0.560183 0.225250 -0.342914 0.911961
0.555749 0.497946 0.415099 -0.672080 0.737266 -0.068898
0.529448 0.575294 0.397420 -0.804548 0.286433 0.520249
0.558106 0.657161 0.492264 -0.400071 0.815024 -0.419142
0.597080 0.565716 0.514115 -0.691693 0.642081 -0.330596
0.393398 0.603012 0.658709 -0.500187 -0.838663 0.215538
0.515581 0.558477 0.465631 -0.341642 -0.228773 0.911561
0.454901 0.222262 0.432239 -0.774794 0.275100 -0.569222
0.435517 0.474178 0.417173 0.975906 0.189536 0.108089
0.210492 0.559729 0.292915 0.167605 0.977123 0.130919
0.348678 0.092320 0.368470 -0.842757 -0.426280 -0.328704
0.600868 0.739007 0.350127 0.686089 -0.568049 -0.454535
0.459989 0.820465 0.579666 0.192096 0.705508 -0.682171
0.496547 0.694406 0.304415 -0.397729 0.725666 0.561445
0.543326 0.235479 0.301830 0.445948 0.434604 -0.782464
0.456064 0.485830 0.499416 0.589061 0.604155 -0.536660
0.509645 0.404300 0.445647 -0.970680 0.072989 -0.229024
0.610859 0.069350 0.436997 0.800482 -0.595734 0.065799
0.537287 0.386880 0.544538 -0.085889 0.870614 -0.484412
0.455240 0.470919 0.422886 0.892889 0.447186 0.052669
0.465929 0.610469 0.354186 -0.529728 0.442129 0.723816
0.398452 0.518730 0.510939 0.472521 0.739000 -0.480211
0.565238 0.508816 0.483331 -0.874053 0.135927 -0.466427
0.488961 0.227331 0.510189 0.030592 0.954002 -0.298237
0.349807 0.079499 0.461848 -0.816768 -0.511045 0.267811
0.440725 0.446724 0.413957 0.986128 0.146065 0.078849
0.518955 0.344507 0.496855 -0.211486 0.533313 -0.819055
0.558288 0.501629 0.435087 -0.640674 0.765318 -0.061852
0.453885 0.380406 0.456454 0.654300 0.688366 -0.313120
0.446047 0.354842 0.400824 0.082829 0.159237 0.983760
0.501898 0.320069 0.461964 0.748277 0.186609 -0.636599
0.464970 0.776515 0.542946 0.226051 0.572717 -0.787970
0.553694 0.364961 0.434806 -0.689367 0.719741 0.082133
0.457878 0.441093 0.426714 0.274461 0.187322 -0.943176
0.394568 0.605840 0.668472 -0.031421 0.998254 -0.050026
0.600011 0.398910 0.963415 0.012304 0.998815 0.047092
0.508896 0.057962 0.539408 0.176306 -0.650670 0.738610
0.219490 0.676448 0.401584 0.348058 0.935921 0.053924
0.348055 0.174024 0.346171 -0.861682 0.091429 -0.499144
0.506781 0.259831 0.437266 -0.688164 0.011023 0.725471
0.390414 0.176398 0.546174 -0.580972 0.117404 0.805412
0.938634 0.438851 0.401577 0.482680 0.874068 -0.054998
0.481635 0.523721 0.435329 -0.649787 0.351298 -0.674068
0.518274 0.399331 0.464620 -0.647694 0.171010 -0.742461
0.517011 0.033225 0.330635 0.316934 -0.739259 -0.594180
0.423626 0.375114 0.354782 0.402393 0.727902 0.555193
0.247308 0.470417 0.533498 0.075789 0.997113 -0.004681
0.424487 0.227331 0.446634 0.190915 0.978001 -0.084054
0.566485 0.201703 0.299877 0.555735 0.238549 -0.796400
0.475277 0.250939 0.318273 0.002635 0.547335 0.836909
0.525664 0.491521 0.361253 -0.285968 0.529917 0.798380
0.612110 0.090492 0.472480 0.844711 -0.439185 0.305908
0.231246 0.672343 0.398668 0.375607 0.924231 0.068678
0.574571 0.662630 0.486920 -0.374626 0.839799 -0.392928
0.564727 0.421041 0.309090 -0.263462 0.903356 0.338432
0.610738 0.130938 0.499427 0.853024 -0.152833 0.498992
0.585509 0.268976 0.452928 0.026224 0.992443 0.119872
0.502061 0.298850 0.437349 -0.980093 0.131050 -0.149143
0.478006 0.395445 0.447128 0.957604 0.267819 0.106152
0.473541 0.266859 0.417362 -0.981348 0.190793 -0.023542
0.446841 0.025000 0.361751 -0.101840 -0.976977 -0.187469
0.361889 0.252187 0.474439 -0.757302 0.532311 0.378336
0.568758 0.664205 0.391561 0.731790 -0.479776 -0.484044
0.474169 0.210253 0.569901 -0.041315 0.282918 0.958254
0.485752 0.577630 0.419447 0.765320 0.171894 0.620272
0.260123 0.659989 0.400411 0.471951 0.854602 0.216606
0.502546 0.365438 0.473762 0.756405 0.243699 -0.607011
0.473237 0.359881 0.455366 0.794428 0.468958 -0.385956
0.489364 0.551643 0.455817 0.269522 0.230936 -0.934894
0.560056 0.444547 0.722212 -0.056869 0.993480 -0.098809
0.515200 0.329170 0.401690 -0.537518 0.667341 0.515490
0.501259 0.482195 0.428495 0.729117 0.118521 0.674048
0.353808 0.151014 0.508418 -0.847525 -0.037269 0.529445
0.591881 0.557657 0.508448 -0.862823 0.496677 -0.094068
0.562963 0.649066 0.443408 -0.893370 0.360960 -0.267577
0.869637 0.465061 0.389072 0.230331 0.972705 -0.028156
0.181539 0.686796 0.439321 0.186601 0.982346 0.013243
0.486406 0.620370 0.363725 -0.514187 0.473811 0.714923
0.371778 0.205466 0.320972 -0.700121 0.259322 -0.665269
0.364285 0.421521 0.262926 0.151156 0.965494 0.212068
0.513110 0.315733 0.453284 -0.648246 0.122378 -0.751532
0.339974 0.089619 0.426743 -0.893872 -0.446059 0.044992
0.508569 0.497269 0.351700 -0.246248 0.606291 0.756157
0.361572 0.623825 0.701873 0.137458 0.900575 -0.412396
0.493179 0.410311 0.545203 -0.084303 0.947252 -0.309202
0.546581 0.268289 0.507980 -0.029056 0.989729 -0.139971
0.574093 0.260847 0.387286 -0.894811 0.310567 0.320719
0.411754 0.595636 0.115115 0.004927 0.996883 0.078737
0.398344 0.403881 0.305106 0.225961 0.916738 0.329444
0.791055 0.425746 0.545916 0.267797 0.955524 0.123525
0.372895 0.236022 0.436229 0.660755 0.739203 -0.130317
0.518735 0.435638 0.445870 -0.427900 -0.070250 0.901092
0.225856 0.417040 0.505628 0.101154 0.994105 -0.039033
0.535829 0.302182 0.440221 -0.537617 0.836493 0.106052
0.424638 0.580386 0.627471 -0.209718 -0.254073 -0.944174
0.503424 0.432492 0.641047 -0.017973 0.993493 -0.112465
0.450519 0.262122 0.326775 0.307198 0.323259 0.895060
0.614056 0.075285 0.412640 0.834418 -0.545538 -0.078328
0.367026 0.247318 0.487648 -0.725276 0.508236 0.464404
0.804401 0.470110 0.396675 0.012394 0.999648 -0.023440
0.543691 0.089176 0.547205 0.418809 -0.441958 0.793266
0.507730 0.261997 0.431325 -0.891304 0.046477 0.451019
0.516553 0.522384 0.330849 -0.234837 0.651247 0.721616
0.424745 0.752646 0.389329 -0.554760 -0.562179 -0.613349
0.441576 0.524456 0.284844 0.039207 0.778536 0.626374
0.461387 0.582919 0.365978 -0.548932 0.384612 0.742124
0.576839 0.184560 0.306395 0.624556 0.148668 -0.766700
0.562518 0.618811 0.225122 -0.160534 0.846287 0.507963
0.560003 0.626400 0.211894 -0.150454 0.856261 0.494146
0.344483 0.430728 0.220843 0.075802 0.991368 0.106977
0.486741 0.662376 0.331655 -0.479668 0.576941 0.661103
0.489912 0.428210 0.477306 0.715480 0.353010 -0.602886
0.800318 0.420036 0.562864 0.302759 0.942014 0.144730
0.467972 0.215295 0.421168 -0.955160 0.064188 0.289049
0.509804 0.432938 0.656432 0.031979 0.998002 -0.054500
0.563909 0.648209 0.398386 0.738170 -0.463277 -0.490387
0.677077 0.457887 0.094061 0.159129 0.963774 -0.214052
0.577913 0.249578 0.506781 0.606646 0.551415 0.572645
0.574791 0.227331 0.367518 -0.655208 0.588569 0.473591
0.691140 0.448711 0.402083 -0.308617 0.950632 0.032474
0.527063 0.416984 0.626399 -0.123900 0.928101 -0.351109
0.574222 0.676420 0.084652 -0.033545 0.993783 0.106161
0.536530 0.642375 0.175784 -0.131203 0.884863 0.446993
0.534139 0.287526 0.432409 -0.423987 0.898708 0.112071
0.542368 0.554216 0.308410 0.398481 -0.621888 -0.674143
0.620571 0.089993 0.435962 0.894316 -0.441336 0.073635
0.516360 0.349828 0.442203 -0.860799 0.059287 0.505480
0.361792 0.847507 0.340823 0.402519 0.841829 0.359586
0.476509 0.176624 0.418147 -0.068216 -0.154482 0.985638
0.533684 0.152835 0.565429 0.352817 -0.004587 0.935681
0.386598 0.108176 0.536529 -0.589966 -0.348041 0.728566
0.211365 0.678616 0.428354 0.294441 0.955396 0.022850
0.507407 0.314311 0.429634 -0.892941 0.054546 0.446858
0.575390 0.675175 0.093616 -0.040167 0.990988 0.127783
0.437115 0.562273 0.456173 0.220343 0.354475 -0.908734
0.471549 0.235338 0.529974 0.139886 0.719425 -0.680338
0.366604 0.657250 0.383810 0.825110 0.559959 0.075101
0.512310 0.454773 0.430159 -0.766032 0.638732 -0.072225
0.523442 0.473753 0.428741 -0.932135 0.140431 -0.333773
0.403480 0.594855 0.642809 -0.439710 -0.850162 0.289621
0.780649 0.428169 0.552982 0.232047 0.966377 0.110769
0.475797 0.221887 0.564694 -0.041699 0.354450 0.934145
0.106084 0.414993 0.530927 -0.195924 0.977783 0.074529
0.516615 0.427331 0.605565 -0.030594 0.988124 -0.150585
0.610933 0.143238 0.500236 0.857328 -0.082074 0.508186
0.340157 0.688480 0.382760 0.706661 0.705260 0.056914
0.079497 0.415761 0.597894 -0.751955 0.518122 0.407570
0.510141 0.408811 0.440377 -0.573781 -0.039081 0.818076
0.896559 0.458495 0.407346 0.288220 0.956963 -0.033930
0.786252 0.424996 0.561393 0.253135 0.959592 0.122907
0.701896 0.675634 0.625876 -0.215403 0.936094 -0.278083
0.499836 0.619976 0.477847 0.252153 0.366333 0.895667
0.372102 0.269156 0.399110 -0.090861 0.989511 -0.112307
0.398644 0.252442 0.358199 0.664167 0.555955 0.499796
0.505155 0.301379 0.437624 0.057755 0.060436 0.996500
0.188221 0.562449 0.289261 0.131891 0.986074 0.101307
0.273184 0.533693 0.335054 0.336362 0.905735 0.257885
0.456126 0.227331 0.465390 0.097965 0.986026 -0.134744
0.605197 0.741024 0.354064 0.758185 -0.446351 -0.475318
0.066311 0.401971 0.548288 -0.325569 0.936913 0.127277
0.401164 0.718784 0.586755 0.086362 0.932794 -0.349909
0.461078 0.268219 0.533915 -0.007549 0.951080 0.308852
0.783055 0.594994 0.444683 -0.023965 0.999710 -0.002432
0.544044 0.607386 0.457259 -0.911303 0.273097 -0.308132
0.529803 0.549953 0.453658 -0.931976 0.178266 -0.315662
0.565554 0.187650 0.297356 0.535819 0.164243 -0.828204
0.434411 0.366896 0.396889 0.784986 0.268943 0.558092
0.488881 0.548171 0.441900 -0.628922 0.408131 -0.661730
0.675348 0.432725 0.504714 -0.089821 0.994801 -0.047998
0.380941 0.416233 0.273202 0.164665 0.955986 0.242849
0.520707 0.570759 0.281011 -0.183578 0.781207 0.596669
0.373441 0.268380 0.444334 0.063528 0.991741 -0.111422
0.448294 0.059442 0.539998 -0.233710 -0.650680 0.722492
0.758651 0.693397 0.668836 -0.046041 0.997174 -0.059369
0.437468 0.227331 0.466306 0.166561 0.972653 -0.161873
0.429996 0.502187 0.408008 0.970862 0.223283 0.087012
0.527642 0.336420 0.444400 -0.652234 0.137770 -0.745393
0.488982 0.331099 0.441599 0.986447 0.150223 0.066000
0.380919 0.629342 0.415538 0.856469 0.510362 0.077401
0.384629 0.535672 0.525222 0.439538 0.783099 -0.439957
0.515788 0.025000 0.423932 0.117580 -0.992943 -0.015451
0.547783 0.661159 0.139189 -0.119869 0.909193 0.398749
0.459881 0.473679 0.403899 -0.556646 0.183528 0.810224
0.576721 0.261128 0.448039 -0.914600 0.343584 -0.213207
0.530630 0.472008 0.407158 -0.729612 0.679415 -0.077862
0.510569 0.207526 0.567345 0.195697 0.271478 0.942339
0.369224 0.176933 0.526360 -0.742200 0.107821 0.661448
0.691741 0.671773 0.621475 -0.239924 0.918220 -0.315133
0.539296 0.544080 0.318303 0.421986 -0.658517 -0.623124
0.581453 0.179556 0.535240 0.660408 0.121145 0.741070
0.442512 0.577070 0.191898 0.024830 0.918655 0.394279
0.490402 0.644525 0.483231 0.285451 0.292343 -0.912718
0.837174 0.470284 0.421525 0.056545 0.997979 -0.028996
0.489222 0.571598 0.418415 0.760091 0.191859 0.620847
0.409222 0.696898 0.544652 0.141968 0.791644 -0.594259
0.487081 0.649633 0.343304 -0.504602 0.531347 0.680476
0.284547 0.531406 0.329365 0.333891 0.905873 0.260597
0.547733 0.491007 0.409838 -0.682410 0.727807 -0.067916
0.533777 0.411942 0.610305 -0.133576 0.921033 -0.365863
0.413544 0.560697 0.396719 0.935728 0.343117 0.081756
0.495556 0.065815 0.549385 0.094542 -0.557514 0.824767
0.412633 0.564646 0.391796 0.928847 0.360740 0.084319
0.409163 0.227331 0.343788 0.150707 0.969243 0.194566
0.366977 0.265879 0.449227 -0.446733 0.893219 0.050889
0.659205 0.463675 0.199846 -0.030957 0.998785 0.038351
0.190444 0.419372 0.498164 0.049536 0.998589 -0.019144
0.466148 0.374527 0.476325 -0.168717 0.767184 -0.618841
0.396776 0.793135 0.382569 -0.687800 -0.478953 -0.545467
0.507673 0.400069 0.439357 -0.611935 -0.032397 0.790244
0.379049 0.151009 0.306402 -0.657483 -0.036999 -0.752560
0.474396 0.603958 0.422749 0.766944 0.140579 0.626126
0.354136 0.671289 0.397109 0.762942 0.643254 0.064364
0.765419 0.691994 0.686050 -0.017605 0.999580 -0.023008
0.527020 0.587741 0.261554 -0.176519 0.808172 0.561871
0.322437 0.434894 0.176995 -0.005495 0.999955 -0.007727
0.492462 0.345481 0.457362 0.738171 0.172591 -0.652162
0.548176 0.491357 0.409367 -0.678733 0.731339 -0.066813
0.507848 0.025000 0.441392 0.086502 -0.995152 0.046795
0.488915 0.496909 0.439225 0.713382 0.156529 0.683070
0.540792 0.054705 0.321218 0.431413 -0.630900 -0.644863
0.442419 0.481226 0.331266 0.042936 0.658691 0.751187
0.413533 0.374254 0.363668 0.406111 0.734569 0.543582
0.538478 0.346739 0.443693 0.788842 -0.548360 0.277541
0.227025 0.548533 0.334886 0.241304 0.951983 0.188418
0.470916 0.837604 0.600361 0.172919 0.760728 -0.625613
0.520180 0.269745 0.410264 -0.716003 0.549354 0.430754
0.415623 0.581580 0.615960 0.405754 0.825474 -0.392373
0.282934 0.646670 0.403293 0.014357 -0.610970 0.791524
0.386554 0.831184 0.343234 0.320442 0.884218 0.339816
0.332408 0.611746 0.431801 0.827148 0.132650 0.546105
0.598900 0.257335 0.466013 0.761978 0.563437 0.319262
0.498947 0.152184 0.269781 0.079142 -0.026246 -0.996518
0.577337 0.106364 0.312506 0.628357 -0.337308 -0.700992
0.602807 0.179167 0.512370 0.798340 0.118762 0.590380
0.199595 0.682695 0.432980 0.254197 0.966965 0.019024
0.438159 0.552099 0.243611 0.042442 0.850175 0.524786
0.572867 0.432392 0.284220 -0.229422 0.929089 0.290102
0.233185 0.413880 0.483383 0.167719 0.983640 -0.065748
0.439249 0.497630 0.434787 0.250753 0.246800 -0.936062
0.472724 0.446537 0.475999 0.669142 0.405649 -0.622654
0.392957 0.802083 0.377105 -0.729506 -0.418883 -0.540701
0.627023 0.110763 0.444362 0.949409 -0.283363 0.135379
0.449827 0.227331 0.424137 0.084173 0.996396 -0.010446
0.496683 0.243890 0.526569 -0.071509 0.717149 -0.693241
0.439984 0.025000 0.444281 -0.146398 -0.982718 0.113287
0.644513 0.640615 0.585816 -0.333650 0.843827 -0.420279
0.481599 0.651605 0.483127 0.263955 0.312176 -0.912619
0.160552 0.690716 0.424316 0.129282 0.991567 0.008976
0.486982 0.397794 0.462789 0.720915 0.224285 -0.655727
0.496084 0.710404 0.278281 -0.303116 0.857630 0.415442
0.638968 0.464292 0.166667 0.009810 0.999868 -0.012937
0.382928 0.568200 0.411321 0.783480 0.607945 0.128693
0.592920 0.592096 0.548972 0.460470 -0.682145 0.568018
0.573297 0.656100 0.157654 -0.125907 0.897173 0.423354
0.202345 0.471316 0.552101 -0.045636 0.998521 0.029536
0.508999 0.326584 0.432780 0.338055 0.067751 0.938685
0.552924 0.199965 0.551962 0.470883 0.231462 0.851290
0.484087 0.285154 0.443948 0.860524 0.210158 -0.464038
0.369776 0.536067 0.511021 0.439606 0.788217 -0.430650
0.450587 0.717871 0.388887 -0.017249 -0.562602 -0.826548
0.506876 0.025000 0.413285 0.091106 -0.994803 -0.045456
0.417049 0.218333 0.551764 -0.416779 0.354828 0.836894
0.385720 0.621926 0.410358 0.874760 0.477941 0.079793
0.539312 0.260297 0.340176 -0.549066 0.185165 0.815009
0.518673 0.162057 0.417426 -0.939826 0.265059 0.215569
0.391270 0.701632 0.546151 0.129280 0.829908 -0.542714
0.787094 0.426000 0.552974 0.254869 0.959430 0.120564
0.536127 0.302455 0.442699 -0.536857 0.836919 0.106547
0.435811 0.390797 0.452012 0.585114 0.764463 -0.270624
0.122163 0.416021 0.543832 -0.144938 0.987799 0.056981
0.442244 0.513143 0.297767 0.036999 0.749445 0.661032
0.348391 0.223193 0.476573 -0.861543 0.354369 0.363546
0.431357 0.464076 0.347278 0.039863 0.649317 0.759472
0.485614 0.265876 0.430377 -0.117439 -0.235740 0.964694
0.509270 0.302171 0.474862 -0.239834 0.331282 -0.912542
0.526397 0.505896 0.349613 -0.268893 0.550090 0.790631
0.655551 0.464426 0.176710 0.012595 0.999808 -0.014992
0.239621 0.413754 0.498448 0.148171 0.987273 -0.057770
0.487589 0.160936 0.268624 -0.004270 0.031853 -0.999483
0.610634 0.780529 0.515452 -0.762881 0.586130 -0.272883
0.211635 0.679230 0.402488 0.325437 0.944843 0.036909
0.428874 0.246569 0.300965 -0.299636 0.504024 -0.810048
0.640872 0.811182 0.506563 -0.694704 0.675951 -0.245919
0.508405 0.389704 0.427815 -0.892281 0.071851 0.445726
0.501297 0.311537 0.459250 0.745730 0.170257 -0.644126
0.732169 0.434218 0.551851 0.074156 0.996525 0.037938
0.387283 0.159898 0.299519 -0.602761 0.014867 -0.797784
0.374950 0.244589 0.421926 0.756720 0.652875 -0.033591
0.407318 0.227331 0.366841 0.163277 0.977461 0.133829
0.520864 0.454153 0.385036 -0.301528 0.344664 0.888981
0.329898 0.698321 0.382391 0.647867 0.759649 0.056585
0.648460 0.634777 0.571199 -0.346719 0.826461 -0.443562
0.083260 0.419592 0.596000 -0.917419 0.095158 0.386378
0.319839 0.591015 0.610897 0.174147 0.970568 -0.166347
0.297906 0.397983 0.462879 0.274287 0.955700 -0.106790
0.518398 0.506673 0.454624 -0.918862 0.175496 -0.353404
0.488808 0.540595 0.427760 0.736945 0.159867 0.656776
0.535448 0.345915 0.448942 0.762495 -0.563184 0.318474
0.402638 0.394499 0.326732 0.260518 0.891072 0.371647
0.569479 0.670582 0.124256 -0.075258 0.967526 0.241308
0.643270 0.462657 0.214512 -0.068165 0.994147 0.083821
0.563031 0.443536 0.853954 0.025304 0.993005 0.115326
0.500977 0.677597 0.499335 -0.332019 -0.312771 0.889909
0.407097 0.239180 0.499111 0.650688 0.090929 -0.753881
0.473189 0.438810 0.422725 0.943383 0.327039 0.055437
0.427258 0.359085 0.375327 0.496996 0.557247 0.665185
0.442760 0.426289 0.417920 0.986985 0.129625 0.095173
0.419923 0.630439 0.487598 0.190022 0.530330 -0.826221
0.439835 0.289873 0.393449 0.616921 0.206167 0.759542
0.439303 0.260843 0.329721 0.409305 0.352593 0.841515
0.515426 0.025000 0.388748 0.139293 -0.976208 -0.166179
0.349963 0.191275 0.347264 -0.849081 0.183925 -0.495211
0.501998 0.269359 0.531166 0.081071 0.986108 0.144975
0.590310 0.739367 0.493624 -0.827679 0.489979 -0.273620
0.411987 0.809619 0.345769 0.517721 0.709606 0.477937
0.423495 0.744958 0.397176 -0.457998 -0.648782 -0.607718
0.487137 0.540448 0.429497 0.740722 0.168838 0.650249
0.351969 0.243466 0.455978 -0.855931 0.463379 0.229482
0.534218 0.399758 0.451383 -0.641938 0.192546 -0.742187
0.504024 0.230481 0.452258 0.756817 0.111956 -0.643967
0.450343 0.480747 0.419256 0.865108 0.497024 0.067502
0.753674 0.465777 0.398722 -0.157367 0.987538 -0.002149
0.372956 0.042662 0.418160 -0.537660 -0.842191 0.040434
0.357203 0.085045 0.358506 -0.785737 -0.482402 -0.387177
0.530212 0.075281 0.296682 0.333315 -0.523868 -0.783877
0.493895 0.679493 0.320602 -0.451416 0.637972 0.623872
0.418852 0.530522 0.276504 0.022591 0.825128 0.564494
0.464146 0.069319 0.291700 -0.099226 -0.520590 -0.848022
0.504757 0.429546 0.622481 -0.032572 0.988905 -0.144933
0.569740 0.694582 0.481811 -0.871807 0.406804 -0.272880
0.331157 0.199899 0.425482 -0.979789 0.199117 0.019128
0.422511 0.526140 0.422026 0.947243 0.294491 0.126514
0.552356 0.623847 0.402425 0.723638 -0.446209 -0.526541
0.433140 0.555163 0.238165 0.035498 0.862849 0.504213
0.588391 0.725723 0.350559 0.678196 -0.568211 -0.466033
0.486918 0.212496 0.440968 0.871528 0.182414 -0.455153
0.427238 0.227331 0.393702 0.126189 0.989753 0.066820
0.483820 0.409361 0.411964 -0.893160 0.425771 -0.144859
0.428738 0.587446 0.159786 0.013823 0.964219 0.264746
0.586174 0.557108 0.512799 -0.547853 -0.365806 0.752359
0.549204 0.654880 0.153006 -0.123881 0.900824 0.416137
0.481022 0.560944 0.430457 0.746317 0.186990 0.638784
0.127737 0.417619 0.512269 -0.122335 0.991423 0.045989
0.549984 0.073259 0.535877 0.449244 -0.559324 0.696661
