0.472791 0.112971 0.185955 -0.006157 0.999119 -0.041513
0.505669 0.104633 0.293494 -0.145891 0.060570 0.987445
0.644655 0.112971 0.347996 -0.030231 0.989367 0.142262
0.590414 0.043171 0.203228 -0.095907 -0.993866 -0.055062
0.680679 0.043171 0.347990 0.005067 -0.961376 0.275190
0.572270 0.112971 0.248542 -0.048248 0.997152 0.057971
0.221810 0.059416 0.121922 0.246940 -0.967585 0.052913
0.866379 0.131955 0.356050 0.453299 0.855975 -0.248648
0.566380 0.112971 0.288117 -0.051883 0.993216 0.104068
0.535782 0.103241 0.325494 -0.332502 0.109999 0.936666
0.215529 0.078313 0.416472 0.937203 0.010003 0.348641
0.483439 0.055168 0.159371 -0.091321 -0.729044 -0.678347
0.928119 0.160683 0.222374 0.134976 -0.990849 0.000000
0.822940 0.113139 0.196807 0.047848 0.994238 -0.095920
0.257220 0.088873 0.075869 0.000000 0.000000 1.000000
0.129462 0.060825 0.378220 0.000000 0.000000 1.000000
0.268631 0.065131 0.075869 0.000000 0.000000 1.000000
0.263991 0.027121 0.404590 0.282820 -0.938776 0.196755
0.387323 0.043464 0.247629 -0.050451 -0.990549 0.127543
0.846860 0.086111 0.358501 0.000000 0.000000 1.000000
0.663420 0.112971 0.150673 0.001699 0.994930 -0.100557
0.807059 0.043170 0.197760 0.340901 -0.913961 -0.220140
0.190184 0.100011 0.367589 -0.859814 0.399278 -0.318271
0.136607 0.099232 0.192377 -0.246592 0.413477 -0.876487
0.833846 0.133963 0.096573 -0.047031 -0.905354 -0.422044
0.605625 0.058500 0.345984 -0.115356 -0.803184 0.584455
0.428467 0.122913 0.259083 0.052799 0.988129 0.144266
0.397098 0.076625 0.214352 0.562607 0.790200 0.243017
0.565455 0.139827 0.245022 0.083073 0.223150 0.971238
0.902062 0.156314 0.205214 0.724582 0.689188 0.000000
0.530642 0.112971 0.253691 -0.027193 0.997100 0.071080
0.808609 0.091178 0.147681 -0.560441 0.809750 -0.173813
0.819412 0.134340 0.045632 0.343501 -0.927648 0.146544
0.254368 0.110676 0.075226 0.119125 0.923682 -0.364173
0.382897 0.093500 0.214265 0.864225 0.454455 0.215837
0.471394 0.043171 0.237249 -0.069231 -0.997442 0.017774
0.115635 0.059973 0.118297 0.343182 -0.938096 -0.046927
0.547357 0.051242 0.121265 -0.148961 -0.924659 -0.350450
0.711503 0.043171 0.339626 0.067252 -0.969100 0.237325
0.247688 0.129971 0.206631 -0.110420 0.976807 -0.183452
0.811305 0.095861 0.055866 -0.850514 0.521376 0.069226
0.621796 0.043171 0.226535 -0.066593 -0.997758 -0.006613
0.850550 0.107475 0.084953 0.000000 0.000000 1.000000
0.837120 0.101194 0.084953 0.000000 0.000000 1.000000
0.866080 0.098746 0.363464 -0.733472 -0.631559 -0.251300
0.223402 0.132868 0.414411 -0.414058 0.850978 0.323098
0.382041 0.113725 0.172471 -0.043787 0.371048 -0.927581
0.833476 0.125890 0.346858 0.318481 0.405223 -0.856950
0.243983 0.031963 0.360132 0.000004 0.001741 0.999999
0.063992 0.047930 0.232890 -0.000848 -0.999982 -0.005945
0.903416 0.132760 0.136612 0.194143 -0.980973 0.000000
0.516840 0.069567 0.133371 -0.997958 -0.000537 0.063867
0.468115 0.119119 0.192983 -0.237034 0.847118 0.475610
0.223940 0.054857 0.319509 0.933504 -0.297425 -0.200270
0.426804 0.043463 0.255191 0.003896 -0.984187 0.177089
0.819981 0.109462 0.251825 0.049357 0.970139 0.237475
0.438767 0.106134 0.197298 -0.068741 0.342378 0.937044
0.806679 0.052861 0.144505 -0.354201 0.931357 0.084357
0.274417 0.058978 0.176213 -0.048991 -0.583729 -0.810469
0.303625 0.059794 0.371211 0.850512 -0.450646 -0.271197
0.492420 0.112971 0.188049 -0.008983 0.999790 -0.018425
0.294770 0.116843 0.034242 -0.678135 -0.676881 0.286295
0.952195 0.169065 0.221225 0.476319 -0.879161 0.014020
0.847330 0.095943 0.296663 -0.324674 0.931327 0.164974
0.927874 0.108014 0.321689 0.000000 0.000000 1.000000
0.737464 0.112971 0.176225 0.075921 0.996534 -0.033996
0.078558 0.063900 0.198590 -0.215105 0.059038 -0.974805
0.819692 0.104782 0.370268 0.610286 -0.776287 -0.157891
0.655593 0.112971 0.212458 -0.010863 0.999678 -0.022952
0.273792 0.036366 0.025376 -0.527468 0.638529 0.560409
0.675188 0.112971 0.226528 -0.002724 0.999874 -0.015630
0.270655 0.102677 0.390502 -0.680211 -0.732981 0.007110
0.330633 0.043555 0.268070 -0.031430 -0.966877 0.253300
0.458042 0.043464 0.258850 0.043975 -0.987851 0.149056
0.252516 0.084735 0.085979 -0.437319 -0.806769 -0.397335
0.274535 0.097080 0.341274 -0.126163 0.968079 0.216577
0.667424 0.107796 0.096916 -0.023349 0.046194 -0.998660
0.089361 0.048967 0.111520 0.075667 -0.993388 -0.086344
0.446122 0.097125 0.287775 -0.154618 0.111692 0.981641
0.919462 0.160778 0.188048 -0.009815 -0.999952 0.000000
0.800057 0.056636 0.302619 -0.705450 0.707325 0.045076
0.239459 0.078340 0.178099 -0.070312 -0.041696 -0.996653
0.498956 0.123324 0.211857 -0.952045 0.154516 -0.264073
0.408083 0.060183 0.283749 -0.032083 -0.433547 0.900560
0.576325 0.112971 0.308066 -0.057374 0.990589 0.124264
0.891549 0.091255 0.101246 -0.465371 -0.847117 0.256559
0.857614 0.089327 0.105016 0.766725 0.630514 -0.120769
0.835871 0.079524 0.340184 0.135065 0.209234 0.968493
0.468352 0.112971 0.257927 -0.003727 0.999801 0.019576
0.863047 0.046012 0.346848 -0.342020 0.070106 -0.937074
0.210484 0.117920 0.025375 0.654308 -0.427186 0.624014
0.498893 0.115180 0.193460 -0.756662 0.416520 -0.503957
0.602774 0.119404 0.204879 0.076325 0.392800 -0.916451
0.476647 0.068069 0.291295 -0.113421 -0.591240 0.798480
0.541124 0.060680 0.123515 -0.207607 -0.837884 -0.504827
0.233690 0.054614 0.417710 0.427754 0.771211 0.471445
0.833814 0.025723 0.373707 -0.110862 -0.990454 -0.081921
0.274795 0.076281 0.075869 0.000000 0.000000 1.000000
0.665452 0.112971 0.160697 0.001430 0.995972 -0.089658
0.390370 0.104658 0.279059 -0.042080 0.332262 0.942248
0.674280 0.112971 0.275008 -0.009583 0.999037 0.042819
0.386780 0.117453 0.175068 0.181775 0.538247 -0.822951
0.228151 0.053832 0.084147 -0.257163 -0.769614 -0.584432
0.298560 0.066889 0.272932 -0.046173 -0.277935 0.959490
0.257774 0.044001 0.200175 -0.030601 -0.984382 -0.173364
0.158512 0.081332 0.187495 -0.150379 0.064056 -0.986551
0.227784 0.058555 0.369059 0.000000 0.000000 1.000000
0.037512 0.048455 0.111261 -0.977320 0.035753 -0.208726
0.267087 0.134345 0.025382 -0.196012 -0.900136 0.389017
0.188016 0.093195 0.361319 -0.870824 0.289301 -0.397456
0.695386 0.043171 0.206951 0.011091 -0.996449 -0.083463
0.273190 0.052295 0.360789 -0.572938 0.257189 -0.778201
0.267738 0.075986 0.078764 -0.148477 -0.259086 0.954374
0.308255 0.077026 0.078092 -0.931473 0.153141 -0.330008
0.695499 0.116008 0.210950 0.054342 0.598379 -0.799368
0.811238 0.089352 0.108524 0.912571 0.380759 0.149118
0.286193 0.124800 0.038285 -0.549121 -0.803353 0.230412
0.224099 0.093257 0.345945 -0.651180 0.694448 0.306114
0.500835 0.043171 0.226542 -0.064428 -0.977491 -0.200900
0.408694 0.043461 0.237721 -0.016603 -0.996234 0.085102
0.715052 0.043171 0.186116 0.068858 -0.986369 -0.149447
0.046352 0.053174 0.346312 -0.454928 0.884368 0.104564
0.516839 0.063978 0.300194 -0.984502 -0.000226 0.175373
0.582860 0.112971 0.157503 -0.028098 0.998349 -0.050095
0.884443 0.119825 0.363908 0.725585 0.664252 -0.179713
0.502679 0.173416 0.249330 -0.825121 0.009966 0.564868
0.224789 0.044001 0.244843 -0.036138 -0.979713 0.197120
0.250910 0.051888 0.052051 0.085692 -0.994963 0.052010
0.279378 0.105575 0.287437 -0.384271 -0.828681 -0.406970
0.416880 0.055241 0.165766 -0.076374 -0.856554 -0.510375
0.195910 0.061851 0.419552 -0.719576 -0.498353 0.483584
0.267655 0.042091 0.360801 -0.206866 -0.250753 -0.945690
0.880129 0.080030 0.200835 0.000000 0.000000 1.000000
0.814668 0.030456 0.062603 0.389437 0.920960 -0.013098
0.751064 0.098956 0.113203 0.760436 -0.076417 -0.644901
0.249364 0.076728 0.417851 -0.226575 0.809758 -0.541254
0.804704 0.090400 0.308457 -0.165141 -0.984961 -0.050793
0.789444 0.113027 0.357984 -0.743527 0.624141 -0.240031
0.612016 0.112971 0.265532 -0.032271 0.997559 0.061920
0.276433 0.095087 0.082262 0.717865 0.496471 -0.488044
0.326685 0.066391 0.274073 -0.055829 -0.313562 0.947925
0.503765 0.210525 0.241185 -0.057241 0.881655 0.468410
0.840271 0.092381 0.176321 0.258175 -0.299384 -0.918540
0.277781 0.130597 0.405126 0.414858 0.886203 0.206245
0.273030 0.088065 0.075869 0.000000 0.000000 1.000000
0.785583 0.055748 0.407307 -0.820353 -0.530120 0.214462
0.733147 0.043171 0.315759 0.137106 -0.976619 0.165581
0.816591 0.068896 0.084410 0.636812 -0.770980 0.007769
0.571361 0.112971 0.253209 -0.048570 0.996801 0.063465
0.606273 0.043171 0.318907 -0.076420 -0.959333 0.271734
0.634768 0.043171 0.125589 -0.061318 -0.962838 -0.263026
0.781509 0.098166 0.348705 -0.864562 0.381613 -0.326962
0.264582 0.074707 0.075869 0.000000 0.000000 1.000000
0.847315 0.093848 0.142950 0.643275 -0.757416 0.111883
0.478025 0.046596 0.282825 0.086186 -0.936104 0.341001
0.130225 0.064740 0.073715 0.000000 0.000000 1.000000
0.920612 0.132260 0.125300 0.025973 -0.999663 0.000000
0.503406 0.112971 0.212043 -0.007539 0.999718 -0.022502
0.787922 0.111198 0.365364 -0.791809 0.586554 -0.170273
0.804485 0.108187 0.284847 0.327453 0.022453 0.944601
0.198466 0.095532 0.025372 0.649303 0.079642 0.756348
0.243008 0.044001 0.194692 -0.033270 -0.977611 -0.207775
0.398719 0.132103 0.268369 -0.664114 -0.741903 0.092377
0.858687 0.134892 0.061077 -0.289083 -0.957303 0.001148
0.821550 0.066309 0.177898 0.379036 -0.500929 -0.778076
0.409622 0.043171 0.178466 -0.051534 -0.980576 -0.189247
0.235565 0.044001 0.210312 -0.034464 -0.996263 -0.079194
0.398616 0.100514 0.250003 0.428713 0.371741 -0.823416
0.634117 0.189393 0.235194 0.225245 0.570769 0.789612
0.742759 0.043171 0.217728 0.275432 -0.958235 -0.076962
0.431500 0.043463 0.201278 0.003105 -0.995847 -0.090986
0.748903 0.112971 0.333817 0.080977 0.988301 0.129246
0.836648 0.068129 0.084953 0.000000 0.000000 1.000000
0.523269 0.043171 0.227603 -0.149962 -0.972041 0.180686
0.613138 0.043171 0.261210 -0.071431 -0.993548 0.088087
0.223748 0.096880 0.267535 -0.084173 0.107089 0.990680
0.875688 0.036303 0.082894 -0.503496 0.837768 -0.211274
0.055503 0.054305 0.253622 -0.102915 0.994511 0.018889
0.510579 0.156534 0.248495 -0.179747 0.094676 0.979146
0.725770 0.089767 0.351078 0.233434 -0.286532 0.929198
0.505618 0.043171 0.227318 -0.065842 -0.976718 -0.204174
0.581813 0.043171 0.170383 -0.104112 -0.984391 -0.141901
0.723803 0.112971 0.203953 0.048218 0.998699 -0.016571
0.223633 0.124245 0.191472 -0.144539 0.838644 -0.525151
0.263665 0.107562 0.048689 0.478464 0.870218 0.117445
0.847214 0.076261 0.403003 -0.177280 -0.062497 0.982174
0.506829 0.183733 0.248931 0.009811 0.189158 0.981898
0.212556 0.125933 0.210350 -0.176669 0.974172 -0.140634
0.304589 0.110095 0.178219 -0.861127 0.465983 0.203275
0.766819 0.043171 0.139425 0.500968 -0.812412 -0.298359
0.565493 0.113725 0.193509 0.061872 0.739982 -0.669775
0.741628 0.051167 0.345544 0.315847 -0.887577 0.335332
0.838382 0.111326 0.390619 0.018256 -0.994073 0.107170
0.242625 0.052095 0.396379 0.161324 0.979926 0.117131
0.186472 0.080603 0.068997 0.968010 -0.026030 -0.249558
0.830118 0.113070 0.203668 0.045398 0.995622 -0.081705
0.311447 0.137081 0.215215 -0.053302 0.998080 -0.031557
0.524633 0.189570 0.201527 0.083469 0.185162 -0.979157
0.287084 0.126447 0.183045 -0.066297 0.574982 -0.815475
0.407098 0.107100 0.250153 0.264124 0.330541 -0.906080
0.266843 0.105387 0.373731 -0.493624 -0.813178 -0.308346
0.722955 0.112971 0.122687 0.062228 0.991720 -0.112337
0.863002 0.029740 0.078226 -0.313723 0.935034 -0.165195
0.471054 0.111547 0.198537 -0.484755 0.253124 0.837222
0.399772 0.081666 0.170545 -0.117767 -0.529543 -0.840069
0.486181 0.101450 0.171416 0.309981 0.385503 -0.869080
0.221426 0.056139 0.025357 -0.595972 -0.439601 0.671988
0.753266 0.043171 0.149134 0.412951 -0.882451 -0.225281
0.669899 0.131612 0.237212 0.059498 0.129618 0.989777
0.432945 0.073264 0.228536 0.239640 0.951902 -0.190931
0.080786 0.066858 0.249730 -0.220971 0.114867 0.968492
0.717111 0.051601 0.098832 0.081561 -0.870301 -0.485720
0.891812 0.052015 0.350468 0.745053 -0.592045 -0.307211
0.710720 0.130415 0.212667 0.031434 0.139852 -0.989673
0.238224 0.050821 0.419576 0.302761 0.782062 0.544715
0.875824 0.113429 0.346861 0.509794 0.210036 -0.834263
0.903308 0.127674 0.276351 0.447712 0.894178 0.000000
0.871994 0.083743 0.348085 -0.885058 -0.166351 -0.434742
0.433236 0.043171 0.271712 -0.084825 -0.866555 0.491820
0.374760 0.093861 0.170330 -0.189372 0.079117 -0.978713
0.445641 0.043171 0.199867 -0.066788 -0.983890 -0.165833
0.942629 0.079878 0.120928 0.000000 0.000000 1.000000
0.859322 0.105157 0.043289 0.598108 0.767560 0.230473
0.189794 0.044001 0.214741 -0.052933 -0.994732 -0.087790
0.580708 0.071166 0.110024 -0.201065 -0.653894 -0.729380
0.553932 0.043171 0.229067 -0.108333 -0.989769 0.092847
0.735608 0.112971 0.124334 0.081721 0.992294 -0.093134
0.243690 0.072072 0.085979 -0.016594 0.106389 -0.994186
0.960862 0.085279 0.321689 0.000000 0.000000 1.000000
0.051294 0.047408 0.249944 -0.058675 -0.998270 0.003873
0.570835 0.073913 0.338791 -0.238035 -0.545902 0.803325
0.475948 0.097438 0.245246 -0.640160 0.499615 -0.583592
0.719530 0.097129 0.098744 0.224979 -0.120637 -0.966867
0.187730 0.071795 0.398409 -0.976500 -0.214725 0.018441
0.186675 0.083802 0.082575 0.911453 -0.124042 -0.392259
0.442846 0.048503 0.284157 0.041598 -0.870178 0.490979
0.387981 0.056364 0.282813 -0.094914 -0.662070 0.743407
0.829407 0.092442 0.281064 0.316472 -0.290111 0.903151
0.868352 0.095611 0.061582 0.864420 0.502727 -0.006657
0.086185 0.050446 0.185335 0.604808 0.790443 -0.096990
0.872047 0.083370 0.055487 0.995575 0.051427 0.078643
0.734259 0.105547 0.101185 0.365354 0.023450 -0.930573
0.555811 0.202656 0.240628 0.135140 0.585750 0.799146
0.713604 0.112971 0.189766 0.039144 0.998113 -0.047305
0.133248 0.040434 0.072852 0.000000 0.000000 1.000000
0.254670 0.051352 0.270978 -0.035613 -0.794785 0.605845
0.860471 0.067032 0.127631 -0.302745 -0.951282 -0.058374
0.212016 0.126904 0.044984 0.573964 -0.807666 0.135061
0.755711 0.043171 0.300946 0.438346 -0.878658 0.189244
0.582295 0.043171 0.122756 -0.101996 -0.957155 -0.271018
0.266353 0.057250 0.360794 -0.545440 0.672165 -0.500689
0.613917 0.112971 0.153384 -0.018231 0.997277 -0.071452
0.408630 0.043461 0.189193 -0.019382 -0.987083 -0.159034
0.292470 0.103920 0.295033 -0.519631 -0.751752 -0.406019
0.590065 0.140350 0.205386 0.081161 0.187375 -0.978930
0.207748 0.039100 0.367109 -0.644179 -0.697230 -0.314491
0.356532 0.083951 0.274832 -0.132542 0.018994 0.990995
0.416565 0.043171 0.167893 -0.053493 -0.954618 -0.292990
0.870387 0.098723 0.096628 0.631497 0.566443 -0.529484
0.496430 0.065013 0.158258 -0.107972 -0.584854 -0.803920
0.372260 0.144952 0.211975 0.090920 0.986858 -0.133584
0.741047 0.112971 0.161896 0.090869 0.994783 -0.046366
0.080898 0.048620 0.129738 0.040510 -0.996335 -0.075342
0.893944 0.055710 0.061746 -0.872381 0.488774 -0.007161
0.477535 0.114290 0.207499 -0.782395 0.402681 0.475084
0.886938 0.116826 0.354232 0.767608 0.580405 -0.271862
0.277258 0.100186 0.025355 0.730008 0.312293 0.607916
0.828956 0.109559 0.411506 0.222273 -0.907128 0.357369
0.293938 0.117843 0.410732 0.662615 0.692117 0.286208
0.936391 0.132320 0.321689 0.000000 0.000000 1.000000
0.066752 0.048044 0.252236 0.023943 -0.999656 0.010684
0.911872 0.176324 0.321689 0.000000 0.000000 1.000000
0.202781 0.044001 0.185883 -0.049651 -0.946816 -0.317921
0.270056 0.132193 0.084105 -0.406801 -0.811772 -0.418973
0.303897 0.116771 0.268650 0.301016 0.884045 0.357566
0.639103 0.043171 0.235612 -0.051900 -0.998481 0.018470
0.250603 0.137622 0.049381 -0.030167 -0.996756 0.074617
0.545800 0.190704 0.203786 0.089935 0.248482 -0.964452
0.793800 0.105943 0.346868 -0.541694 0.528973 -0.653265
0.593473 0.112971 0.328734 -0.052265 0.988655 0.140817
0.489653 0.043464 0.229947 0.409593 -0.896281 -0.170043
0.366884 0.099337 0.172509 -0.167089 0.133353 -0.976882
0.652324 0.112971 0.149631 -0.005358 0.995377 -0.095900
0.092077 0.049733 0.173587 0.426141 -0.902740 -0.058854
0.688333 0.087377 0.354692 0.004166 -0.327210 0.944942
0.687096 0.043171 0.158311 -0.002498 -0.979324 -0.202282
0.286571 0.083734 0.271491 -0.042094 0.010640 0.999057
0.514814 0.112971 0.241506 -0.015856 0.999524 0.026461
0.529608 0.086388 0.127610 -0.337113 -0.351704 -0.873303
0.750863 0.132651 0.211446 0.081023 0.466040 -0.881046
0.509750 0.205281 0.243637 -0.000789 0.715721 0.698386
0.148421 0.040623 0.072852 0.000000 0.000000 1.000000
0.119425 0.063576 0.362458 -0.351852 0.935200 -0.040026
0.693804 0.112971 0.247540 0.006177 0.999981 -0.000160
0.612783 0.112971 0.311591 -0.039758 0.992687 0.113985
0.816798 0.060250 0.387054 0.685634 0.725122 0.064070
0.251365 0.059580 0.177095 -0.061765 -0.584788 -0.808831
0.820607 0.043170 0.206396 0.353013 -0.934972 -0.034755
0.216433 0.089813 0.031673 -0.850089 0.347735 0.395512
0.546718 0.112971 0.293869 -0.042492 0.992583 0.113903
0.269972 0.118610 0.181146 -0.070254 0.421526 -0.904091
0.665135 0.043171 0.144136 -0.028286 -0.973067 -0.228782
0.846551 0.025823 0.083558 -0.048667 0.976073 -0.211927
0.847111 0.068374 0.104236 0.207499 0.341401 -0.916727
0.132710 0.071946 0.378220 0.000000 0.000000 1.000000
0.807055 0.096928 0.158359 -0.613103 -0.787812 -0.058804
0.035465 0.048838 0.194069 -0.999377 0.031512 -0.015893
0.469935 0.043171 0.191431 -0.067919 -0.937950 -0.340053
0.689553 0.043171 0.227353 0.006134 -0.999553 -0.029245
0.456980 0.043464 0.258533 0.042509 -0.987837 0.149568
0.551204 0.206045 0.239943 0.127926 0.675356 0.726312
0.866080 0.055612 0.196913 0.232889 -0.502777 -0.832453
0.355927 0.071128 0.172831 -0.122950 -0.156679 -0.979967
0.140441 0.108275 0.208019 -0.314053 0.931083 -0.185619
0.087302 0.084997 0.244659 -0.389600 0.743199 0.543936
0.720819 0.112971 0.148017 0.055448 0.994782 -0.085644
0.697880 0.112971 0.149165 0.024602 0.992381 -0.120726
0.848307 0.112971 0.179008 0.030184 0.991023 -0.130236
0.868906 0.068607 0.041588 0.829707 -0.492965 0.261863
0.505896 0.152061 0.249256 -0.441970 0.107745 0.890536
0.283014 0.133382 0.251003 -0.063188 0.987301 0.145755
0.749379 0.043171 0.258382 0.370335 -0.928001 0.040812
0.796897 0.113096 0.181778 0.067215 0.990740 -0.117967
0.869298 0.034424 0.096570 -0.345886 0.855246 -0.385897
0.216979 0.071956 0.409758 0.901079 0.253642 0.351743
0.477230 0.105125 0.276606 0.044323 0.428047 0.902669
0.956484 0.143785 0.238959 0.515553 -0.856354 0.029365
0.812788 0.108885 0.025622 -0.279387 0.660045 0.697340
0.188183 0.068622 0.075353 0.929816 0.171154 -0.325804
0.725680 0.043171 0.277657 0.111259 -0.990764 0.077509
0.353823 0.084901 0.173793 -0.116700 0.021577 -0.992933
0.365757 0.062893 0.277341 -0.176892 -0.503523 0.845680
0.235106 0.079142 0.355331 0.054585 -0.064781 0.996406
0.246484 0.137846 0.410725 -0.072818 0.959112 0.273498
0.899178 0.068412 0.051494 -0.969812 0.223041 0.098578
0.088325 0.048924 0.089808 0.060884 -0.992943 -0.101776
0.242400 0.092472 0.075869 0.000000 0.000000 1.000000
0.642681 0.112971 0.183697 -0.013320 0.998599 -0.051209
0.246047 0.051679 0.061802 -0.022373 -0.990757 -0.133794
0.910208 0.161189 0.194594 0.094103 -0.995562 0.000000
0.758459 0.112971 0.211116 0.125532 0.992011 -0.012501
0.298437 0.071545 0.025372 -0.646573 -0.053915 0.760944
0.682499 0.067567 0.354620 0.001991 -0.718154 0.695882
0.209391 0.052721 0.274423 -0.389286 -0.917366 0.083045
0.536547 0.112971 0.191564 -0.018891 0.999546 -0.023469
0.638244 0.043171 0.116730 -0.058866 -0.957070 -0.283815
0.107663 0.093971 0.246544 -0.358818 0.796536 0.486601
0.304407 0.061533 0.048394 -0.927969 0.361035 0.092342
0.374848 0.043464 0.253302 -0.079439 -0.979891 0.183036
0.419156 0.100109 0.168137 0.040209 0.332030 -0.942411
0.502333 0.116874 0.195332 -0.612496 0.474348 -0.632331
0.964493 0.186409 0.241139 0.640309 -0.768117 0.000000
0.258146 0.087666 0.097351 0.095515 -0.949243 0.299690
0.156990 0.060267 0.377435 0.000000 0.000000 1.000000
0.590268 0.057447 0.108335 -0.144830 -0.842766 -0.518430
0.049559 0.054110 0.265121 -0.235230 0.971518 0.028645
0.548400 0.114171 0.193901 0.067419 0.679978 -0.730126
0.824408 0.041198 0.346852 -0.323628 0.101052 -0.940773
0.254818 0.065879 0.035663 0.213805 -0.319201 0.923254
0.757344 0.096792 0.123675 0.799864 -0.110786 -0.589868
0.702865 0.043171 0.218675 0.030784 -0.997879 -0.057351
0.883754 0.042334 0.376349 0.679031 -0.731657 -0.059965
0.850878 0.109448 0.386193 -0.329628 -0.942859 0.048610
0.830348 0.113068 0.203210 0.045195 0.995516 -0.083092
0.208025 0.126731 0.225002 -0.188394 0.982087 0.003721
0.655794 0.043171 0.324235 -0.025534 -0.971593 0.235275
0.929792 0.160972 0.309249 0.121901 -0.992542 0.000000
0.041435 0.051601 0.126651 -0.381750 0.919760 -0.091147
0.286379 0.098286 0.360793 -0.198014 -0.443746 -0.874002
0.192166 0.076233 0.025377 0.875994 0.278538 0.393766
0.358215 0.043464 0.236333 -0.065869 -0.995582 0.066919
0.857366 0.065280 0.139900 0.668972 -0.739629 -0.073661
0.846548 0.115592 0.025618 0.362506 0.740055 0.566487
0.063674 0.054065 0.297425 0.029513 0.998887 0.036791
0.499511 0.150849 0.217057 -0.991590 0.040185 -0.123025
0.369921 0.065435 0.169833 -0.182763 -0.408323 -0.894354
0.811508 0.066671 0.082903 -0.781963 -0.553375 -0.286899
0.842043 0.039670 0.417823 0.288341 0.171247 0.942090
0.519606 0.112971 0.156614 -0.099850 0.977853 -0.183940
0.719838 0.043171 0.248938 0.089923 -0.995905 0.009318
0.162028 0.052161 0.186052 -0.105615 -0.692440 -0.713703
0.750063 0.112140 0.241482 -0.020106 0.885930 0.463383
0.265403 0.056579 0.412356 -0.417598 0.816984 0.397680
0.612849 0.112318 0.254708 0.039874 0.900450 0.433128
0.656775 0.182633 0.217211 0.283867 0.747657 -0.600357
0.598897 0.100319 0.106307 -0.202534 -0.091810 -0.974962
0.740157 0.112971 0.132728 0.094585 0.992341 -0.079449
0.152555 0.044001 0.187274 -0.053450 -0.950236 -0.306910
0.230202 0.044001 0.231848 -0.034271 -0.994027 0.103612
0.239002 0.054639 0.369059 0.000000 0.000000 1.000000
0.847015 0.114247 0.229566 0.164714 0.953765 0.251400
0.069160 0.048140 0.282858 0.061067 -0.997044 0.046636
0.081482 0.084028 0.241519 -0.412313 0.832936 0.369074
0.509215 0.210488 0.237532 -0.024720 0.926486 0.375516
0.818422 0.103884 0.391660 0.604495 -0.786622 0.125744
0.786650 0.112971 0.244516 0.092381 0.995417 0.024701
0.859527 0.091135 0.095853 0.036128 -0.329659 0.943409
0.898567 0.096984 0.352810 0.933981 0.207680 -0.290771
0.254083 0.082966 0.411451 0.600516 0.572950 0.557772
0.780940 0.096899 0.402464 -0.952349 0.235215 0.194179
0.621220 0.043171 0.320734 -0.061089 -0.965450 0.253327
0.259046 0.136597 0.066089 -0.203141 -0.966621 -0.156135
0.544504 0.180182 0.202632 0.086403 0.135235 -0.987039
0.581294 0.043171 0.191264 -0.105595 -0.991387 -0.077465
0.904425 0.124947 0.321689 0.000000 0.000000 1.000000
0.269396 0.093719 0.351310 -0.614011 0.789030 -0.020565
0.609489 0.043171 0.309659 -0.073636 -0.967960 0.240063
0.507048 0.112971 0.222567 -0.007823 0.999806 -0.018098
0.179410 0.044001 0.193511 -0.053318 -0.962842 -0.264751
0.287507 0.123871 0.075518 -0.645589 -0.708237 -0.285685
0.952816 0.169507 0.255199 0.479230 -0.877689 0.000000
0.382203 0.091407 0.233125 0.884308 0.407550 -0.227820
0.106118 0.056342 0.179112 0.242589 -0.970086 -0.009159
0.766122 0.081779 0.313820 0.748873 -0.358652 0.557277
0.029508 0.049448 0.231818 -0.724069 0.617708 0.306857
0.678496 0.043171 0.117238 -0.015304 -0.954973 -0.296296
0.195040 0.109265 0.084103 0.719474 -0.560153 -0.410592
0.643385 0.043171 0.170569 -0.051933 -0.986922 -0.152602
0.227579 0.058174 0.370463 0.499138 0.787050 -0.362510
0.714500 0.043171 0.112418 0.059606 -0.942152 -0.329845
0.069236 0.048144 0.258965 0.044987 -0.998736 0.022434
0.923231 0.131845 0.190390 0.048478 -0.998824 0.000000
0.898436 0.129461 0.195156 0.998730 -0.050374 0.000000
0.274340 0.131911 0.074380 -0.446520 -0.854037 -0.266909
0.050792 0.054445 0.154934 -0.139324 0.989539 -0.037447
0.795945 0.096817 0.096600 -0.040449 -0.391963 -0.919091
0.255762 0.070845 0.369059 0.000000 0.000000 1.000000
0.195146 0.124050 0.213613 -0.228971 0.968301 -0.099829
0.854873 0.055061 0.362486 -0.468973 0.845963 -0.253792
0.521848 0.043171 0.307650 -0.196827 -0.871958 0.448272
0.305579 0.107571 0.269914 -0.047254 0.229551 0.972149
0.848659 0.082587 0.334396 0.174211 -0.969005 -0.175156
0.811986 0.090160 0.105018 0.980595 -0.026578 0.194233
0.219895 0.069853 0.078764 0.137488 0.473796 0.869836
0.228735 0.084798 0.075869 0.000000 0.000000 1.000000
0.256538 0.128005 0.025372 0.116612 -0.622192 0.774131
0.224443 0.085995 0.079860 0.137014 -0.358394 0.923461
0.757067 0.112113 0.247848 0.008169 0.992609 0.121080
0.958322 0.173430 0.132591 0.300484 -0.508154 0.807148
0.075499 0.048395 0.074520 -0.011619 -0.993287 -0.115090
0.101043 0.055728 0.194476 -0.172113 -0.295909 -0.939582
0.554623 0.043171 0.137162 -0.106317 -0.976436 -0.187800
0.408671 0.054181 0.284437 -0.140493 -0.520484 0.842234
0.043377 0.047196 0.376010 -0.079415 -0.992143 0.096673
0.730658 0.152619 0.228189 0.364506 0.807978 0.462934
0.414817 0.118870 0.265662 0.074771 0.851302 0.519321
0.272031 0.131561 0.250571 -0.083764 0.965081 0.248197
0.224523 0.098315 0.075869 0.000000 0.000000 1.000000
0.528731 0.114771 0.194894 0.080018 0.609655 -0.788618
0.257674 0.084609 0.085979 -0.507284 -0.806655 -0.303266
0.401445 0.112971 0.264334 -0.042348 0.980716 0.190793
0.908325 0.132869 0.132075 0.077617 -0.996983 0.000000
0.744624 0.089907 0.107373 0.608220 -0.245175 -0.754956
0.461523 0.072297 0.224033 -0.517232 0.855736 0.013666
0.819516 0.134380 0.054583 0.324705 -0.943800 0.061717
0.110980 0.047383 0.192783 -0.107326 -0.836962 -0.536634
0.252129 0.131257 0.212853 -0.106791 0.986792 -0.121806
0.698184 0.112971 0.128284 0.028074 0.988940 -0.145633
0.272255 0.065558 0.079059 -0.201751 0.049771 0.978171
0.939490 0.135192 0.317158 0.281157 -0.959662 0.000000
0.229090 0.027944 0.033667 0.215089 0.934668 0.283078
0.571972 0.112971 0.260305 -0.050109 0.996184 0.071463
0.092947 0.049652 0.348854 0.479891 -0.840532 0.251415
0.674276 0.112971 0.217268 -0.001838 0.999652 -0.026317
0.766694 0.124128 0.238813 0.062195 0.479254 0.875470
0.846857 0.067611 0.266583 0.296148 -0.609970 0.735006
0.818823 0.043904 0.025630 -0.306822 0.049575 0.950475
0.357208 0.092738 0.274097 -0.130638 0.101305 0.986241
0.970666 0.191555 0.215517 0.639371 -0.766991 0.054122
0.275341 0.098162 0.025352 0.750152 0.397092 0.528763
0.691618 0.064249 0.096239 0.006981 -0.740834 -0.671652
0.745785 0.098122 0.342704 0.618880 -0.127296 0.775102
0.053420 0.051845 0.244920 -0.282698 -0.146749 0.947917
0.414131 0.046944 0.283656 -0.007550 -0.901980 0.431713
0.298392 0.050493 0.048283 -0.820830 0.563517 0.093204
0.674025 0.104551 0.353869 -0.052452 0.001382 0.998622
0.849561 0.066073 0.343442 0.111454 0.967616 0.226491
0.676106 0.043171 0.259980 -0.006550 -0.998237 0.058985
0.602680 0.104653 0.105544 -0.188514 -0.017915 -0.981907
0.962053 0.109550 0.120928 0.000000 0.000000 1.000000
0.837073 0.113002 0.191410 0.039413 0.992508 -0.115648
0.103668 0.062311 0.073715 0.000000 0.000000 1.000000
0.855103 0.065434 0.089196 0.894003 0.448041 0.004233
0.808079 0.129669 0.385302 -0.495232 0.868291 0.028570
0.083242 0.048710 0.299912 0.166459 -0.981728 0.092199
0.941990 0.182224 0.321689 0.000000 0.000000 1.000000
0.571139 0.112971 0.219525 -0.042628 0.998780 0.024945
0.048874 0.047306 0.211021 -0.088365 -0.995802 -0.023857
0.777267 0.050769 0.301015 0.446161 -0.772581 0.451729
0.808003 0.076070 0.365439 0.940507 0.237202 -0.243273
0.266826 0.059491 0.364743 -0.273287 0.955786 -0.108573
0.462726 0.060007 0.164502 0.080710 -0.424957 -0.901608
0.220553 0.031204 0.410325 -0.348535 -0.896552 0.273346
0.142884 0.109795 0.229072 -0.302664 0.951901 0.047732
0.233799 0.136307 0.061556 0.189669 -0.977277 -0.094633
0.801665 0.113158 0.216115 0.068596 0.996286 -0.052038
0.869823 0.102557 0.346831 -0.455394 -0.661980 -0.595315
0.282108 0.133157 0.204013 -0.080377 0.975411 -0.205214
0.647062 0.112971 0.291373 -0.023201 0.996922 0.074883
0.499821 0.163732 0.236437 -0.969350 0.016732 0.245114
0.576328 0.043171 0.271222 -0.110256 -0.977539 0.179616
0.897289 0.099828 0.073473 -0.940321 -0.316289 -0.125532
0.278405 0.072287 0.060183 0.944020 -0.310823 -0.110526
0.497128 0.054274 0.158254 -0.093764 -0.716271 -0.691494
0.869208 0.130875 0.382013 0.453285 0.891361 -0.002935
0.862686 0.062322 0.190732 -0.403689 -0.913354 -0.053096
0.530029 0.160296 0.246708 0.090152 0.110075 0.989826
0.185823 0.092110 0.184803 -0.137222 0.103953 -0.985070
0.248879 0.097032 0.407794 0.000000 -0.484161 0.874979
0.600560 0.043171 0.120812 -0.087972 -0.957356 -0.275191
0.852752 0.026575 0.410984 0.254910 -0.929481 0.266621
0.242867 0.124844 0.084127 -0.354257 -0.201148 -0.913259
0.270877 0.060574 0.401370 -0.643358 0.734324 0.216471
0.849854 0.048462 0.258908 0.287052 -0.767365 0.573369
0.498132 0.197725 0.221915 -0.999956 0.008934 0.002778
0.213628 0.083806 0.360777 0.813938 0.069584 -0.576770
0.589015 0.043171 0.157263 -0.096317 -0.977575 -0.187269
0.127522 0.044001 0.241694 -0.060396 -0.968674 0.240878
0.085918 0.048823 0.202065 0.116040 -0.993242 -0.002428
0.574776 0.112971 0.293866 -0.055771 0.992495 0.108825
0.284316 0.101941 0.419567 -0.449345 -0.052662 0.891805
0.270002 0.029417 0.067791 -0.303252 0.935535 -0.181145
0.671218 0.043171 0.326527 -0.007384 -0.973021 0.230596
0.085617 0.048814 0.142743 0.072464 -0.995391 -0.062820
0.610672 0.043171 0.313995 -0.072201 -0.965364 0.250719
0.752895 0.043171 0.129770 0.405699 -0.870504 -0.278625
0.426818 0.048006 0.164120 -0.065578 -0.897649 -0.435804
0.922221 0.160341 0.263294 0.007297 -0.999973 0.000000
0.091743 0.049791 0.287628 0.620058 -0.762864 0.183210
0.250612 0.051022 0.075869 0.000000 0.000000 1.000000
0.663740 0.043171 0.319689 -0.016639 -0.975585 0.218990
0.805975 0.113209 0.254094 0.069804 0.995770 0.059748
0.619682 0.112971 0.152412 -0.016496 0.996990 -0.075751
0.395828 0.121752 0.211213 0.404393 -0.671378 -0.621062
0.099212 0.054695 0.352318 -0.300404 0.953255 -0.032599
0.274925 0.092083 0.350307 0.805019 0.415329 0.423609
0.164883 0.062977 0.073715 0.000000 0.000000 1.000000
0.283166 0.126942 0.396777 0.535797 0.838969 0.095144
0.533768 0.112971 0.269404 -0.031528 0.995586 0.088401
0.916711 0.091911 0.200835 0.000000 0.000000 1.000000
0.654603 0.180860 0.213626 0.214348 0.545036 -0.810549
0.821467 0.056947 0.055129 -0.548077 -0.832872 0.077048
0.082046 0.048662 0.276665 0.142460 -0.987592 0.066091
0.427193 0.057422 0.284452 0.009275 -0.568017 0.822965
0.453324 0.043171 0.218748 -0.070442 -0.996679 -0.040847
0.256577 0.136897 0.407456 0.085073 0.968448 0.234245
0.489822 0.084158 0.171566 0.739621 0.082145 -0.667992
0.265178 0.066504 0.271614 -0.048654 -0.288016 0.956389
0.803440 0.086904 0.096625 -0.806344 -0.047344 -0.589549
0.870518 0.072195 0.406202 -0.868953 0.380896 0.315972
0.707396 0.112971 0.156301 0.036062 0.994571 -0.097609
0.920488 0.132280 0.238626 0.000675 -1.000000 0.000000
0.227103 0.028703 0.056367 0.318852 0.947565 -0.021324
0.268633 0.050409 0.360787 -0.466647 0.474689 -0.746265
0.352028 0.043464 0.224092 -0.056157 -0.997724 -0.037335
0.869515 0.093021 0.094183 0.786134 0.454899 -0.418401
0.113322 0.059704 0.343459 -0.341473 0.938720 -0.046914
0.825039 0.108063 0.067705 -0.440916 0.893395 -0.086246
0.521637 0.056957 0.130792 -0.181168 -0.911502 -0.369245
0.648526 0.112971 0.101899 -0.000274 0.988624 -0.150406
0.888204 0.115305 0.029747 -0.685830 -0.661946 0.302430
0.497582 0.043171 0.292893 -0.052594 -0.958099 0.281566
0.686306 0.043601 0.355033 0.011907 -0.955730 0.294005
0.125982 0.099666 0.253659 -0.291585 0.615448 0.732258
0.706205 0.130324 0.235803 0.037330 0.114126 0.992765
0.944296 0.109068 0.120928 0.000000 0.000000 1.000000
0.459790 0.112971 0.187498 -0.005708 0.998923 -0.046046
0.240709 0.124693 0.419562 -0.374951 0.128914 0.918037
0.899066 0.067628 0.399869 0.960499 -0.214204 0.177646
0.221349 0.098793 0.035517 -0.697049 0.619173 0.361589
0.803155 0.043170 0.244358 0.318430 -0.923602 0.213454
0.235895 0.072751 0.362546 0.059479 0.046262 -0.997157
0.730098 0.156110 0.223818 0.408052 0.912634 -0.024348
0.745092 0.112971 0.306552 0.073165 0.991847 0.104336
0.924802 0.131774 0.185367 0.085172 -0.996366 0.000000
0.588240 0.043171 0.226344 -0.098567 -0.994918 0.020574
0.358257 0.079350 0.275474 -0.140476 -0.026203 0.989737
0.844451 0.113814 0.234625 0.146659 0.938488 0.312621
0.676669 0.108411 0.096499 0.005384 0.060094 -0.998178
0.925147 0.114661 0.200835 0.000000 0.000000 1.000000
0.750487 0.043171 0.146648 0.369549 -0.899538 -0.232950
0.267994 0.098328 0.075869 0.000000 0.000000 1.000000
0.813700 0.047927 0.097018 0.000000 0.000000 -1.000000
0.088486 0.048930 0.078476 0.056723 -0.992349 -0.109667
0.651516 0.112971 0.160960 -0.006958 0.996593 -0.082187
0.635433 0.048070 0.099869 -0.075544 -0.916650 -0.392486
0.560513 0.112971 0.324568 -0.054876 0.987747 0.146095
0.523284 0.043171 0.200734 -0.131903 -0.987503 0.086253
0.387024 0.043464 0.172094 -0.061818 -0.961311 -0.268440
0.736414 0.114349 0.237516 0.001523 0.882509 0.470292
0.431012 0.043171 0.219574 -0.059915 -0.996757 0.053723
0.486593 0.043171 0.250747 -0.061506 -0.997683 0.029072
0.171773 0.051347 0.262978 -0.078721 -0.782531 0.617614
0.813479 0.093782 0.340921 0.237005 0.970922 0.033740
0.819645 0.081053 0.282608 0.321808 -0.426294 0.845407
0.229418 0.044001 0.258122 -0.031898 -0.951171 0.307010
0.472148 0.073618 0.198125 -0.359201 0.721165 0.592365
0.804865 0.119068 0.207793 0.138878 0.895919 -0.421950
0.827505 0.096944 0.358501 0.000000 0.000000 1.000000
0.751258 0.112137 0.241704 -0.022052 0.893094 0.449328
0.040790 0.051415 0.158493 -0.416011 0.906466 -0.072481
0.288096 0.039530 0.025633 -0.646710 0.657876 0.385960
0.280734 0.053264 0.115041 -0.672347 0.690112 0.267759
0.415072 0.043171 0.200873 -0.053790 -0.997900 -0.036073
0.477991 0.102056 0.228789 -0.889145 0.436317 -0.138014
0.206140 0.099362 0.419563 -0.110014 -0.303264 0.946535
0.635154 0.112971 0.337569 -0.032979 0.990365 0.134497
0.658789 0.043171 0.141275 -0.035573 -0.971739 -0.233361
0.749782 0.064701 0.339898 0.547591 -0.692893 0.469089
0.490367 0.080920 0.158673 -0.123049 -0.347690 -0.929500
0.824415 0.130175 0.346874 -0.037126 0.853974 -0.518990
0.637532 0.067207 0.099280 -0.099596 -0.708897 -0.698244
0.665226 0.043171 0.207903 -0.023365 -0.997255 -0.070266
0.783592 0.102804 0.353678 -0.843710 0.456224 -0.282864
0.579352 0.176983 0.205313 0.084619 0.133486 -0.987432
0.607295 0.043171 0.175832 -0.081224 -0.986868 -0.139623
0.410353 0.075456 0.215059 0.429646 0.879293 0.205542
0.712136 0.112971 0.215646 0.033017 0.999283 -0.018506
0.511083 0.100795 0.293957 -0.145249 -0.025973 0.989054
0.754350 0.112971 0.244821 0.106025 0.993981 0.027575
0.238549 0.052758 0.025706 -0.304949 -0.818953 0.486130
0.779735 0.072831 0.402998 -0.969410 -0.222836 0.102903
0.351516 0.136452 0.255618 -0.145548 0.905054 0.399615
0.221275 0.064280 0.408823 0.778683 0.519533 0.351765
0.066502 0.047252 0.247638 -0.126609 -0.783148 0.608810
0.941503 0.164283 0.316886 0.309028 -0.951053 0.000000
0.516831 0.099752 0.310334 -0.952771 -0.000219 0.303691
0.197643 0.049534 0.404332 -0.758147 -0.622531 0.194082
0.781976 0.063778 0.410086 -0.898739 -0.402395 0.174200
0.393220 0.092728 0.198079 0.369525 0.521371 0.769171
0.342330 0.067353 0.274771 -0.075009 -0.285755 0.955363
0.540452 0.043171 0.262127 -0.133068 -0.961978 0.238517
0.819533 0.100864 0.358501 0.000000 0.000000 1.000000
0.494095 0.047611 0.187397 0.503743 -0.303970 -0.808607
0.751792 0.121525 0.238551 -0.047685 0.258510 0.964831
0.864355 0.084517 0.358501 0.000000 0.000000 1.000000
0.500895 0.165005 0.249478 -0.807062 0.041251 0.589025
0.755928 0.058279 0.121618 0.599649 -0.681583 -0.419364
0.640335 0.112971 0.105064 -0.005435 0.989795 -0.142395
0.545951 0.043171 0.241476 -0.107699 -0.983157 0.147659
0.247039 0.072227 0.386876 -0.652816 -0.629720 -0.421050
0.516837 0.073146 0.309268 -0.996571 -0.000229 0.082740
0.725709 0.112971 0.170995 0.057477 0.997027 -0.051321
0.826644 0.043170 0.212435 0.363859 -0.930599 -0.039896
0.545789 0.043171 0.315238 -0.151487 -0.906618 0.393822
0.895149 0.086590 0.340399 -0.179579 -0.502796 0.845546
0.849929 0.093910 0.172569 0.259519 0.952072 -0.161890
0.749472 0.043171 0.210265 0.368825 -0.925941 -0.081244
0.476285 0.112800 0.240552 -0.696880 0.404408 -0.592294
0.490092 0.078216 0.267804 0.729364 0.032855 0.683337
0.840584 0.051278 0.346818 -0.106893 0.898656 -0.425432
0.467709 0.043171 0.266569 -0.066817 -0.958076 0.278613
0.619887 0.112971 0.335055 -0.040164 0.989669 0.137628
0.590280 0.043171 0.259383 -0.095887 -0.988102 0.120250
0.782759 0.062035 0.082909 0.917757 0.307072 -0.251851
0.592741 0.064396 0.343479 -0.148932 -0.712729 0.685447
0.231116 0.082685 0.083855 -0.074145 0.964685 -0.252754
0.212893 0.083984 0.360779 0.797171 0.087439 -0.597388
0.195054 0.110339 0.055426 0.839406 -0.543413 -0.010025
0.237264 0.053249 0.082926 -0.184609 -0.859528 -0.476583
0.269857 0.044001 0.203436 -0.028361 -0.987730 -0.153577
0.855837 0.091400 0.087037 0.682272 -0.730974 0.013480
0.387869 0.083885 0.198094 0.379796 0.590313 0.712240
0.721983 0.043171 0.266638 0.098167 -0.993755 0.053046
0.236612 0.045060 0.360789 -0.005587 0.607712 -0.794138
0.269838 0.104081 0.075869 0.000000 0.000000 1.000000
0.099564 0.060169 0.194782 -0.174000 -0.068178 -0.982383
0.500345 0.188941 0.225238 0.828526 0.259685 0.496092
0.294874 0.133352 0.249859 -0.074698 0.965596 0.249088
0.569008 0.124804 0.245889 0.081245 0.373242 0.924170
0.434975 0.073212 0.287167 -0.148482 -0.296547 0.943405
0.426779 0.055550 0.286374 -0.127072 -0.590464 0.796998
0.590550 0.112971 0.240240 -0.038690 0.998390 0.041476
0.254038 0.067040 0.271187 -0.054921 -0.280652 0.958237
0.837945 0.078172 0.041567 -0.137888 0.048610 0.989254
0.288996 0.103572 0.178430 -0.048779 0.200614 -0.978455
0.259319 0.117674 0.419569 -0.323467 -0.510569 0.796674
0.926207 0.116811 0.120928 0.000000 0.000000 1.000000
0.504974 0.209977 0.211454 -0.045544 0.793601 -0.606731
0.489692 0.063739 0.179764 0.923747 -0.269445 -0.272197
0.721051 0.112971 0.107429 0.061992 0.989112 -0.133471
0.689591 0.043171 0.256141 0.008589 -0.998980 0.044330
0.679864 0.112971 0.156405 0.011597 0.994667 -0.102488
0.812218 0.115275 0.096602 -0.381856 -0.218210 -0.898092
0.948896 0.167309 0.321689 0.000000 0.000000 1.000000
0.296842 0.114354 0.363930 0.780010 0.512932 -0.358448
0.642348 0.112971 0.152356 -0.009996 0.996056 -0.088165
0.786108 0.112971 0.220840 0.089192 0.995672 -0.026126
0.606996 0.103837 0.345833 -0.212046 0.001383 0.977259
0.313091 0.129208 0.262308 -0.084543 0.729001 0.679272
0.197909 0.113769 0.372756 -0.737482 0.628387 -0.247486
0.794294 0.118853 0.372298 -0.698346 0.708594 -0.101032
0.811283 0.067170 0.079844 -0.805552 -0.537132 -0.250149
0.046742 0.053263 0.289744 -0.326113 0.944706 0.034367
0.787218 0.043171 0.214898 0.360998 -0.931390 -0.046839
0.499325 0.141747 0.210752 -0.954777 0.052525 -0.292648
0.311677 0.123718 0.268380 -0.056113 0.440145 0.896172
0.712242 0.095510 0.097682 0.154276 -0.150691 -0.976469
0.395561 0.133561 0.186031 -0.733825 -0.580401 0.353038
0.674228 0.043171 0.123649 -0.019573 -0.959761 -0.280136
0.898531 0.157179 0.208073 0.948696 0.316189 0.000000
0.748495 0.105807 0.341059 0.650700 0.005264 0.759317
0.658630 0.155450 0.210504 0.081091 0.124617 -0.988886
0.645840 0.112971 0.343780 -0.029282 0.990160 0.136841
0.265918 0.131348 0.084109 -0.365111 -0.786670 -0.497840
0.499132 0.131795 0.215302 -0.999969 0.001610 -0.007765
0.261973 0.108208 0.385026 -0.397872 -0.911928 -0.100431
0.699665 0.043171 0.278850 0.024934 -0.994877 0.097965
0.367814 0.043464 0.195293 -0.078165 -0.979983 -0.183096
0.267866 0.098731 0.322627 -0.168841 0.946307 0.275672
0.294161 0.078201 0.176105 -0.045158 -0.025897 -0.998644
0.866065 0.043171 0.250499 0.297994 -0.814925 0.497088
0.550121 0.190797 0.204204 0.089983 0.256802 -0.962266
0.894937 0.057919 0.087830 -0.829095 0.492645 -0.264390
0.457022 0.070801 0.201587 -0.233148 0.761489 0.604795
0.839898 0.102576 0.032230 0.000000 0.489807 0.871831
0.782896 0.101254 0.030957 0.913125 -0.286441 0.290095
0.227119 0.031579 0.025379 0.178420 0.867013 0.465248
0.419380 0.043171 0.249014 -0.085938 -0.920356 0.381522
0.741061 0.112971 0.200068 0.082083 0.996618 -0.003921
0.399615 0.043462 0.268079 -0.028902 -0.971978 0.233290
0.681299 0.043171 0.312355 0.003378 -0.981937 0.189180
0.547935 0.102782 0.330017 -0.316727 0.063571 0.946384
0.397352 0.043171 0.242139 -0.111428 -0.878522 0.464524
0.457402 0.072446 0.229941 -0.421647 0.897496 -0.129282
0.220350 0.131702 0.363218 -0.324552 0.876575 -0.355363
0.259353 0.136560 0.367240 0.231289 0.923835 -0.305017
0.273014 0.093832 0.178014 -0.052283 0.092348 -0.994353
0.306885 0.067433 0.076187 -0.897720 0.319269 -0.303589
0.305592 0.080169 0.419550 0.862520 0.125755 0.490147
0.283829 0.111797 0.419927 0.000000 0.000000 1.000000
0.626489 0.112971 0.150435 -0.014355 0.996545 -0.081807
0.077204 0.048470 0.162135 0.035843 -0.997935 -0.053301
0.878071 0.124996 0.038309 -0.539423 -0.812407 0.221401
0.351675 0.138639 0.240639 -0.160973 0.971654 0.173138
0.855690 0.089752 0.337737 -0.845082 -0.519974 -0.124356
0.659450 0.130842 0.209980 0.063880 0.206244 -0.976413
0.235228 0.077552 0.355331 0.052846 -0.005595 0.998587
0.228607 0.119844 0.084129 -0.306308 -0.079264 -0.948627
0.838709 0.119172 0.346838 0.204439 -0.659044 -0.723786
0.618449 0.105626 0.347987 -0.189356 0.027146 0.981533
0.257895 0.066902 0.075869 0.000000 0.000000 1.000000
0.250744 0.072943 0.381150 -0.288504 -0.873450 -0.392238
0.801717 0.125168 0.356950 -0.527192 0.813723 -0.244792
0.539034 0.043171 0.315181 -0.165404 -0.894294 0.415788
0.875208 0.085448 0.095853 -0.049221 -0.291518 0.955298
0.855094 0.090790 0.338907 -0.975411 -0.194590 -0.103475
0.401398 0.066911 0.164821 -0.068575 -0.182309 -0.980847
0.120384 0.040943 0.378220 0.000000 0.000000 1.000000
0.047143 0.067103 0.221488 -0.603106 0.794067 -0.075629
0.271714 0.030070 0.373908 0.318232 -0.921182 -0.223945
0.701770 0.114265 0.208541 0.045083 0.734938 -0.676634
0.564614 0.112971 0.319505 -0.056197 0.988591 0.139750
0.386854 0.043464 0.252940 -0.049921 -0.986775 0.154215
0.489287 0.066093 0.169234 0.676079 -0.137823 -0.723825
0.899925 0.073643 0.349304 0.918121 -0.227340 -0.324609
0.145060 0.045146 0.378220 0.000000 0.000000 1.000000
0.784135 0.053993 0.155792 0.442666 -0.760480 -0.475097
0.193100 0.102538 0.025380 0.857076 -0.269008 0.439381
0.514947 0.132304 0.250245 0.025568 0.302531 0.952796
0.086496 0.050409 0.192831 0.651877 0.753804 -0.082673
0.209527 0.107085 0.280596 -0.979564 -0.005242 0.201064
0.337087 0.137094 0.228712 -0.098933 0.993072 0.063403
0.453717 0.043464 0.175619 0.029977 -0.963043 -0.267675
0.873778 0.034952 0.403050 0.560394 -0.804309 0.197599
0.275650 0.036245 0.419552 0.496716 -0.684468 0.533645
0.618977 0.112604 0.195341 0.045875 0.863528 -0.502211
0.219790 0.098850 0.266920 -0.090415 0.124994 0.988029
0.048889 0.053893 0.223019 -0.230455 0.973083 -0.000813
0.851620 0.112038 0.358501 0.000000 0.000000 1.000000
0.900621 0.078524 0.086599 -0.959040 0.123351 -0.255005
0.143595 0.082072 0.073715 0.000000 0.000000 1.000000
0.207061 0.115858 0.257729 -0.412962 0.860825 0.297395
0.680630 0.112971 0.196202 0.005735 0.998463 -0.055118
0.508709 0.173311 0.199536 0.014367 0.107904 -0.994058
0.575117 0.205542 0.216895 0.153347 0.890706 -0.427933
0.930791 0.161145 0.207626 0.196871 -0.980429 0.000000
0.232840 0.136190 0.375858 -0.180247 0.963964 -0.195662
0.599182 0.079516 0.344566 -0.186892 -0.451637 0.872408
0.483184 0.094076 0.279540 0.159862 0.162555 0.973663
0.851034 0.082570 0.351766 0.999777 -0.003126 0.020889
0.858778 0.062817 0.349950 0.587652 -0.806280 0.067662
0.849941 0.091350 0.157334 0.193472 0.967455 -0.163091
0.222372 0.046852 0.360798 -0.174571 0.253406 -0.951478
0.228868 0.105722 0.404469 0.490768 -0.828170 0.270705
0.874121 0.091931 0.417837 -0.837410 -0.075717 0.541305
0.597877 0.043171 0.271085 -0.087424 -0.985754 0.143685
0.941207 0.135837 0.151989 0.374069 -0.927379 0.006365
0.555802 0.180763 0.244770 0.093880 0.147319 0.984624
0.056483 0.047624 0.308147 -0.005073 -0.998886 0.046923
0.941569 0.081313 0.321689 0.000000 0.000000 1.000000
0.899334 0.156983 0.200323 0.913554 0.406717 0.000000
0.546854 0.112971 0.152768 -0.018467 0.997558 -0.067362
0.363148 0.073074 0.276972 -0.168458 -0.127043 0.977488
0.701190 0.043171 0.297627 0.031347 -0.989134 0.143634
0.584361 0.059513 0.109435 -0.157569 -0.820828 -0.549010
0.093033 0.049639 0.315588 0.482511 -0.853642 0.196158
0.677108 0.043171 0.238968 -0.007142 -0.999963 0.004774
0.721516 0.112971 0.307969 0.021686 0.995075 0.096725
0.942817 0.104517 0.321689 0.000000 0.000000 1.000000
0.765528 0.112106 0.243128 -0.052897 0.930822 0.361624
0.463584 0.098447 0.167720 0.106484 0.317942 -0.942112
0.940329 0.135507 0.192995 0.349110 -0.937082 0.000000
0.582969 0.112971 0.151691 -0.027021 0.998023 -0.056741
0.234723 0.061604 0.075869 0.000000 0.000000 1.000000
0.528350 0.207564 0.209156 0.093053 0.735463 -0.671145
0.866719 0.131825 0.084131 -0.454568 -0.863315 -0.219215
0.216692 0.032773 0.073135 0.505938 0.825184 -0.251195
0.422614 0.114338 0.272626 0.024081 0.736516 0.675992
0.654258 0.112971 0.304233 -0.021455 0.996002 0.086716
0.825125 0.043170 0.203344 0.366120 -0.910222 -0.193524
0.561939 0.043171 0.160562 -0.109745 -0.984843 -0.134313
0.248211 0.108524 0.369059 0.000000 0.000000 1.000000
0.384308 0.043464 0.272052 -0.053442 -0.963509 0.262285
0.215629 0.052780 0.147553 0.443368 0.891304 0.094881
0.900020 0.156169 0.321689 0.000000 0.000000 1.000000
0.283236 0.097048 0.122416 -0.873417 -0.264921 0.408607
0.281312 0.093521 0.329894 0.089973 -0.968857 -0.230695
0.871556 0.073867 0.348566 -0.096343 0.172537 -0.980280
0.233720 0.044001 0.196268 -0.034932 -0.981597 -0.187744
0.852640 0.099321 0.266020 0.955257 0.286711 0.072672
0.867726 0.043171 0.208903 0.295664 -0.716207 -0.632163
0.074977 0.052351 0.081221 0.191103 0.973538 -0.125316
0.094012 0.053608 0.349478 -0.292670 0.955766 -0.029250
0.043791 0.060831 0.236355 -0.599724 0.642589 0.476876
0.590345 0.112971 0.316853 -0.051846 0.990328 0.128693
0.815424 0.061874 0.094623 0.389524 0.887686 0.245531
0.811345 0.067033 0.394963 0.864014 0.473383 0.171429
0.754761 0.043171 0.265728 0.432421 -0.896509 0.096355
0.344813 0.080858 0.174071 -0.078629 -0.010097 -0.996853
0.648661 0.043171 0.322791 -0.033975 -0.971041 0.236486
0.432818 0.071397 0.284731 0.013200 -0.033248 0.999360
0.822951 0.120126 0.226682 0.185142 0.968097 0.168852
0.189529 0.091287 0.084105 0.844523 -0.283572 -0.454278
0.291455 0.100876 0.025369 -0.110436 -0.491503 0.863845
0.265935 0.027864 0.373634 0.227530 -0.947229 -0.225803
0.842901 0.111115 0.362642 -0.037362 -0.967893 -0.248570
0.851376 0.076619 0.348566 0.054628 -0.004318 -0.998497
0.822656 0.051013 0.084953 0.000000 0.000000 1.000000
0.547771 0.101080 0.120705 -0.303375 -0.067591 -0.950471
0.405322 0.110231 0.172591 -0.145738 0.097733 -0.984484
0.489578 0.100905 0.172207 0.429432 0.342625 -0.835581
0.436865 0.101112 0.284973 -0.164892 0.170801 0.971410
0.289150 0.104841 0.309723 0.531265 0.742664 0.407686
0.282762 0.107494 0.171416 0.130009 0.923483 -0.360939
0.290536 0.071053 0.084132 0.290835 0.117854 -0.949487
0.176286 0.044001 0.253012 -0.049926 -0.963629 0.262539
0.074409 0.048352 0.287683 0.099332 -0.993114 0.062104
0.298083 0.053766 0.281880 -0.784034 -0.536223 -0.312659
0.873410 0.122569 0.417808 0.360004 0.798907 0.481814
