0.149531 0.179213 0.193060 0.769050 -0.538165 0.344877
0.176702 0.133922 0.466127 0.015504 -0.999874 0.003548
0.485767 0.139554 0.143792 -0.078038 -0.123268 -0.989300
0.413477 0.295856 0.896902 0.189743 0.864599 -0.465260
0.267637 0.138393 0.773992 -0.069960 0.979788 0.187408
0.409617 0.159378 0.112707 0.091949 0.936506 0.338382
0.321487 0.265027 0.911117 -0.976607 -0.045325 0.210202
0.509539 0.049962 0.790107 -0.009625 0.785775 0.618437
0.394427 0.138461 0.194387 0.148009 -0.986015 0.076603
0.136665 0.159699 0.056426 -0.142605 -0.788443 -0.598349
0.528900 0.085107 0.798611 -0.941386 -0.171890 -0.290253
0.250863 0.136408 0.668339 -0.192508 -0.980439 0.040993
0.205250 0.189717 0.802388 -0.285328 -0.949475 0.130711
0.179280 0.133536 0.330673 -0.006176 -0.999980 0.001226
0.345337 0.171340 0.037565 -0.141021 -0.930248 -0.338749
0.337798 0.287826 0.923323 0.884216 0.462309 0.066570
0.427720 0.164771 0.085701 0.111109 0.969997 0.216243
0.487850 0.188448 0.204344 -0.969318 0.243233 -0.035500
0.424402 0.186851 0.255963 0.945355 0.219642 0.240959
0.207340 0.142608 0.143351 0.062550 -0.202649 -0.977252
0.524409 0.189058 0.803829 -0.142492 -0.880564 0.451999
0.306670 0.159058 0.680474 -0.208737 0.977813 -0.017614
0.117544 0.212523 0.229719 0.009285 -0.972222 -0.233876
0.356237 0.167583 0.779471 0.916123 -0.228306 0.329537
0.422520 0.130343 0.153323 -0.845794 -0.134795 -0.516201
0.495442 0.189337 0.260149 -0.919794 -0.241701 -0.309128
0.136675 0.146683 0.602227 -0.976990 0.178589 -0.116602
0.226212 0.156439 0.435768 -0.983414 -0.181359 -0.002224
0.234575 0.224566 0.853842 -0.888151 -0.420246 0.185960
0.533072 0.065142 0.847155 0.763871 0.641809 -0.067688
0.319290 0.136408 0.521275 0.051776 -0.998659 0.000000
0.131173 0.092423 0.797114 -0.485990 -0.436073 -0.757400
0.039598 0.156683 0.770481 -0.624385 0.386718 -0.678670
0.391396 0.097557 0.838795 0.314285 -0.932803 -0.176363
0.358991 0.225453 0.669671 0.740846 0.667834 0.071733
0.418354 0.282377 0.873819 0.193144 0.870877 -0.451960
0.241249 0.246787 0.878332 -0.999119 -0.032659 -0.026358
0.195369 0.184701 0.436475 -0.956916 0.051184 -0.285818
0.355789 0.229425 0.752921 0.598828 0.593011 0.538278
0.398997 0.147683 0.115188 0.061239 -0.997959 0.018089
0.344566 0.206437 0.760529 -0.752941 0.544390 -0.369756
0.241249 0.259881 0.910649 -0.975969 -0.100858 0.193163
0.112512 0.086214 0.179559 0.403771 -0.793080 -0.456063
0.548941 0.315246 0.971749 -0.145331 -0.577434 0.803398
0.273252 0.087575 0.805296 -0.002799 -0.754030 -0.656833
0.166439 0.133903 0.459697 0.000316 -0.999996 0.002839
0.441510 0.108862 0.796133 0.233374 0.146209 0.961332
0.109060 0.203112 0.818020 -0.033892 0.965768 -0.257183
0.172746 0.269591 0.847265 0.216037 -0.890699 0.399979
0.415908 0.286060 0.879639 0.191110 0.869429 -0.455599
0.366353 0.213961 0.209168 0.997624 0.027591 -0.063124
0.055139 0.114161 0.751477 0.032549 -0.019785 -0.999274
0.376507 0.159522 0.197166 -0.810313 0.396992 -0.431034
0.214367 0.217061 0.601851 -0.287683 0.956106 -0.055676
0.431023 0.098862 0.256058 0.250372 0.736336 -0.628588
0.106551 0.084887 0.919372 -0.008546 0.365043 -0.930951
0.487572 0.214615 0.189111 0.160733 0.918241 -0.361937
0.229426 0.204805 0.961449 -0.767015 0.639377 0.053704
0.210342 0.288658 0.850275 0.091648 0.791602 -0.604125
0.141070 0.161793 0.595102 -0.958497 0.261236 -0.114188
0.201142 0.142160 0.763261 -0.306009 0.881934 0.358540
0.530324 0.198064 0.806832 0.468046 0.812850 -0.346709
0.429391 0.192647 0.160604 -0.745698 0.426699 -0.511724
0.343325 0.159058 0.647371 -0.570369 0.821196 -0.017780
0.354702 0.230524 0.751526 0.555875 0.592014 0.583543
0.244307 0.240642 0.674816 0.604625 -0.615567 0.505476
0.524157 0.163363 0.861277 -0.138471 0.909184 0.392697
0.100853 0.112837 0.208348 0.808854 -0.573659 -0.129117
0.143078 0.122372 0.193418 0.983385 0.136890 0.119228
0.438732 0.134001 0.194062 -0.999549 0.014362 0.026378
0.239173 0.280958 0.744110 -0.256584 0.961730 0.096129
0.287164 0.233792 0.501496 -0.010990 -0.921770 0.387581
0.340674 0.264626 0.739299 0.660338 0.750916 -0.008877
0.048607 0.158529 0.881790 0.918275 0.276761 0.283150
0.263155 0.163349 0.652920 -0.143738 -0.794061 0.590599
0.336318 0.136408 0.561910 0.286995 -0.957932 0.000000
0.516871 0.104170 0.795180 -0.673790 -0.160778 -0.721220
0.173278 0.167033 0.047209 -0.055767 -0.621948 -0.781070
0.214986 0.098868 0.801114 -0.230676 -0.972497 -0.032226
0.487413 0.260769 0.861559 0.213812 0.846897 -0.486878
0.509095 0.131445 0.928055 0.029052 0.179127 0.983397
0.332201 0.201304 0.661154 0.974287 0.193763 -0.114984
0.424409 0.187602 0.851698 0.930706 0.361531 0.055521
0.478851 0.157977 0.238701 -0.999809 0.001981 0.019429
0.279332 0.184777 0.215611 -0.000425 0.978879 -0.204441
0.242466 0.261930 0.778153 0.377665 0.868005 0.322392
0.244307 0.279957 0.740820 0.996972 -0.070819 0.032118
0.461843 0.078050 0.218250 0.806967 -0.589289 0.039272
0.074577 0.204619 0.828602 -0.512035 0.847050 -0.142574
0.060631 0.032907 0.809532 0.045173 -0.925683 -0.375594
0.417407 0.168948 0.497269 0.172188 0.981439 -0.084427
0.341695 0.155374 0.871232 0.117842 0.770080 0.626969
0.266328 0.115624 0.827305 -0.248346 -0.842457 -0.478112
0.335227 0.136408 0.314604 0.239854 -0.970809 -0.000220
0.235500 0.112278 0.740692 -0.105070 -0.890393 -0.442900
0.474285 0.278609 0.895798 -0.197215 -0.863493 0.464205
0.353997 0.155146 0.098160 -0.026871 -0.996484 -0.079358
0.334376 0.293769 0.622651 0.078402 -0.996553 -0.027121
0.346347 0.173247 0.050215 0.095724 0.976168 0.194762
0.135934 0.064182 0.836441 -0.183210 -0.979874 -0.079255
0.461842 0.335817 0.963240 0.201439 0.626028 -0.753333
0.495114 0.202671 0.217057 0.892478 -0.450443 -0.024158
0.376876 0.105105 0.872357 0.152771 -0.987369 0.041994
0.456514 0.123924 0.279498 -0.135978 -0.342696 0.929553
0.316939 0.167969 0.661744 -0.007577 0.961465 -0.274825
0.199403 0.182016 0.197407 -0.070105 0.389564 -0.918327
0.194040 0.209343 0.632059 -0.448987 0.893538 0.000732
0.339482 0.264626 0.758152 0.177326 0.966061 -0.187834
0.346169 0.177250 0.600205 -0.687486 0.707100 0.165449
0.514177 0.147219 0.836572 -0.999942 -0.006076 0.008845
0.150763 0.093355 0.759506 -0.016012 -0.268500 -0.963147
0.196329 0.133593 0.350546 0.211038 -0.977424 0.010267
0.286834 0.231938 0.481099 -0.085957 0.859378 -0.504064
0.128513 0.052282 0.787102 -0.026301 0.758977 0.650586
0.141962 0.031066 0.872657 -0.046760 -0.938235 0.342824
0.101996 0.283296 0.900557 -0.202336 0.865281 -0.458637
0.191767 0.159793 0.114923 -0.097078 0.950125 0.296375
0.447989 0.125984 0.861092 -0.997573 0.032588 0.061524
0.351924 0.100119 0.774099 0.219789 -0.939472 -0.262840
0.342833 0.264782 0.561492 0.734856 -0.649283 0.196006
0.337818 0.247564 0.887379 0.998065 -0.010703 0.061248
0.168898 0.133516 0.323757 -0.132177 -0.990827 -0.028110
0.478916 0.199214 0.834721 0.003810 -0.996647 0.081730
0.422744 0.092955 0.200560 -0.933520 0.349178 0.081335
0.224951 0.172767 0.342918 -0.996014 -0.088614 -0.010150
0.110167 0.167470 0.283203 0.090096 0.268866 0.958954
0.428296 0.152300 0.168921 -0.954474 -0.038594 0.295788
0.228278 0.156532 0.245019 0.995860 0.060034 -0.068259
0.480282 0.135267 0.216462 -0.993777 0.109919 -0.018031
0.383034 0.203896 0.501197 0.325795 0.940113 -0.100223
0.041989 0.075365 0.772881 0.437688 0.435453 0.786645
0.225136 0.214139 0.404570 -0.817508 0.567464 -0.098313
0.288685 0.356673 0.943597 0.000539 -0.731871 0.681443
0.051773 0.065923 0.835723 -0.003419 -0.994125 -0.108185
0.115897 0.082845 0.206646 0.013111 0.992837 0.118754
0.129163 0.113284 0.924802 -0.030366 0.026105 -0.999198
0.493229 0.047102 0.793960 -0.011849 0.819637 0.572761
0.381239 0.156889 0.221257 -0.137471 0.730728 0.668684
0.443551 0.177586 0.155582 0.005025 -0.444786 0.895623
0.231071 0.187251 0.570413 0.997685 0.067912 -0.003654
0.045959 0.196068 0.845413 0.274605 -0.959719 -0.059420
0.217774 0.274365 0.838014 0.413886 -0.696773 0.585837
0.153275 0.164732 0.168239 -0.942751 0.103364 -0.317075
0.243441 0.339487 0.923116 0.053164 -0.796412 0.602413
0.353501 0.142708 0.462122 0.724174 -0.689617 -0.000324
0.378740 0.136662 0.288092 -0.000217 -0.999997 -0.002455
0.346169 0.196008 0.721467 -0.786789 0.601922 -0.136578
0.520449 0.198753 0.871807 -0.042503 0.932987 0.357391
0.064909 0.105728 0.826562 0.989892 0.079781 0.117253
0.441861 0.169162 0.195947 0.997708 0.044972 -0.050556
0.294429 0.136408 0.394335 0.006974 -0.999976 0.000000
0.427402 0.085996 0.804937 -0.959975 -0.172069 -0.221000
0.156065 0.192992 0.872264 0.577478 0.758815 0.301197
0.379095 0.184668 0.398102 0.451281 0.889123 -0.076199
0.328686 0.081230 0.874828 0.028412 -0.739499 0.672558
0.068229 0.039047 0.874845 0.030381 0.916820 -0.398143
0.346169 0.225516 0.671039 -0.907939 0.419066 0.005517
0.419615 0.133605 0.354486 0.196588 -0.979598 -0.041718
0.231069 0.216682 0.675020 0.694685 0.702013 0.156814
0.352863 0.136981 0.277986 0.452276 -0.891873 -0.002894
0.446945 0.072002 0.844353 -0.969135 0.246350 -0.009396
0.045140 0.188739 0.874684 0.284627 -0.866735 -0.409583
0.497098 0.153980 0.154980 0.988005 -0.020824 0.153014
0.356699 0.171783 0.635985 0.990676 -0.128320 0.045766
0.336933 0.178842 0.961612 0.099471 -0.102354 0.989762
0.365043 0.136677 0.411426 -0.341224 -0.929653 0.138963
0.494828 0.032332 0.846258 -0.013558 0.998448 -0.054013
0.116193 0.083721 0.764452 -0.013789 0.385353 0.922666
0.337952 0.208657 0.801873 0.480360 -0.051584 0.875553
0.231069 0.207718 0.635643 0.973200 0.229948 -0.002265
0.479883 0.296089 0.926057 0.204304 0.854152 -0.478210
0.514753 0.133854 0.805850 -0.967228 0.131087 -0.217456
0.132909 0.126348 0.864451 0.999178 0.018906 0.035850
0.238995 0.265608 0.821481 0.012606 0.944680 -0.327752
0.423453 0.191184 0.837931 0.996417 0.083566 0.012998
0.373459 0.159249 0.199667 -0.234742 0.814052 0.531239
0.255020 0.136408 0.535573 -0.117225 -0.993105 -0.000084
0.327517 0.290279 0.856349 -0.007199 -0.802732 0.596296
0.299245 0.295118 0.861464 0.020763 0.884399 -0.466269
0.541362 0.318094 0.972123 -0.153846 -0.577720 0.801605
0.535306 0.173241 0.821604 0.880695 -0.445227 0.161706
0.472467 0.140346 0.285330 0.116254 -0.110327 0.987073
0.430941 0.165728 0.252599 0.967243 0.126842 0.219891
0.306080 0.224821 0.809242 -0.013278 -0.611190 -0.791373
0.297658 0.279105 0.576005 -0.014786 -0.997565 0.068160
0.314620 0.068532 0.837136 0.011682 -0.994402 -0.105011
0.396283 0.158407 0.325302 0.093121 0.992601 -0.077927
0.299217 0.264251 0.733765 0.126916 -0.836946 0.532366
0.337025 0.293769 0.632759 0.094240 -0.994714 -0.040786
0.101567 0.154973 0.246798 0.948886 0.042477 0.312748
0.288674 0.136408 0.427159 -0.002099 -0.999998 -0.000002
0.360703 0.167654 0.661629 0.258699 0.948800 -0.181254
0.360844 0.139870 0.223844 -0.427366 -0.777669 0.461073
0.418076 0.133502 0.318686 0.379683 -0.921124 -0.085855
0.317376 0.156418 0.724470 0.017955 0.987892 0.154099
0.229762 0.126296 0.702177 -0.135933 -0.802834 -0.580500
0.256429 0.228713 0.673177 -0.456591 0.564315 -0.687803
0.061526 0.093372 0.813535 -0.995295 0.064768 0.072060
0.223768 0.227845 0.506973 -0.800994 0.596672 -0.048907
0.275752 0.302642 0.703574 -0.033965 0.990180 0.135610
0.379259 0.316824 0.927437 -0.325721 -0.773552 0.543621
0.466326 0.181549 0.151246 0.117213 0.465130 -0.877448
0.223962 0.228041 0.673692 -0.791208 0.609544 0.049463
0.423229 0.084936 0.904822 -0.855014 0.220502 -0.469393
0.096189 0.045785 0.887940 0.002773 0.832652 -0.553790
0.343458 0.236555 0.463305 0.126993 0.987780 -0.090354
0.484933 0.175686 0.238699 -0.445542 -0.668840 -0.595101
0.303126 0.225826 0.760529 -0.001706 0.058941 -0.998260
0.240391 0.276241 0.837235 0.192283 0.624612 -0.756893
0.454192 0.144502 0.285559 0.252646 -0.051110 0.966208
0.223639 0.244472 0.199686 0.884006 0.150179 -0.442697
0.165891 0.181031 0.650463 -0.166943 0.958484 0.231170
0.328097 0.169752 0.620385 0.561697 0.809827 0.169341
0.231071 0.158496 0.415713 0.996998 -0.056741 -0.052675
0.182515 0.198491 0.514882 -0.436860 0.896908 -0.068626
0.153507 0.153448 0.150877 -0.330193 -0.063551 0.941772
0.236140 0.258556 0.727109 -0.743370 -0.542215 0.391668
0.256212 0.294533 0.863716 0.001896 -0.805251 0.592932
0.398907 0.103428 0.831110 0.301685 -0.690484 -0.657433
0.359153 0.177881 0.264899 -0.920197 0.384621 -0.072828
0.357914 0.139660 0.428650 -0.957441 -0.268563 -0.105738
0.298964 0.109955 0.845828 0.023558 -0.988245 -0.151053
0.484893 0.131949 0.176980 -0.170382 -0.391964 -0.904065
0.513417 0.298769 0.945398 0.212087 0.785902 -0.580841
0.421591 0.049235 0.810736 -0.920694 0.357653 0.156227
0.360042 0.202174 0.773270 0.724874 -0.080129 0.684205
0.160226 0.151308 0.221775 -0.941682 0.021530 0.335814
0.243531 0.097637 0.780918 -0.070089 -0.945410 -0.318258
0.521203 0.143055 0.885890 -0.216894 0.495517 0.841083
0.146721 0.138182 0.797312 0.111543 0.459020 -0.881396
0.495872 0.203986 0.208915 0.912804 -0.406886 0.035106
0.090529 0.109242 0.267800 -0.381264 -0.566373 0.730657
0.539100 0.195690 0.865142 0.574721 0.784017 0.234546
0.059674 0.164186 0.766609 0.113372 0.551348 -0.826536
0.107592 0.096018 0.174501 0.008312 0.792966 0.609209
0.442441 0.184179 0.899994 0.178890 0.754131 0.631890
0.184055 0.311574 0.917094 -0.159408 0.857324 -0.489474
0.098987 0.139781 0.190059 -0.999138 0.017925 0.037434
0.519520 0.099778 0.823511 0.998227 -0.038058 -0.045770
0.054044 0.293671 0.940485 -0.219270 0.847771 -0.482914
0.231070 0.190136 0.610789 0.993981 0.109500 0.003545
0.231069 0.158513 0.689910 0.924531 -0.027174 0.380136
0.475578 0.217091 0.223952 0.298621 0.944222 0.138817
0.254752 0.136408 0.165844 -0.027912 -0.999365 -0.022139
0.390686 0.135468 0.537968 -0.061643 -0.998096 -0.002189
0.202960 0.190065 0.412501 -0.906783 0.305281 -0.290770
0.444971 0.144267 0.757927 -0.033291 0.311627 -0.949621
0.136287 0.088454 0.252906 0.479986 -0.748653 0.457311
0.253891 0.169305 0.617180 -0.443482 0.867882 0.223838
0.253749 0.136408 0.248227 -0.059331 -0.998181 -0.010719
0.201142 0.121175 0.741700 -0.421642 -0.742901 -0.519920
0.069632 0.071433 0.763535 0.755496 -0.325290 -0.568693
0.508753 0.291385 0.929917 0.207429 0.855053 -0.475244
0.466760 0.085485 0.926526 0.261076 -0.315809 0.912197
0.534727 0.143105 0.917226 -0.269334 -0.316584 -0.909524
0.121817 0.299285 0.921483 -0.202008 0.854282 -0.478952
0.098705 0.110339 0.155073 -0.121030 -0.532291 -0.837865
0.188886 0.159993 0.267859 -0.853535 0.513313 -0.089373
0.367160 0.095667 0.923974 0.148819 -0.961025 0.232990
0.283812 0.183260 0.763277 0.001347 -0.067496 -0.997719
0.204506 0.218664 0.864881 -0.842003 0.485847 0.234483
0.441074 0.189407 0.878625 0.134956 -0.884794 -0.446011
0.253999 0.160572 0.132649 -0.159613 0.941114 0.298042
0.052131 0.136868 0.920620 0.197721 -0.250220 -0.947785
0.242963 0.094087 0.790672 -0.070060 -0.951242 -0.300382
0.202985 0.246794 0.221267 0.274744 -0.306881 0.911230
0.514031 0.109806 0.874137 -0.999610 -0.011433 0.025480
0.320144 0.302642 0.627042 0.081811 0.980703 -0.177561
0.215909 0.234007 0.204860 -0.985141 0.012387 -0.171301
0.259727 0.271420 0.577798 -0.050454 -0.887396 0.458239
0.201455 0.351921 0.953723 -0.086111 0.676017 -0.731837
0.143583 0.029203 0.816040 0.027496 -0.956399 -0.290767
0.283744 0.239299 0.801445 -0.038290 0.987536 0.152662
0.289520 0.259687 0.554006 0.003930 -0.886918 0.461910
0.323594 0.143274 0.760581 0.015800 0.989430 0.144148
0.342901 0.172048 0.058038 0.088439 0.973821 0.209408
0.407480 0.163438 0.404550 0.112554 0.990748 -0.075831
0.349821 0.115928 0.848370 0.165095 0.985785 0.031184
0.273230 0.265042 0.821939 0.015665 0.947410 -0.319638
0.049401 0.089549 0.892765 0.923576 -0.191274 0.332297
0.530617 0.069020 0.917701 0.514705 -0.443817 0.733557
0.231069 0.213839 0.621671 0.966398 0.256868 -0.009654
0.337806 0.292718 0.747360 0.279129 0.356637 0.891570
0.366353 0.237716 0.228089 0.945206 -0.162715 0.283034
0.503881 0.150186 0.925265 0.109169 0.378271 0.919235
0.427591 0.066358 0.882710 -0.846714 0.409238 -0.339998
0.154512 0.215710 0.212482 0.715944 0.697630 -0.027130
0.071752 0.096382 0.922759 0.008575 0.231896 -0.972703
0.371092 0.186942 0.367568 0.882726 0.210681 -0.420011
0.433382 0.111035 0.891505 0.098779 0.086368 -0.991354
0.231110 0.170440 0.685944 -0.324406 0.941103 0.095315
0.112892 0.215365 0.193321 0.044491 0.953685 -0.297500
0.247294 0.103174 0.765706 -0.062406 -0.936704 -0.344515
0.128139 0.141257 0.851292 -0.995891 -0.082977 -0.036285
0.323930 0.293769 0.635989 0.058378 -0.998011 -0.023786
0.135388 0.150123 0.089098 -0.191321 -0.945471 -0.263591
0.348147 0.136408 0.769419 0.319358 -0.944906 0.071854
0.300011 0.233777 0.501466 0.014527 -0.915031 0.403123
0.220792 0.204743 0.718636 -0.955680 -0.074886 0.284724
0.393167 0.136646 0.358783 0.589990 -0.807252 0.015999
0.101439 0.117016 0.925212 -0.002989 -0.018039 -0.999833
0.371460 0.310259 0.877260 0.737575 0.519790 -0.431047
0.272936 0.151225 0.586535 -0.197431 -0.868400 -0.454865
0.133314 0.199551 0.173336 -0.014780 -0.778318 0.627696
0.508569 0.049987 0.892842 -0.003622 0.788709 -0.614756
0.223308 0.096289 0.920571 -0.119304 -0.992782 0.012289
0.232358 0.161070 0.659232 -0.513328 0.344446 -0.786035
0.332824 0.136408 0.619706 0.226983 -0.973882 0.005671
0.231071 0.202407 0.541678 0.990393 0.136604 -0.021456
0.370482 0.283622 0.874790 0.080271 -0.948177 0.307437
0.469854 0.078226 0.227465 -0.203768 -0.962429 0.179470
0.231069 0.179221 0.678100 0.987536 0.068278 0.141813
0.061967 0.027947 0.863288 -0.167550 -0.954153 0.248032
0.231072 0.198943 0.455459 0.944974 0.322845 -0.052874
0.292238 0.136408 0.362267 0.002838 -0.999996 -0.000002
0.059594 0.193267 0.870643 0.108924 -0.930829 -0.348844
0.245629 0.257450 0.544305 0.864754 -0.475334 0.162041
0.314575 0.174591 0.075073 0.208500 0.931749 0.297274
0.320094 0.146869 0.750703 0.013765 0.988841 0.148338
0.129057 0.077344 0.861360 -0.890325 -0.391282 0.232854
0.494257 0.163261 0.246788 -0.100859 -0.401459 -0.910306
0.229990 0.218399 0.551447 0.946678 0.320183 -0.035827
0.249427 0.216681 0.801873 -0.264211 0.124107 0.956447
0.492201 0.104338 0.236052 0.911350 0.367663 -0.185109
0.047864 0.194271 0.872393 -0.445640 0.822588 0.353206
0.530986 0.028771 0.860762 0.563794 -0.805376 0.183046
0.384695 0.160171 0.368244 -0.948743 0.299661 0.100451
0.372760 0.332236 0.907233 0.983875 0.119981 -0.132644
0.248669 0.149168 0.127031 0.162426 -0.963307 -0.213674
0.136813 0.134334 0.612872 -0.513432 -0.856420 -0.054150
0.199954 0.355640 0.957174 -0.054972 0.714770 -0.697196
0.337818 0.234759 0.895731 0.965779 -0.201744 0.163003
0.061264 0.105552 0.930609 -0.152567 -0.103730 0.982834
0.341769 0.269554 0.755752 0.569532 -0.786300 -0.239512
0.148665 0.129495 0.898618 -0.919259 0.108925 0.378283
0.360602 0.221280 0.545987 0.961692 0.273747 -0.014511
0.150843 0.145665 0.892981 0.902897 -0.207457 -0.376482
0.308692 0.125335 0.948758 0.003282 0.361734 -0.932276
0.296741 0.136408 0.471549 0.011142 -0.999938 0.000000
0.244812 0.214651 0.675231 -0.929275 -0.065158 0.363597
0.522307 0.108378 0.924120 -0.118015 0.085112 -0.989357
0.479152 0.120508 0.224188 -0.988245 -0.148478 0.036401
0.357912 0.177151 0.370086 -0.931213 -0.046255 -0.361528
0.329055 0.143616 0.759641 0.024039 0.989887 0.139808
0.161384 0.134346 0.617345 0.002496 -0.999996 0.001422
0.337136 0.282155 0.600295 -0.141258 -0.966658 0.213584
0.332349 0.211457 0.342705 0.012990 0.980151 -0.197826
0.371441 0.152526 0.235071 -0.050286 0.964104 -0.260720
0.059582 0.150512 0.880273 0.209028 0.640064 0.739341
0.177165 0.142673 0.177796 -0.300202 -0.934896 -0.189338
0.104615 0.179645 0.276561 0.554400 0.381761 0.739526
0.181205 0.160926 0.184327 -0.189432 0.981319 0.033598
0.138965 0.115991 0.276625 -0.763147 -0.304819 0.569817
0.280704 0.239299 0.787615 -0.023943 0.998924 0.039718
0.104281 0.122772 0.149098 0.730137 -0.252759 -0.634833
0.191630 0.145178 0.119559 0.016754 -0.990611 -0.135684
0.142862 0.159943 0.184865 0.990224 -0.055412 0.128011
0.483019 0.158944 0.248018 0.973764 -0.076014 -0.214487
0.423014 0.065941 0.776632 -0.646433 -0.456984 -0.610975
0.044628 0.182327 0.796930 0.290977 -0.803828 0.518839
0.241553 0.165656 0.654339 -0.354718 -0.698898 0.621061
0.245671 0.136408 0.171629 -0.067897 -0.996987 -0.037501
0.223484 0.180277 0.630555 -0.993802 -0.108091 0.025948
0.250127 0.192347 0.251660 -0.011227 0.979718 -0.200066
0.444971 0.130274 0.753729 -0.093556 0.159870 -0.982695
0.197555 0.133380 0.276603 0.016939 -0.999841 -0.005598
0.339418 0.132162 0.686061 0.172792 -0.884238 -0.433897
0.226047 0.184278 0.697914 0.751447 0.081613 0.654726
0.139145 0.153323 0.767886 -0.124576 -0.453528 0.882493
0.231069 0.140225 0.684554 0.849970 -0.394181 0.349533
0.151523 0.201014 0.845958 -0.235287 0.970399 0.054465
0.321064 0.271888 0.711977 0.976052 -0.203635 0.076517
0.060379 0.159992 0.840686 -0.968056 -0.250327 0.014302
0.130244 0.127794 0.849532 -0.990229 -0.120814 -0.069641
0.491766 0.195177 0.196763 -0.937992 0.326989 -0.115104
0.353363 0.231877 0.766395 0.475984 0.533321 0.699291
0.398545 0.151960 0.377269 0.997168 -0.072803 0.018880
0.337229 0.176537 0.177454 0.038868 0.978175 -0.204117
0.187040 0.133358 0.847255 -0.251398 0.935295 0.249042
0.270226 0.151225 0.610603 -0.102284 -0.985722 -0.133757
0.226419 0.116415 0.845839 -0.098091 0.994589 0.034223
0.364864 0.241778 0.199012 0.828720 0.119964 -0.546655
0.095014 0.041502 0.802540 0.004040 0.884440 0.466636
0.126906 0.209584 0.238786 -0.012304 -0.929732 -0.368031
0.223860 0.141400 0.765732 -0.225342 0.895138 0.384641
0.117369 0.189810 0.879079 -0.012225 -0.893541 -0.448815
0.243130 0.238495 0.669055 0.588523 -0.808444 0.007664
0.301575 0.244527 0.506627 -0.014626 0.880041 -0.474673
0.446788 0.032517 0.849147 0.068393 0.993512 -0.090862
0.366058 0.135058 0.553264 -0.510053 -0.860143 -0.000797
0.215279 0.136669 0.282109 0.061675 -0.998067 0.007620
0.437639 0.158202 0.249751 -0.965945 -0.058071 -0.252145
0.244750 0.256574 0.547694 -0.086067 -0.913075 0.398605
0.227264 0.125589 0.948788 -0.087935 0.306203 -0.947896
0.228252 0.136928 0.746714 -0.661752 -0.746795 0.066194
0.116382 0.190767 0.157331 0.268763 0.576150 -0.771892
0.206991 0.196245 0.437484 -0.231816 0.963889 -0.131073
0.397209 0.134033 0.505612 -0.141101 -0.989966 0.007663
0.141964 0.164133 0.175504 -0.328242 0.336925 -0.882462
0.479522 0.202439 0.817927 -0.576313 0.789586 -0.210754
0.059441 0.296937 0.944095 -0.214620 0.808365 -0.548165
0.241033 0.244812 0.720254 0.203667 -0.563157 0.800858
0.337293 0.248294 0.732251 -0.845402 -0.461885 -0.268250
0.423746 0.096685 0.233041 -0.893939 0.420563 -0.154919
0.363671 0.148681 0.120140 -0.040427 -0.999141 -0.009070
0.052495 0.097146 0.890342 0.942852 -0.144259 0.300367
0.445212 0.134376 0.627609 0.391865 -0.919039 -0.042541
0.423873 0.082134 0.770404 0.785567 0.286653 0.548374
0.124014 0.067653 0.766756 0.599577 -0.437201 -0.670345
0.398545 0.158316 0.429421 0.974757 0.075180 0.210229
0.131463 0.105578 0.271334 -0.271531 -0.573543 0.772865
0.520888 0.028407 0.824230 -0.072885 -0.975514 -0.207509
0.151747 0.113378 0.201621 -0.384161 0.870785 0.306845
0.518043 0.067785 0.824010 -0.405966 -0.850279 -0.334989
0.322070 0.293769 0.721908 0.121588 -0.987229 -0.102930
0.215495 0.148052 0.121006 0.003837 -0.999864 -0.016051
0.172274 0.177954 0.544264 -0.964607 0.242835 -0.102779
0.231069 0.151723 0.363565 0.981805 -0.087688 -0.168433
0.258336 0.237131 0.763011 0.031467 0.851170 -0.523947
0.228852 0.126817 0.948934 -0.083515 0.308469 -0.947561
0.477658 0.203214 0.831812 -0.244846 0.962800 -0.114308
0.224588 0.170239 0.623391 -0.991929 -0.126150 0.012806
0.202125 0.149628 0.129136 -0.094975 -0.989543 0.108552
0.359153 0.171099 0.382822 -0.995387 0.037049 0.088494
0.515425 0.184379 0.888479 -0.046281 -0.824681 -0.563701
0.157338 0.090826 0.201301 -0.986915 -0.155144 -0.043923
0.363156 0.161363 0.710883 0.088451 0.989043 0.118200
0.529477 0.140607 0.803322 0.179173 -0.550219 0.815571
0.041220 0.183505 0.842662 -0.834491 -0.550901 -0.011527
0.323075 0.302642 0.658180 0.072535 0.992543 -0.097967
0.261593 0.176228 0.174900 -0.074400 0.986814 -0.143743
0.337088 0.218769 0.378063 0.035966 0.982944 -0.180352
0.231070 0.224295 0.604850 0.952054 0.305280 -0.019942
0.288708 0.136408 0.603697 -0.003236 -0.999950 0.009468
0.533384 0.036969 0.804950 0.918876 -0.357132 -0.167702
0.125822 0.298433 0.918191 -0.201308 0.855756 -0.476609
0.275878 0.171200 0.071367 -0.030820 -0.926233 -0.375690
0.441629 0.095916 0.174581 0.030251 0.796508 0.603871
0.156618 0.116222 0.171527 0.890078 0.275060 0.363461
0.351237 0.174297 0.961061 0.147909 -0.093375 0.984583
0.447753 0.114401 0.751476 -0.094749 -0.010715 -0.995443
0.456120 0.268753 0.863402 0.201080 0.868620 -0.452843
0.235961 0.225589 0.484375 -0.491113 -0.855784 0.162608
0.231069 0.206790 0.669951 0.968778 0.232234 0.086817
0.337818 0.265962 0.893183 0.974589 0.223848 0.008265
0.262233 0.102001 0.889333 -0.014780 -0.999844 -0.009666
0.376770 0.196256 0.765914 0.986169 0.136102 -0.094587
0.428460 0.213046 0.195449 -0.773639 0.599850 -0.204115
0.290434 0.285522 0.731282 0.020269 0.977279 0.210985
0.526287 0.112308 0.886891 -0.223228 0.073887 -0.971962
0.493495 0.198744 0.833458 -0.012080 -0.995567 0.093274
0.235378 0.228962 0.745607 0.963745 0.266704 -0.008018
0.214705 0.198293 0.437313 -0.177161 0.975049 -0.133762
0.324042 0.230111 0.868925 -0.849199 -0.522235 -0.078308
0.392775 0.135537 0.609588 -0.047607 -0.998858 0.004097
0.346169 0.170247 0.647989 -0.657088 0.753790 0.006049
0.335923 0.136408 0.657005 0.271616 -0.962334 0.011726
0.301295 0.193894 0.259026 0.000489 0.979174 -0.203024
0.358307 0.226552 0.485750 0.833502 0.550401 -0.048309
0.336288 0.237093 0.503898 0.198619 -0.884103 0.422981
0.350877 0.156782 0.091726 -0.030248 -0.995254 -0.092495
0.360854 0.159048 0.717243 0.083180 0.989372 0.119268
0.361016 0.100874 0.772024 0.242872 -0.934559 -0.260025
0.033258 0.251208 0.873524 0.143475 -0.912290 0.383591
0.174298 0.158211 0.671929 -0.406702 0.186042 0.894417
0.159179 0.113024 0.165495 0.996176 0.059163 0.064284
0.481700 0.189795 0.802546 0.000768 -0.885348 0.464927
0.367256 0.157692 0.213905 0.663836 0.675191 0.321619
0.382370 0.094580 0.839849 0.335288 -0.934903 -0.116353
0.278559 0.297931 0.869602 -0.015635 -0.800445 0.599202
0.365753 0.288888 0.853940 -0.368484 -0.784581 0.498650
0.241167 0.174912 0.575310 -0.234283 -0.064029 -0.970058
0.357915 0.149633 0.446820 -0.966409 -0.256190 -0.020483
0.244261 0.263626 0.769305 0.652138 0.497346 0.572157
0.194442 0.207365 0.212955 -0.829200 0.115595 0.546868
0.201530 0.135389 0.424234 -0.130824 -0.990098 -0.050906
0.228032 0.162478 0.061952 0.115437 -0.966468 -0.229376
0.118998 0.040942 0.878326 -0.009982 0.895257 -0.445438
0.225078 0.165783 0.671917 -0.988902 -0.145546 0.029828
0.435523 0.149613 0.882629 0.938863 0.239604 0.247238
0.081452 0.185607 0.784280 0.135480 0.765897 -0.628527
0.310096 0.297870 0.595616 0.076909 0.927556 -0.365685
0.047641 0.090301 0.886209 -0.854987 0.265832 -0.445343
0.144374 0.090980 0.754840 0.089410 -0.260802 -0.961243
0.084178 0.126985 0.269350 -0.976162 0.084409 -0.199959
0.209925 0.134787 0.664343 0.537368 -0.702403 -0.466761
0.222430 0.136677 0.180738 0.167663 -0.961302 -0.218603
0.242252 0.244644 0.667565 0.344510 0.396170 -0.851095
0.297467 0.146564 0.751543 -0.019536 0.985826 0.166632
0.226593 0.153682 0.386171 -0.983006 -0.183554 -0.002670
0.125168 0.301710 0.929763 0.201538 -0.820389 0.535112
0.260016 0.246707 0.527687 -0.059789 -0.918782 0.390211
0.220017 0.212557 0.761554 -0.697750 0.016070 0.716161
0.335693 0.136408 0.530067 0.277152 -0.960826 0.000000
0.254668 0.278072 0.693955 -0.840926 0.450464 -0.299877
0.312562 0.174428 0.764071 -0.012990 -0.006389 -0.999895
0.377746 0.142640 0.952386 0.968633 0.224208 -0.107145
0.046187 0.176571 0.900937 0.150317 0.708788 0.689220
0.434849 0.219313 0.218286 0.221259 0.974128 0.046044
0.367822 0.214472 0.545856 0.578462 0.811334 -0.084378
0.329136 0.107323 0.860224 0.091718 -0.987316 -0.129593
0.146094 0.187616 0.162254 -0.155374 -0.595794 0.787965
0.172274 0.188663 0.649376 -0.906892 0.413022 0.083432
0.476224 0.047960 0.900119 0.843233 -0.397378 0.362008
0.250625 0.136408 0.229055 -0.057187 -0.998155 -0.020401
0.201142 0.142284 0.667799 -0.280712 -0.599596 -0.749457
0.387012 0.153533 0.256670 0.074870 0.988929 -0.128117
0.425884 0.106829 0.920612 0.396098 0.075069 -0.915134
0.304508 0.349412 0.934944 -0.123779 -0.767500 0.628986
0.214645 0.202592 0.820712 -0.025629 -0.291057 0.956362
0.075938 0.115144 0.931742 -0.199547 0.005012 0.979876
0.203946 0.151299 0.130149 -0.472637 0.009919 0.881201
0.137653 0.089664 0.920217 -0.107226 0.311452 -0.944193
0.267623 0.134981 0.678316 -0.033769 -0.803616 -0.594189
0.272892 0.136980 0.950139 -0.002268 0.338841 -0.940841
0.254412 0.164511 0.702233 -0.224759 0.958720 0.174184
0.152453 0.180331 0.897859 0.631310 0.591438 0.501646
0.235378 0.174836 0.568031 0.964673 0.244578 0.097919
0.092017 0.030059 0.814343 0.468911 -0.837150 -0.281606
0.425323 0.116973 0.169587 0.917876 -0.224869 -0.327013
0.038743 0.146586 0.906090 -0.885749 -0.193289 -0.422004
0.353405 0.141834 0.441208 0.689303 -0.724473 -0.000365
0.220592 0.221710 0.605548 -0.965765 0.259065 0.013537
0.157886 0.068927 0.894268 0.854614 0.338660 -0.393629
0.242494 0.156778 0.867128 -0.129447 0.877229 0.462291
0.410100 0.281227 0.873371 -0.214867 -0.860232 0.462420
0.375066 0.114388 0.748825 0.410041 -0.869830 -0.274339
0.100172 0.145067 0.148708 0.079496 0.048853 0.995637
0.205448 0.197355 0.815435 -0.901047 0.095243 0.423135
0.207687 0.123859 0.708872 -0.196431 -0.781446 -0.592248
0.285675 0.293769 0.632261 -0.019301 -0.999417 0.028147
0.394760 0.155491 0.148009 0.814096 0.362481 -0.453713
0.331627 0.204872 0.960783 0.412188 0.651801 -0.636598
0.145381 0.027988 0.861722 0.262713 -0.942055 0.208598
0.334234 0.253623 0.681326 -0.999091 0.002969 -0.042535
0.149141 0.144745 0.423841 -0.958580 0.264376 -0.105973
0.410283 0.161371 0.382017 0.118579 0.990071 -0.075493
0.484725 0.192792 0.794591 0.344969 0.802459 -0.486884
0.431231 0.055160 0.834765 0.910569 -0.412103 -0.032176
0.209197 0.202701 0.203096 -0.135643 -0.936277 -0.324017
0.322424 0.235131 0.553721 -0.045391 0.495567 0.867383
0.346169 0.205687 0.636811 -0.833200 0.547388 0.078389
0.523841 0.166083 0.829302 -0.146393 0.964528 -0.219670
0.194045 0.189660 0.201222 -0.836378 0.271215 -0.476355
0.274164 0.146595 0.142592 -0.069605 -0.941450 -0.329889
0.231072 0.214549 0.526069 0.975057 0.219628 -0.032056
0.091637 0.160811 0.251858 0.132302 -0.312107 -0.940790
0.204082 0.317702 0.919643 -0.133488 0.834674 -0.534323
0.442539 0.171264 0.770857 0.172191 0.602717 -0.779155
0.426363 0.205923 0.240319 0.359424 -0.857301 -0.368577
0.455508 0.183553 0.275729 0.611378 0.414393 0.674162
0.297407 0.293769 0.701489 0.032520 -0.998433 -0.045540
0.228278 0.185774 0.310211 0.925010 0.376355 -0.052092
0.093557 0.197483 0.824332 0.005618 -0.979077 0.203414
0.172274 0.182446 0.513593 -0.984008 0.022185 -0.176735
0.433562 0.130476 0.928830 -0.599202 0.129615 0.790036
0.172274 0.185704 0.570257 -0.883953 0.465621 -0.042702
0.538587 0.257127 0.877374 0.273524 0.814134 -0.512222
0.357915 0.172919 0.480524 -0.985519 -0.169486 0.005250
0.476956 0.198831 0.850097 0.005939 -0.994887 -0.100817
0.250756 0.079238 0.811353 -0.048229 -0.909022 -0.413948
0.156080 0.145257 0.148411 0.670688 -0.037036 -0.740815
0.390205 0.297172 0.889187 0.157445 0.869776 -0.467654
0.426359 0.174284 0.576978 0.454958 0.884592 -0.102519
0.381798 0.200371 0.470210 0.299657 0.947392 -0.112493
0.406046 0.305496 0.911375 0.180188 0.858405 -0.480284
0.409645 0.267741 0.845504 -0.215259 -0.881071 0.421162
0.231069 0.162249 0.366022 0.980522 -0.027733 -0.194443
0.222834 0.110073 0.878812 -0.073976 0.996542 -0.037831
0.426942 0.130051 0.259871 -0.911485 0.155682 -0.380735
0.534457 0.256154 0.873563 0.272901 0.806452 -0.524557
0.215954 0.134774 0.652843 0.103440 -0.994463 -0.018554
0.205482 0.286194 0.839411 0.307362 0.822868 -0.477930
0.434383 0.204364 0.258005 0.178437 0.779613 0.600304
0.469656 0.159890 0.920070 -0.332409 0.460160 0.823260
0.208735 0.096962 0.800420 -0.229187 -0.961623 -0.150846
0.372516 0.264660 0.816888 0.982226 0.014374 -0.187149
0.235378 0.202207 0.747103 0.853012 0.521167 -0.027483
0.130808 0.259739 0.841744 -0.262394 0.670777 -0.693691
0.353324 0.141099 0.666674 0.674514 -0.738018 0.018967
0.451768 0.101875 0.167813 0.018002 0.708251 0.705731
0.147269 0.081023 0.915172 -0.222957 0.407905 -0.885383
0.237133 0.211456 0.760529 0.286833 0.263697 -0.920973
0.172513 0.133647 0.369302 -0.006994 -0.999975 0.000995
0.488495 0.209172 0.250374 0.468969 0.763240 0.444446
0.155838 0.049740 0.868675 -0.896918 -0.408996 0.168111
0.299288 0.136408 0.571974 0.015734 -0.999876 0.000000
0.386698 0.139875 0.223953 0.035921 -0.917360 0.396435
0.158130 0.138761 0.344569 -0.971727 0.164683 -0.169190
0.432983 0.276740 0.869063 0.194621 0.873826 -0.445590
0.048356 0.038429 0.816937 0.245183 0.920756 0.303469
0.349853 0.136408 0.727070 0.418459 -0.907282 0.041602
0.407931 0.202911 0.618936 0.605462 0.795836 0.007768
0.208343 0.315838 0.897351 0.738299 0.587728 -0.330894
0.233848 0.253995 0.527076 -0.990318 0.116595 -0.075345
0.497158 0.178324 0.268648 0.985168 0.095871 0.142312
0.409723 0.263109 0.837027 -0.219945 -0.846843 0.484232
0.227887 0.140245 0.654715 -0.663189 -0.748318 0.014114
0.406911 0.328198 0.942375 0.188620 0.634175 -0.749830
0.219839 0.269820 0.834281 0.454959 -0.710720 0.536553
0.438772 0.157977 0.193588 -0.999994 -0.003302 0.000719
0.370664 0.255399 0.209370 0.479950 0.106384 -0.870822
0.442828 0.071629 0.854214 0.315800 0.911674 -0.262910
0.156693 0.110817 0.252740 0.890406 0.315898 -0.327697
0.296010 0.281296 0.754964 -0.017214 -0.737351 0.675290
0.356951 0.207251 0.192342 -0.978001 0.059214 -0.200019
0.379963 0.156974 0.394002 0.874463 -0.018322 -0.484746
0.351937 0.136408 0.553905 0.515876 -0.856663 -0.000014
0.402530 0.163469 0.094115 0.085704 0.962232 0.258388
0.375066 0.137121 0.707805 0.639884 -0.699577 -0.318025
0.441429 0.304387 0.924637 0.200072 0.851760 -0.484227
0.234442 0.290276 0.734782 -0.889909 -0.431033 -0.149240
0.543594 0.094144 0.912762 0.957969 0.097290 -0.269871
0.289847 0.349106 0.932039 -0.037333 0.755297 -0.654318
0.423406 0.054010 0.796979 0.999490 -0.009485 -0.030487
0.411593 0.133432 0.294451 0.302868 -0.949780 -0.078663
0.364259 0.147678 0.229074 -0.604022 0.605684 -0.517981
0.357272 0.176993 0.597902 0.993582 -0.113098 0.001762
0.244682 0.136408 0.191291 -0.074514 -0.996549 -0.036563
0.044716 0.195772 0.841956 0.290159 -0.956764 -0.020284
0.357915 0.181849 0.447214 -0.990753 -0.135642 -0.003224
0.315092 0.340734 0.922062 -0.109279 0.710755 -0.694900
0.427038 0.184044 0.200970 -0.295229 0.903455 -0.310819
0.223841 0.181574 0.380323 -0.995588 -0.093578 -0.006859
0.433876 0.161443 0.497495 0.936459 0.342418 -0.076117
0.334478 0.302642 0.661404 0.097072 0.988992 -0.111677
0.257581 0.257571 0.863295 0.984070 0.140186 -0.109340
0.124036 0.112702 0.153992 0.838117 -0.273581 -0.471925
0.456959 0.083458 0.227073 0.006021 0.981180 -0.192999
0.437993 0.178445 0.198745 -0.981701 -0.174081 0.077198
0.459980 0.082687 0.205640 -0.001035 0.991323 0.131448
0.382480 0.289913 0.877596 -0.253027 -0.851444 0.459369
0.369329 0.327920 0.910469 -0.984016 0.130377 -0.121303
0.157180 0.212701 0.205347 0.679687 0.726842 -0.098620
0.453276 0.117853 0.871192 0.999177 0.003759 -0.040379
0.135589 0.118057 0.841641 -0.263177 0.952923 0.150586
0.431568 0.065724 0.909627 -0.470304 -0.496149 0.729829
0.231071 0.212802 0.568344 0.975576 0.218684 -0.020710
0.270224 0.096677 0.783556 0.002197 -0.954270 -0.298937
0.310868 0.222050 0.760529 -0.002471 0.034012 -0.999418
0.045674 0.142083 0.899822 0.896766 0.176514 0.405775
0.346169 0.159668 0.580097 -0.587796 0.791030 0.169611
0.346169 0.208188 0.642997 -0.844291 0.531691 0.066916
0.227175 0.135121 0.664286 0.603086 -0.784153 0.146261
0.219689 0.139180 0.817900 -0.955433 0.228558 -0.186839
0.106054 0.189883 0.158265 -0.660867 0.454304 -0.597380
0.139882 0.189618 0.790187 -0.141264 0.810705 -0.568157
0.322639 0.164045 0.844764 0.015862 0.998101 0.059516
0.048454 0.099714 0.784448 0.917203 -0.090981 -0.387894
0.223130 0.183495 0.685940 -0.991517 -0.107132 0.073605
0.150546 0.208690 0.177626 0.477971 0.753880 -0.450786
0.478450 0.095066 0.252956 -0.043146 0.808808 -0.586487
0.335847 0.293769 0.720636 0.160434 -0.979438 -0.122317
0.447376 0.128752 0.850840 -0.996699 0.064603 0.049174
0.124383 0.277916 0.885573 0.199264 -0.863358 0.463580
0.343841 0.136408 0.149915 0.357446 -0.928671 -0.099005
0.378460 0.095966 0.852663 0.416063 -0.786237 0.456863
0.116120 0.153364 0.075417 -0.411747 -0.833642 -0.368110
0.533357 0.041341 0.885563 0.859786 -0.447056 0.246798
0.447210 0.128625 0.283058 -0.043290 -0.272664 0.961135
0.154645 0.159343 0.913438 0.576582 0.429320 0.695153
0.132805 0.148767 0.148721 -0.016272 -0.003803 0.999860
0.158489 0.191982 0.260788 0.817107 0.386286 0.427925
0.363134 0.134281 0.680240 0.233658 -0.873773 -0.426528
0.261903 0.239299 0.502308 0.016101 0.971592 0.236112
0.420665 0.041564 0.865953 -0.998095 -0.060909 0.009785
0.225919 0.163922 0.703851 -0.316188 0.935285 0.158955
0.301821 0.144767 0.805793 0.001309 0.738254 -0.674521
0.255681 0.159367 0.658613 -0.352729 0.218437 -0.909872
0.346169 0.178109 0.635675 -0.700073 0.710984 0.066329
0.061605 0.131568 0.871903 -0.996828 -0.040781 -0.068351
0.266161 0.136408 0.501251 -0.037019 -0.999315 -0.000026
0.228278 0.153748 0.354027 0.987270 -0.155440 -0.033711
0.171509 0.170428 0.504655 -0.246758 0.963967 -0.099388
0.307121 0.264666 0.735842 0.214849 -0.812964 0.541229
0.301383 0.136408 0.170839 0.014945 -0.999753 -0.016425
0.448231 0.050002 0.779782 -0.077732 -0.725730 -0.683574
0.240237 0.248294 0.771402 -0.688355 0.416943 -0.593571
0.353376 0.141572 0.538464 0.694440 -0.719551 -0.000035
0.514809 0.091935 0.873601 -0.962624 -0.175338 0.206425
0.407071 0.133395 0.281785 0.233398 -0.969056 -0.080352
0.496893 0.087505 0.197372 0.917127 -0.386810 -0.096205
0.454985 0.191832 0.886130 0.332345 0.812065 0.479684
0.342553 0.115988 0.942528 0.045063 0.679234 -0.732537
0.304276 0.179350 0.961674 0.001613 -0.147732 0.989026
0.103642 0.158110 0.101367 -0.923679 0.331687 -0.191835
0.136548 0.086963 0.179210 0.831270 -0.483923 -0.273510
0.479602 0.091247 0.181399 -0.058053 0.863846 0.500400
0.315372 0.079841 0.810914 0.018244 -0.807520 -0.589558
0.237577 0.187641 0.231872 -0.210008 0.952479 -0.220637
0.286493 0.178662 0.186490 -0.000156 0.979036 -0.203688
0.089619 0.154528 0.760038 0.184008 0.422371 -0.887549
0.111578 0.088473 0.253238 0.254995 -0.812069 0.524901
0.061678 0.071832 0.870090 0.262024 -0.816782 0.514014
0.452902 0.129795 0.878428 0.967862 0.106323 0.227899
0.354745 0.230481 0.748282 0.574407 0.600266 0.556541
0.352910 0.232336 0.771705 0.445468 0.510370 0.735582
0.369190 0.136673 0.370116 -0.113335 -0.992576 0.044135
0.482881 0.178534 0.197908 0.979653 -0.170735 0.105499
0.271498 0.147484 0.654288 -0.054837 -0.676777 -0.734143
0.461627 0.032915 0.851673 0.009306 0.992073 -0.125314
0.125333 0.136138 0.922434 -0.006579 -0.247794 -0.968790
0.140890 0.141289 0.527130 -0.990222 0.119797 -0.071473
0.247752 0.282901 0.572303 -0.118944 0.221348 -0.967914
0.299563 0.159058 0.579535 -0.242412 0.903826 0.352612
0.378437 0.353928 0.955987 0.068064 0.692897 -0.717817
0.534349 0.143153 0.761368 0.018516 0.333766 -0.942474
0.437546 0.259692 0.842974 -0.210990 -0.844126 0.492885
0.089806 0.111310 0.210347 0.351907 0.930764 0.099202
0.106654 0.129208 0.752516 -0.245917 0.143988 -0.958537
0.201142 0.155080 0.680379 -0.719227 0.350705 -0.599765
0.231974 0.217059 0.808448 0.070808 -0.390747 -0.917771
0.092482 0.194983 0.170081 0.264073 -0.704277 0.658984
0.280596 0.131334 0.688336 0.007681 -0.842697 -0.538333
0.149810 0.153830 0.807073 0.859749 -0.374914 0.346802
0.087747 0.142549 0.267793 0.922081 -0.039704 0.384954
0.059604 0.031483 0.811415 0.117573 -0.931146 -0.345172
0.257581 0.278564 0.914940 0.929376 0.363235 0.065734
0.291124 0.161501 0.132212 0.143480 0.932277 0.332074
0.153009 0.122011 0.761450 -0.293266 -0.060286 0.954128
0.330585 0.136408 0.337598 0.175755 -0.984434 -0.000147
0.310042 0.168339 0.553721 -0.311089 0.825941 0.470154
0.273257 0.136408 0.591101 -0.030249 -0.999537 0.003369
0.301579 0.178982 0.852695 0.176424 -0.513433 0.839798
0.312399 0.261670 0.720836 0.172104 -0.701822 0.691249
0.290073 0.197137 0.274468 -0.000013 0.978953 -0.204085
0.223158 0.184498 0.313283 0.310386 0.943058 -0.119588
0.204760 0.282017 0.870791 -0.017527 -0.955546 0.294320
0.430662 0.182841 0.229484 0.049328 -0.909546 -0.412666
0.224176 0.173982 0.479926 -0.994206 -0.107473 -0.002176
0.055327 0.088536 0.884479 0.093616 -0.537764 0.837882
0.039704 0.191043 0.849199 0.997439 0.071069 -0.008078
0.241249 0.279136 0.917136 -0.957815 0.073426 0.277848
0.295033 0.145818 0.144830 -0.125868 -0.983151 -0.132556
0.133161 0.157901 0.644721 -0.857652 0.251899 0.448308
0.536818 0.067268 0.800133 0.851850 0.399641 0.338583
0.246282 0.159058 0.662613 0.336597 0.909153 0.245240
0.472844 0.188974 0.801824 0.010434 -0.878478 0.477670
0.241503 0.179920 0.577034 -0.532946 0.615760 -0.580352
0.514217 0.090482 0.762071 -0.038748 0.300122 0.953113
0.482460 0.143725 0.228814 0.998316 -0.018636 0.054926
0.370423 0.116970 0.818063 0.584817 -0.033000 -0.810494
0.097885 0.084460 0.243914 0.121459 -0.905959 0.405570
0.426754 0.136564 0.358399 0.935826 -0.314300 -0.159515
0.150925 0.129365 0.780312 -0.903040 0.085498 -0.420963
0.159764 0.133914 0.463302 -0.029658 -0.999559 -0.001300
0.243384 0.240936 0.821729 -0.902794 -0.069891 -0.424356
0.524159 0.165274 0.855620 -0.138923 0.948194 0.285707
0.254668 0.276789 0.739942 -0.881419 0.367933 0.296187
0.259087 0.204409 0.309098 -0.004465 0.979482 -0.201485
0.231072 0.149050 0.471555 0.987345 -0.158119 -0.012206
0.431182 0.187996 0.226130 0.969046 0.242429 0.046669
0.083956 0.150856 0.276361 -0.985861 0.020840 0.166263
0.051814 0.068907 0.859201 -0.003032 -0.933804 0.357772
0.273795 0.194475 0.762258 0.002919 -0.082195 -0.996612
0.366422 0.265091 0.822033 -0.025676 -0.926136 0.376314
0.487558 0.298671 0.939497 -0.198355 -0.768835 0.607905
0.435401 0.292415 0.900051 0.198044 0.863669 -0.463524
0.435466 0.087698 0.756272 -0.307765 -0.288924 -0.906534
0.201142 0.143110 0.671770 -0.327170 -0.558253 -0.762439
0.426105 0.050211 0.830473 -0.829101 0.551273 0.093215
0.356866 0.150600 0.118866 -0.012874 -0.999213 -0.037508
0.152189 0.078820 0.791474 0.863725 0.295657 0.408124
0.132341 0.291471 0.907219 0.201244 -0.860603 0.467829
0.190236 0.163763 0.046563 0.033957 -0.924588 -0.379453
0.233844 0.135813 0.781081 -0.166337 0.881205 0.442504
0.257581 0.235023 0.846803 0.891789 -0.450831 -0.038264
0.216047 0.177786 0.665315 -0.397114 0.917754 0.005373
0.287786 0.293769 0.651345 -0.017422 -0.999775 0.012109
0.256963 0.250285 0.518304 -0.100564 0.879081 -0.465944
0.387996 0.252215 0.211867 0.901076 0.171089 -0.398486
0.114331 0.181226 0.277516 -0.226594 0.450410 0.863589
0.346498 0.238918 0.716756 0.338480 0.938282 0.071128
0.088103 0.186068 0.247958 -0.899368 -0.328351 -0.288657
0.539764 0.171556 0.886127 -0.906137 0.332246 0.261781
0.295149 0.236909 0.491179 -0.052043 0.868707 -0.492585
0.241066 0.138964 0.950374 -0.053444 0.322897 -0.944924
0.533225 0.078069 0.769858 -0.250944 0.439697 0.862377
0.231070 0.138888 0.400232 0.923145 -0.380109 -0.057633
0.227429 0.144408 0.751170 -0.867932 -0.491691 0.070243
0.442443 0.157859 0.870545 0.110838 0.819186 0.562715
0.346169 0.218028 0.731881 -0.880895 0.462783 -0.099277
0.141523 0.147849 0.550233 -0.971369 0.226211 -0.072599
0.257581 0.240296 0.839777 0.926074 -0.361699 -0.107520
0.364334 0.209253 0.861853 -0.959376 -0.281709 -0.015411
0.496964 0.103217 0.176072 0.978286 0.153656 0.139094
0.231072 0.165550 0.488283 0.997435 -0.069554 -0.016912
0.209150 0.286768 0.847002 0.094830 0.785476 -0.611584
0.517414 0.028709 0.865634 0.106866 -0.957078 0.269410
0.428252 0.182538 0.180731 0.946329 0.222067 -0.234837
0.527884 0.119135 0.892311 -0.946985 -0.008915 0.321153
0.423798 0.066866 0.779931 0.796038 0.394287 0.459197
0.477414 0.055446 0.905791 -0.087643 -0.677794 0.730010
0.458743 0.160520 0.279323 0.001876 -0.185478 -0.982647
0.375242 0.234789 0.219708 -0.079867 -0.915399 -0.394546
0.172578 0.155310 0.306967 -0.475154 0.871620 -0.120446
0.228973 0.213023 0.509971 0.916761 0.395595 -0.055267
0.330975 0.196203 0.270022 0.012494 0.978738 -0.204735
0.357199 0.176327 0.789452 0.860576 -0.195674 0.470234
0.213925 0.159970 0.193066 -0.177102 0.983530 -0.036121
0.336617 0.159058 0.708762 -0.505953 0.842025 -0.187095
0.374030 0.144160 0.226372 -0.306133 -0.090580 -0.947670
0.160431 0.105991 0.763983 0.996716 0.000593 -0.080980
0.124490 0.283706 0.891488 -0.199353 0.867064 -0.456573
0.246520 0.237566 0.795349 0.997285 0.068748 0.026402
0.356951 0.262109 0.234818 -0.905544 0.215001 0.365739
0.147574 0.073956 0.819036 -0.243689 0.857838 0.452471
0.434815 0.081757 0.239510 0.218628 -0.910402 0.351242
0.254668 0.274288 0.715622 -0.992369 0.112742 0.049927
0.226951 0.148760 0.514021 -0.887691 -0.460439 -0.000993
0.229256 0.166149 0.046281 0.133721 -0.953332 -0.270697
0.198928 0.345921 0.949467 -0.150588 0.622755 -0.767789
0.427566 0.172537 0.785311 0.300470 -0.667002 0.681781
0.263326 0.165400 0.953510 -0.021372 0.299918 -0.953725
0.175175 0.297890 0.900870 0.226343 -0.856019 0.464758
0.130745 0.141004 0.285125 -0.385197 -0.084970 0.918914
0.342232 0.136408 0.759690 0.245953 -0.967092 0.065109
0.240865 0.175637 0.655734 -0.707616 -0.307650 0.636106
0.332268 0.302642 0.692094 0.075730 0.996878 -0.022330
0.259903 0.245379 0.508356 -0.108302 0.872505 -0.476451
0.378947 0.309355 0.912275 -0.259373 -0.845742 0.466311
0.215909 0.226496 0.232481 -0.949529 -0.043225 0.310687
0.354837 0.154858 0.681185 0.974626 -0.221359 0.033240
0.349634 0.181283 0.211626 0.570341 0.795644 -0.204111
0.261146 0.155943 0.869698 -0.016690 0.832090 0.554389
0.396566 0.174387 0.378470 0.912231 0.409675 0.001355
0.454989 0.181366 0.157245 0.010554 -0.500491 0.865677
0.260745 0.192345 0.801873 -0.332781 -0.100245 0.937661
0.346169 0.232726 0.633858 -0.926715 0.373949 0.036909
0.313500 0.284142 0.717361 0.359677 0.932719 -0.025862
0.424769 0.124782 0.773988 -0.835207 -0.071289 0.545295
0.406135 0.164334 0.415931 0.109288 0.991061 -0.076508
0.253832 0.243883 0.702201 -0.477599 -0.385681 0.789398
0.407499 0.129856 0.844527 0.310513 0.937683 0.155986
0.369330 0.356742 0.946840 -0.368749 -0.689680 0.623190
0.048761 0.088025 0.758315 -0.708660 -0.226671 -0.668148
0.341796 0.136408 0.755922 0.245941 -0.967269 0.062475
0.332047 0.067327 0.843890 0.051358 -0.998643 0.008682
0.541144 0.193802 0.844153 -0.840406 -0.539840 -0.047858
0.184013 0.353387 0.962367 0.201107 -0.432158 0.879088
0.357330 0.292759 0.857378 -0.153945 0.848583 -0.506169
0.480015 0.085849 0.248339 0.077132 -0.876904 0.474436
0.142482 0.128984 0.212895 0.999261 -0.038421 -0.001239
0.308471 0.201389 0.294717 0.000822 0.979931 -0.199333
0.296284 0.199774 0.651965 -0.000770 0.512194 -0.858870
0.219317 0.115717 0.810073 -0.969622 0.008513 -0.244460
0.339424 0.222630 0.481426 0.227378 -0.894786 0.384262
0.078848 0.269871 0.884967 -0.202559 0.872766 -0.444127
0.339829 0.111906 0.869286 0.105808 0.994066 -0.025268
