0.164115 0.129044 0.773688 0.035206 -0.753046 0.657026
0.150661 0.124163 0.197864 0.141946 0.431775 -0.890742
0.384712 0.216106 0.966397 -0.046143 0.945998 0.320871
0.410730 0.044840 0.401682 -0.151562 0.988015 0.029257
0.318700 0.036585 0.705221 -0.009022 -0.999877 0.012794
0.153343 0.052124 0.238699 -0.328674 0.839314 0.433042
0.242374 0.066033 0.852589 -0.502829 -0.692418 0.517417
0.358045 0.085350 0.451133 -0.972166 -0.225326 0.064199
0.268396 0.094776 0.338131 0.954431 -0.280047 0.103132
0.289409 0.060532 0.144676 -0.685911 0.267704 -0.676654
0.097630 0.081858 0.214368 -0.029594 0.279312 0.959744
0.521297 0.134989 0.860045 0.009556 0.603680 0.797169
0.138202 0.052636 0.279860 -0.235537 0.902739 -0.359980
0.137408 0.059680 0.318117 0.035562 -0.483996 0.874347
0.122413 0.169251 0.908553 -0.999053 -0.001397 -0.043494
0.283593 0.036322 0.446218 -0.069180 -0.996801 -0.040023
0.394229 0.081831 0.767335 0.619610 0.765771 -0.172274
0.271501 0.055640 0.318909 0.222368 0.974958 0.003081
0.118541 0.071661 0.846104 -0.073166 0.412108 -0.908193
0.436633 0.140527 0.817390 -0.191285 -0.949656 -0.248118
0.573432 0.058055 0.748379 0.270547 -0.497269 -0.824335
0.559730 0.076511 0.840752 -0.773421 -0.633600 0.019252
0.096150 0.044665 0.210805 -0.010268 -0.710396 -0.703728
0.250492 0.119285 0.528975 -0.870571 0.490593 0.037744
0.382344 0.097172 0.708688 -0.444436 -0.851560 -0.278069
0.369866 0.064958 0.352371 0.995147 0.079051 -0.058591
0.147702 0.058947 0.228528 -0.171460 0.742999 0.646957
0.158166 0.124416 0.944902 0.107534 0.987943 0.111383
0.289358 0.134347 0.798899 -0.727214 0.655052 0.205103
0.237307 0.083436 0.726773 0.415058 0.905612 0.087148
0.211608 0.082805 0.748080 -0.087285 0.144268 0.985682
0.530841 0.090948 0.273175 -0.363928 0.687902 0.627971
0.512900 0.120007 0.221215 0.005864 -0.569970 0.821645
0.415524 0.044830 0.520736 -0.339580 0.937136 -0.080379
0.139527 0.138561 0.789523 0.021305 -0.944096 0.328981
0.465803 0.105009 0.852193 -0.021644 -0.231077 -0.972695
0.261852 0.111659 0.460830 0.325839 -0.936184 -0.131867
0.433024 0.115187 0.850021 -0.083275 0.466279 0.880710
0.377414 0.037449 0.588442 0.062852 -0.998015 -0.004068
0.269310 0.141223 0.475274 -0.560717 0.824722 -0.073684
0.564436 0.122105 0.767246 0.033946 -0.583748 0.811225
0.179390 0.213495 0.936298 0.453572 -0.887284 0.083660
0.498337 0.079409 0.214952 0.074321 0.316279 0.945750
0.385070 0.127153 0.912841 -0.036391 0.998979 0.026766
0.043884 0.105866 0.759490 -0.032638 -0.244057 0.969212
0.244159 0.167435 0.832356 -0.696616 0.688851 0.200525
0.147516 0.101183 0.539630 -0.978296 0.180741 0.101341
0.069911 0.057947 0.287702 0.219674 0.792030 -0.569589
0.264024 0.107049 0.442929 0.639891 -0.756303 0.136179
0.427649 0.060947 0.819627 -0.921594 -0.322138 0.216546
0.372207 0.073237 0.669093 0.895829 0.444325 -0.008103
0.259539 0.043211 0.037261 0.006957 -0.840350 -0.542000
0.506918 0.158594 0.826884 0.001540 0.950889 0.309529
0.385801 0.082416 0.706592 -0.378687 -0.717519 -0.584605
0.454856 0.076255 0.322393 -0.652441 -0.174108 0.737569
0.073242 0.096574 0.854838 -0.052458 0.038397 0.997885
0.408337 0.037452 0.586496 0.170143 -0.985189 0.021326
0.372282 0.114780 0.332654 0.604742 0.693537 0.391528
0.163586 0.083071 0.836428 -0.894394 0.447115 -0.012195
0.266401 0.068968 0.324736 0.983477 -0.045013 0.175345
0.254670 0.125071 0.534085 -0.692883 0.711527 0.116799
0.225338 0.052142 0.039139 0.021413 0.978029 -0.207367
0.129312 0.082305 0.191248 0.026525 -0.171798 -0.984775
0.238652 0.119160 0.953797 0.022216 -0.994397 0.103353
0.223941 0.106720 0.382170 -0.445549 -0.894840 0.027361
0.459916 0.213765 0.958936 -0.399373 -0.908020 0.126498
0.461766 0.217074 0.958780 -0.206131 0.962478 0.176481
0.403867 0.073471 0.136233 -0.108399 0.982949 0.148528
0.245775 0.053345 0.353460 -0.967591 0.243013 -0.068647
0.439729 0.113855 0.561261 0.082429 0.996505 0.013544
0.391811 0.083713 0.741385 -0.773263 0.519942 -0.362939
0.399070 0.106795 0.529084 -0.048031 -0.998823 -0.006740
0.504044 0.047629 0.807546 0.025451 0.998817 -0.041444
0.276458 0.146409 0.487204 -0.511926 0.858213 0.037447
0.261723 0.124668 0.951743 -0.013140 0.975375 0.220159
0.508224 0.159285 0.240474 0.002746 0.963691 -0.267004
0.169494 0.110063 0.740183 0.214963 0.227418 -0.949775
0.167297 0.088701 0.760066 -0.224970 0.130680 0.965563
0.306160 0.219278 0.924684 -0.058948 0.993646 0.095876
0.447931 0.052484 0.115401 -0.614463 0.774020 0.152736
0.269897 0.124201 0.720350 -0.901629 0.422490 0.092562
0.085654 0.117730 0.766799 -0.058233 -0.508481 0.859102
0.475685 0.116500 0.879974 -0.852909 -0.243426 -0.461833
0.464253 0.047905 0.811217 0.144741 0.982234 -0.119439
0.423757 0.113925 0.526125 0.012716 0.999898 -0.006472
0.424118 0.060332 0.709024 0.901551 -0.216396 0.374671
0.205617 0.037680 0.454473 -0.230320 -0.970455 -0.071906
0.129767 0.025184 0.256420 0.027057 -0.999318 -0.025127
0.299013 0.154698 0.443037 -0.271832 0.961392 -0.042803
0.363933 0.118081 0.430558 0.528057 0.848826 -0.025490
0.207457 0.114179 0.634644 -0.069964 0.997466 0.012902
0.430020 0.064795 0.784858 -0.556195 -0.564339 -0.610056
0.274552 0.092496 0.869028 -0.871977 0.385519 0.301715
0.430616 0.098526 0.688787 0.933241 0.052734 0.355358
0.448088 0.081161 0.301094 -0.164169 -0.295340 0.941182
0.503114 0.037762 0.298486 -0.002931 -0.813715 0.581257
0.425615 0.037250 0.576148 0.230290 -0.972440 0.036431
0.195558 0.097740 0.341014 0.682742 -0.639916 0.352663
0.453633 0.058684 0.050040 0.876509 0.392077 -0.279298
0.434896 0.044824 0.556528 -0.594979 0.793774 -0.126184
0.195925 0.074466 0.273943 0.374078 -0.847954 -0.375552
0.355190 0.126800 0.643295 0.699596 0.714347 0.016513
0.190021 0.221288 0.894136 0.049034 0.998620 0.018815
0.338400 0.036254 0.175071 0.656594 -0.718389 -0.229784
0.148530 0.105405 0.288670 -0.609384 -0.701416 0.369685
0.372813 0.073316 0.803001 0.871572 -0.001766 0.490264
0.140670 0.161103 0.816420 0.021671 0.989009 0.146260
0.394783 0.078446 0.748120 -0.931739 -0.131721 -0.338397
0.343382 0.036730 0.786946 0.025370 -0.999492 0.019277
0.453633 0.038147 0.070236 0.965361 -0.258756 0.033501
0.439202 0.134989 0.830127 -0.106360 -0.849827 -0.516219
0.436021 0.111786 0.820789 0.990380 0.093897 0.101644
0.211352 0.082201 0.773281 -0.278097 0.948723 -0.150290
0.517880 0.113418 0.764336 -0.030803 -0.352918 0.935147
0.051735 0.085915 0.203343 -0.994556 0.028570 0.100212
0.110292 0.090737 0.759922 -0.099403 0.090632 0.990911
0.330678 0.055640 0.314095 -0.290557 0.952513 0.091078
0.476247 0.087081 0.760204 0.132700 0.191102 0.972559
0.527135 0.074538 0.760242 0.023113 -0.368354 -0.929398
0.441089 0.074262 0.847382 0.237018 0.410326 -0.880599
0.084269 0.122607 0.196953 -0.023470 0.433820 -0.900694
0.399430 0.125943 0.926426 -0.059198 0.996520 0.058685
0.304974 0.121189 0.884486 -0.225972 0.888908 0.398471
0.253962 0.122052 0.476239 -0.794545 0.605604 -0.044054
0.533573 0.094262 0.855019 0.054337 -0.008701 0.998485
0.528148 0.099542 0.251994 -0.974519 0.132186 -0.181216
0.204398 0.076926 0.664603 0.949767 0.284971 -0.129365
0.130297 0.118998 0.974894 0.680591 0.001792 0.732662
0.428888 0.114442 0.850331 -0.096683 0.453598 0.885947
0.371615 0.082983 0.574908 0.981387 0.191889 -0.007616
0.219230 0.114195 0.554846 -0.059444 0.998174 0.010698
0.049332 0.091177 0.757908 -0.029567 0.061398 0.997675
0.137662 0.078181 0.762394 -0.187507 0.307098 0.933023
0.189930 0.099041 0.348410 0.744780 -0.544407 0.385907
0.025290 0.063767 0.840945 -0.615565 0.457305 -0.641835
0.027710 0.132973 0.837791 -0.382342 -0.737020 -0.557330
0.122413 0.160752 0.880400 -0.995440 -0.005178 -0.095254
0.313944 0.154207 0.415497 0.159707 0.983050 -0.090034
0.184582 0.106565 0.510659 0.111409 -0.993643 -0.016159
0.470963 0.141122 0.793200 -0.051624 0.962849 -0.265061
0.461413 0.060314 0.771113 -0.024059 0.683015 0.730008
0.358686 0.222162 0.885597 -0.144426 0.989225 -0.023999
0.255699 0.036273 0.536246 -0.078996 -0.996701 -0.018629
0.513561 0.031755 0.835105 0.005237 -0.904196 0.427085
0.533270 0.025828 0.269207 0.030534 -0.989342 0.142370
0.418883 0.106713 0.473297 -0.038047 -0.999275 0.000966
0.350298 0.128866 0.548182 -0.990390 0.113465 0.079072
0.332640 0.114210 0.424204 -0.315440 0.947368 0.054691
0.087884 0.124924 0.772274 0.022237 -0.679005 0.733797
0.419683 0.117586 0.896799 -0.424151 -0.639542 -0.641156
0.445039 0.066172 0.264041 0.766603 -0.579557 -0.276467
0.232598 0.073871 0.133430 0.047281 0.982413 0.180637
0.563116 0.126138 0.781824 -0.940512 0.299257 -0.160879
0.161713 0.077952 0.143148 -0.995117 0.076989 0.061770
0.161478 0.038108 0.607127 -0.867158 -0.435294 0.241982
0.480335 0.250876 0.955750 -0.015140 0.993908 0.109166
0.158894 0.120671 0.220404 0.998577 -0.022976 0.048116
0.529577 0.092726 0.756364 0.025489 0.007130 -0.999650
0.520419 0.137512 0.271681 -0.158847 -0.947726 -0.276736
0.444727 0.073140 0.554804 -0.930015 0.313973 -0.191030
0.442008 0.091528 0.358250 0.831877 -0.011273 -0.554845
0.491423 0.061928 0.225375 0.071058 0.681369 0.728483
0.304584 0.079955 0.143257 0.135587 0.716920 -0.683844
0.529585 0.080595 0.849744 -0.030656 0.273366 -0.961421
0.069995 0.133026 0.749924 -0.017690 0.584956 -0.810872
0.231035 0.044816 0.664442 0.176864 0.975587 -0.130190
0.251988 0.155191 0.842349 0.327015 -0.912848 0.244477
0.048555 0.074237 0.847337 0.222646 0.309039 -0.924621
0.449787 0.115836 0.241524 -0.098909 0.963017 -0.250631
0.339929 0.133161 0.338243 0.585487 0.799581 -0.133699
0.361176 0.216071 0.965244 0.037225 0.926946 0.373343
0.296517 0.127697 0.894790 -0.006649 0.658579 -0.752482
0.051735 0.035164 0.247041 -0.994796 -0.095491 -0.035523
0.279701 0.048569 0.870758 -0.167822 -0.926943 0.335579
0.484871 0.180883 0.956846 1.000000 0.000330 -0.000239
0.579043 0.146375 0.767950 0.664685 0.617390 -0.420742
0.090946 0.142055 0.797143 -0.030410 0.986651 -0.159984
0.367185 0.092998 0.377685 0.968851 -0.239801 -0.061840
0.352332 0.065286 0.861170 -0.115732 -0.987248 -0.109309
0.045573 0.081542 0.770620 -0.567836 0.270188 0.777535
0.447932 0.061584 0.084563 -0.461634 0.120292 -0.878877
0.161713 0.053523 0.142950 -0.995464 0.049356 0.081339
0.326234 0.211142 0.880687 0.092927 -0.990182 -0.104425
0.234097 0.044824 0.371246 -0.177995 0.984014 -0.005871
0.447078 0.075042 0.527307 -0.952142 0.280221 -0.122074
0.163412 0.113716 0.481035 -0.159570 0.987056 -0.016056
0.037752 0.068991 0.869314 -0.079171 -0.372883 0.924495
0.275746 0.119253 0.963565 -0.003796 -0.957657 0.287888
0.128024 0.101595 0.884828 -0.186318 -0.357036 -0.915320
0.186991 0.044829 0.391590 0.241565 0.965140 0.100754
0.143444 0.111155 0.761254 0.023525 -0.379582 0.924859
0.383206 0.074845 0.728278 -0.824065 0.188792 -0.534111
0.486083 0.080891 0.853321 -0.006808 -0.254365 0.967084
0.476157 0.025318 0.809772 -0.015608 -0.997660 0.066564
0.525062 0.096781 0.737529 0.011664 0.053879 -0.998479
0.053109 0.129827 0.833697 0.070516 -0.810898 -0.580923
0.484897 0.112697 0.927353 0.999799 -0.015032 -0.013250
0.321786 0.051798 0.046491 -0.059237 0.996251 -0.063040
0.522242 0.085656 0.213460 -0.063827 0.208238 0.975993
0.431136 0.113867 0.573246 0.095682 0.995316 0.013839
0.317232 0.097786 0.176493 0.247216 0.832945 -0.495062
0.083862 0.027164 0.274977 -0.023963 -0.973009 0.229518
0.346483 0.055641 0.560375 -0.089487 0.945456 -0.313217
0.529295 0.140972 0.307970 0.026102 0.687449 0.725763
0.165811 0.080567 0.849764 -0.268850 0.393739 -0.879027
0.238954 0.173534 0.763203 -0.687188 0.726204 0.019997
0.395294 0.074831 0.298814 -0.486564 -0.738480 -0.466801
0.455237 0.141074 0.818404 -0.057500 0.969212 0.239419
0.258925 0.174971 0.756624 0.517182 0.855738 0.015352
0.542865 0.114294 0.870939 0.021566 0.294422 0.955432
0.078276 0.138928 0.799034 0.014117 -0.986716 0.161840
0.213291 0.089584 0.697774 0.175165 -0.953931 -0.243583
0.325033 0.106821 0.372329 -0.228637 -0.972941 0.033328
0.503356 0.123212 0.867306 -0.000433 0.435504 0.900187
0.069367 0.051674 0.824566 0.107320 0.885273 -0.452519
0.384673 0.037450 0.588099 0.085690 -0.996320 0.001663
0.156461 0.040794 0.532828 -0.449337 -0.891922 0.050704
0.155767 0.085728 0.302297 0.109819 -0.156683 0.981524
0.523899 0.110695 0.763210 -0.096784 -0.316094 0.943778
0.537884 0.089624 0.190603 0.035695 -0.043928 -0.998397
0.580909 0.060653 0.849784 0.998962 -0.031145 0.033237
0.447932 0.044046 0.103210 -0.371795 -0.924374 0.085451
0.443901 0.120287 0.815934 0.541295 0.478841 -0.691167
0.045465 0.048490 0.796734 0.268092 0.940506 0.208749
0.545008 0.074808 0.740020 0.022781 -0.262656 -0.964621
0.570463 0.086979 0.873237 0.163678 -0.108071 0.980577
0.472924 0.077480 0.926160 -0.975965 -0.217894 -0.003842
0.464489 0.123068 0.197140 -0.045798 0.418415 -0.907101
0.387053 0.109897 0.479127 0.058140 -0.998237 -0.011961
0.519139 0.028876 0.783318 0.008356 -0.943387 -0.331589
0.142928 0.069672 0.847289 0.023195 0.506431 -0.861969
0.472924 0.178075 0.933291 -0.848483 -0.528322 -0.030857
0.044060 0.095469 0.853593 -0.032559 -0.056615 -0.997865
0.307849 0.150232 0.378663 -0.070123 0.988241 -0.135879
0.541558 0.108621 0.849031 -0.216071 -0.400464 -0.890473
0.242918 0.114044 0.625188 0.074890 0.996888 0.024615
0.347496 0.036586 0.740462 0.022294 -0.999627 0.015797
0.460792 0.136855 0.858451 -0.024189 0.643932 0.764701
0.333030 0.036424 0.263111 0.105877 -0.990955 -0.082452
0.467961 0.043069 0.534450 0.943735 -0.328995 0.033550
0.477496 0.159993 0.243425 -0.031393 0.971378 -0.235454
0.428638 0.072887 0.853908 -0.715468 0.297152 -0.632303
0.132076 0.066765 0.896048 0.793489 -0.484898 -0.367762
0.472924 0.172521 0.883606 -0.835323 -0.459559 -0.301730
0.434230 0.089788 0.872942 -0.298002 -0.042011 0.953640
0.486815 0.061597 0.291794 0.120980 0.691674 -0.712005
0.101847 0.098586 0.758130 0.000071 -0.106485 0.994314
0.250447 0.036254 0.455666 -0.159984 -0.986714 -0.028293
0.167415 0.057610 0.059729 0.270962 0.962521 0.011536
0.463254 0.075542 0.850121 -0.023090 0.384497 -0.922837
0.190377 0.124631 0.942668 0.048795 0.993748 0.100417
0.453633 0.054017 0.130162 0.988243 0.146351 0.044232
0.303549 0.164432 0.588167 0.128478 0.031681 -0.991206
0.167415 0.073542 0.150295 0.583429 -0.598615 0.548881
0.388144 0.107100 0.597128 -0.114382 -0.993201 -0.021635
0.311234 0.114344 0.892868 0.029937 0.879161 0.475583
0.372312 0.071969 0.469563 0.964921 0.262067 -0.015721
0.257534 0.055641 0.531708 0.561883 0.811746 -0.159237
0.125382 0.052148 0.832523 0.035461 -0.834687 0.549582
0.181024 0.071160 0.827068 0.971973 -0.139755 0.189043
0.275869 0.141782 0.504015 -0.160336 0.611633 0.774724
0.183344 0.110468 0.359534 -0.317661 0.882238 -0.347487
0.270007 0.036617 0.641536 -0.060528 -0.998145 0.006540
0.137419 0.118813 0.895865 0.601543 -0.290676 -0.744079
0.332197 0.151314 0.602328 0.740011 0.662986 -0.113287
0.031102 0.156504 0.828437 -0.357028 0.874821 0.327444
0.175149 0.040378 0.577341 -0.323906 -0.946041 0.009517
0.549245 0.060450 0.840477 0.025390 0.679880 -0.732884
0.273704 0.062225 0.588167 0.256168 0.881171 -0.397386
0.399622 0.066264 0.124132 -0.115013 -0.989507 0.087449
0.160552 0.138970 0.799269 -0.182262 -0.976300 0.116698
0.343232 0.064669 0.283737 -0.969210 0.080596 0.232672
0.480059 0.131261 0.201867 -0.028515 0.544751 -0.838113
0.358000 0.074305 0.408469 -0.997439 -0.020602 0.068489
0.558191 0.156313 0.274192 0.787009 0.594567 0.164642
0.204321 0.038724 0.533877 -0.247626 -0.968852 -0.002678
0.477657 0.121235 0.321157 -0.031214 0.416345 0.908671
0.057092 0.132945 0.282019 0.263442 -0.878157 -0.399296
0.194984 0.114029 0.397589 -0.046123 0.995692 -0.080440
0.122413 0.145888 0.917860 -0.999525 -0.009335 -0.029377
0.580909 0.040949 0.777828 0.994896 -0.081291 -0.059786
0.244443 0.055605 0.418554 -0.931522 0.362232 -0.032478
0.383494 0.114044 0.539254 0.045738 0.998952 -0.001801
0.070393 0.051781 0.824825 0.099251 0.885442 -0.454027
0.381290 0.068445 0.141871 -0.088524 -0.982973 0.161021
0.285700 0.083274 0.261835 0.837297 -0.351731 0.418591
0.179213 0.044821 0.495742 0.393199 0.919403 -0.009647
0.165539 0.061904 0.493428 0.918072 0.392956 -0.052251
0.196116 0.071276 0.811691 -0.249758 0.246316 0.936456
0.259436 0.154426 0.813956 0.819666 -0.549480 0.161924
0.356744 0.212163 0.933401 0.033331 -0.992779 0.115235
0.234441 0.155235 0.673886 -0.952122 -0.303776 -0.034404
0.377593 0.213827 0.960582 -0.158781 -0.973743 0.163138
0.305315 0.114210 0.410678 -0.201041 0.979438 0.016843
0.484896 0.224446 0.950670 0.999800 0.011598 0.016274
0.241198 0.114044 0.559904 -0.012817 0.999913 0.003063
0.245325 0.094740 0.528452 -0.913703 0.406379 0.001620
0.258513 0.130081 0.511629 -0.799374 0.596096 0.075303
0.115599 0.054446 0.749598 0.007712 -0.573767 -0.818982
0.241487 0.067497 0.606667 -0.963569 0.267435 0.003802
0.122413 0.223332 0.935139 -0.999967 -0.000286 -0.008138
0.228639 0.044793 0.431859 -0.372645 0.927901 0.011655
0.289299 0.036337 0.446244 -0.063539 -0.997178 -0.039986
0.394651 0.106098 0.670004 0.016666 -0.998665 -0.048895
0.103293 0.049971 0.858353 0.000849 -0.636800 0.771028
0.318901 0.052132 0.041541 -0.072483 0.993392 -0.088990
0.067477 0.101166 0.853117 -0.019337 -0.168600 -0.985495
0.147829 0.087621 0.552724 -0.992071 -0.015278 0.124748
0.367544 0.091255 0.739728 -0.498998 -0.750169 -0.433874
0.266603 0.068962 0.147478 0.139374 -0.956367 0.256783
0.265967 0.131931 0.645893 -0.834849 0.546594 -0.065288
0.543319 0.100636 0.823486 -0.144584 -0.841720 0.520195
0.283534 0.143615 0.388639 -0.501359 0.858742 -0.105831
0.363241 0.147269 0.474181 0.063314 0.350945 -0.934253
0.219921 0.218117 0.932655 0.370888 0.893964 0.251536
0.352649 0.036586 0.734387 0.027694 -0.999508 0.014729
0.462434 0.074571 0.424011 0.889359 -0.434384 -0.142657
0.372907 0.114076 0.454061 0.334164 0.942331 0.018626
0.457758 0.089000 0.300274 0.640080 0.122220 -0.758525
0.541325 0.100012 0.790045 -0.159230 -0.799731 -0.578857
0.505147 0.081599 0.303022 0.035542 0.271076 -0.961902
0.076015 0.044177 0.804475 -0.026115 -0.998576 -0.046518
0.217600 0.090222 0.698276 0.428824 -0.859430 -0.278370
0.134386 0.099211 0.936747 0.612308 -0.790411 0.018154
0.148165 0.045941 0.799588 0.026145 0.989715 0.140642
0.345739 0.136009 0.640441 0.723366 0.690456 -0.003573
0.154592 0.065635 0.222182 -0.205979 0.565919 0.798316
0.580909 0.152508 0.816391 0.991338 0.125705 0.038037
0.149131 0.154304 0.837113 0.026349 0.894287 0.446717
0.439180 0.113004 0.379223 0.164784 0.972754 -0.163085
0.358170 0.050370 0.066739 -0.047060 0.998569 0.025417
0.269761 0.127962 0.476636 0.795678 -0.600327 0.080647
0.427379 0.134792 0.847429 -0.998531 0.046391 0.027990
0.061044 0.134433 0.270009 0.932829 -0.341699 -0.114330
0.329015 0.036254 0.333124 -0.041727 -0.997338 -0.059801
0.472924 0.103243 0.925410 -0.526414 -0.850224 0.002734
0.173710 0.113966 0.509456 -0.113440 0.993529 -0.005695
0.154568 0.077843 0.410190 -0.953602 -0.229820 -0.194487
0.240802 0.045322 0.532317 -0.797614 0.603121 -0.007579
0.082124 0.125701 0.198467 -0.025826 0.479394 -0.877220
0.162653 0.082836 0.776380 -0.980717 -0.118776 0.155196
0.137783 0.070131 0.219244 -0.150357 0.456904 0.876716
0.123210 0.070297 0.298301 -0.146712 0.444100 -0.883884
0.241528 0.127076 0.899252 0.022532 0.962923 -0.268834
0.266121 0.110557 0.559727 0.198278 -0.979496 0.035684
0.480984 0.123846 0.197462 -0.027492 0.435563 -0.899738
0.172489 0.038684 0.654128 -0.879283 -0.359263 0.312718
0.069344 0.039305 0.764054 -0.018068 -0.787074 -0.616593
0.403271 0.088435 0.681778 -0.850445 0.275036 -0.448441
0.459273 0.074436 0.397942 0.881722 -0.440674 -0.168443
0.315932 0.129290 0.897424 0.006027 0.911469 -0.411326
0.115951 0.155310 0.776667 0.007920 0.903510 -0.428494
0.358402 0.087444 0.473890 -0.932112 -0.355968 0.066733
0.164615 0.107579 0.241915 0.066794 -0.991874 -0.108284
0.452232 0.103238 0.854007 -0.116850 0.221090 0.968228
0.274642 0.104923 0.588167 0.356733 0.340452 -0.869962
0.258177 0.080777 0.832152 -0.847656 0.193690 0.493926
0.161713 0.045300 0.158900 -0.917908 -0.388295 0.081682
0.384778 0.114078 0.657188 0.189876 0.981459 0.026195
0.157174 0.135611 0.257452 0.890788 -0.454250 0.012385
0.074243 0.094134 0.190351 -0.034560 0.021684 -0.999167
0.333059 0.036468 0.520963 -0.005499 -0.999748 -0.021754
0.271671 0.055640 0.528194 0.265305 0.935217 -0.234484
0.422630 0.066762 0.341047 -0.963712 0.264465 0.036299
0.053758 0.035991 0.290063 -0.721255 -0.616599 0.315589
0.253929 0.125988 0.938607 -0.013887 0.984514 0.174754
0.078676 0.053299 0.834377 -0.028446 -0.823967 0.565924
0.436021 0.070737 0.822370 0.973348 -0.168888 0.155145
0.278460 0.145874 0.613619 -0.703156 0.710441 -0.029067
0.553560 0.139184 0.809020 -0.130029 -0.990472 -0.045352
0.372714 0.100238 0.701522 0.219616 -0.968219 -0.119673
0.419126 0.106685 0.560505 -0.050163 -0.998498 -0.022031
0.447932 0.062906 0.121378 -0.512831 -0.853952 0.088151
0.344883 0.036508 0.562401 0.014334 -0.999829 -0.011724
0.077256 0.124270 0.744611 -0.013629 0.456066 -0.889841
0.065807 0.129730 0.833816 0.037930 -0.810311 -0.584771
0.264647 0.124200 0.585953 0.079423 0.556699 -0.826909
0.180939 0.116646 0.922384 0.200057 -0.978467 0.050797
0.484897 0.129025 0.953655 0.999012 -0.003329 0.044313
0.149289 0.125620 0.248215 -0.944045 -0.319882 0.080343
0.054370 0.034419 0.840019 -0.026428 -0.870865 0.490812
0.543168 0.092361 0.757814 0.021993 0.033292 0.999204
0.371158 0.098569 0.528743 0.954870 0.297005 -0.003331
0.453633 0.046682 0.102452 0.997773 -0.052706 0.040880
0.320115 0.059345 0.236681 -0.691286 0.615055 0.379251
0.547169 0.047840 0.254512 -0.254995 0.964700 0.065811
0.308105 0.092383 0.158804 0.008458 0.831384 -0.555635
0.327009 0.217351 0.948431 0.013365 0.972859 0.231011
0.565998 0.113479 0.839691 0.276502 -0.372600 -0.885842
0.436752 0.073894 0.255878 -0.155579 -0.973083 -0.170015
0.152864 0.104706 0.191941 0.296033 0.144973 -0.944112
0.413197 0.114096 0.683814 0.106593 0.993945 0.026670
0.159619 0.037921 0.397967 -0.818712 -0.523959 -0.234898
0.360882 0.062175 0.500120 -0.882637 0.469875 0.013012
0.445899 0.069367 0.547223 -0.912658 0.371164 -0.171152
0.172835 0.039536 0.443967 -0.316957 -0.945904 -0.069316
0.345131 0.036325 0.418228 -0.015698 -0.999107 -0.039228
0.221477 0.044791 0.626899 0.170867 0.971425 -0.164737
0.341181 0.036481 0.490003 -0.003528 -0.999570 -0.029125
0.473750 0.149898 0.844301 -0.016947 0.830035 0.557454
0.244920 0.113463 0.460830 -0.123611 0.991316 -0.044862
0.116694 0.056018 0.832330 0.055636 0.842306 -0.536120
0.065368 0.070532 0.849379 -0.047977 -0.490313 0.870225
0.162614 0.097666 0.819233 0.149216 -0.615024 0.774261
0.214616 0.076106 0.116755 0.037377 0.995118 0.091343
0.484897 0.135759 0.932288 0.999932 -0.009470 -0.006843
0.051735 0.153376 0.249752 -0.989252 0.145417 -0.015319
0.071122 0.090526 0.759950 -0.001852 0.107699 0.994182
0.456146 0.121587 0.222413 0.169634 -0.625668 0.761422
0.459097 0.096167 0.756500 -0.101238 0.037674 -0.994149
0.447731 0.070768 0.761837 -0.117691 -0.477566 -0.870678
0.122608 0.139243 0.872545 -0.980718 -0.046646 -0.189782
0.355481 0.114044 0.584692 -0.085499 0.996299 0.008873
0.158894 0.080879 0.214570 0.953408 0.077818 0.291474
0.245577 0.176745 0.735404 -0.273058 0.961993 0.003011
0.183909 0.113962 0.372930 -0.050712 0.993482 -0.102089
0.336040 0.067204 0.588167 -0.031132 0.865309 -0.500271
0.558825 0.048787 0.287414 0.927685 0.301259 -0.220553
0.283833 0.036319 0.429618 -0.072203 -0.996419 -0.043999
0.530594 0.134998 0.751439 0.014732 0.612902 -0.790021
0.366721 0.102806 0.668970 0.878350 -0.476647 -0.036177
0.533360 0.133366 0.783066 -0.159818 -0.857897 0.488334
0.536131 0.054652 0.202507 0.033688 -0.558043 -0.829128
0.373404 0.075587 0.643073 0.959153 0.282229 0.019280
0.293256 0.213900 0.962405 0.130769 -0.972484 0.192806
0.251130 0.074134 0.132105 0.019815 0.992073 0.124091
0.173614 0.067942 0.138211 0.339938 -0.892230 0.297268
0.138624 0.091655 0.212868 -0.187321 0.038542 0.981542
0.126367 0.047979 0.824564 0.052618 -0.919958 0.388471
0.404966 0.044840 0.466698 -0.152620 0.988015 -0.023096
0.069497 0.115746 0.845802 0.212670 -0.373035 -0.903115
0.514849 0.128117 0.864563 0.005971 0.505320 0.862911
0.367485 0.036579 0.456234 0.055726 -0.998264 -0.019057
0.310217 0.036420 0.565454 -0.019390 -0.999749 -0.011257
0.122413 0.191354 0.900562 -0.999992 -0.002732 -0.002961
0.417670 0.114053 0.663710 0.101430 0.994547 0.024241
0.154006 0.098413 0.295413 0.246217 -0.045412 -0.968150
0.093333 0.084563 0.326536 -0.013442 -0.134540 0.990817
0.439625 0.216318 0.967618 -0.168771 0.959015 0.227610
0.369692 0.109897 0.466866 -0.042826 -0.998384 -0.037350
0.559235 0.052076 0.236539 0.933180 0.326517 0.150206
0.472924 0.099077 0.899773 -0.485978 -0.866874 -0.111152
0.180211 0.072965 0.365796 0.800715 0.510307 0.313754
0.159723 0.093506 0.874206 0.032234 0.015758 0.999356
0.194636 0.044837 0.371805 0.227280 0.970584 0.079438
0.033265 0.121524 0.765925 -0.223026 -0.552784 0.802925
0.167104 0.087079 0.517689 0.991805 0.006700 -0.127587
0.535033 0.028946 0.783149 0.017208 -0.940981 -0.338022
0.580620 0.048839 0.794227 0.631478 0.754947 0.176891
0.276548 0.132307 0.335428 -0.602748 0.782139 -0.157966
0.536823 0.152023 0.223660 0.034525 0.863287 -0.503531
0.293500 0.055641 0.549683 0.158856 0.947641 -0.277022
0.541072 0.109584 0.192435 0.039266 0.248646 -0.967798
0.086973 0.140588 0.814503 -0.008350 -0.983730 -0.179456
0.071449 0.111526 0.300856 0.276123 -0.364558 -0.889299
0.094223 0.045896 0.811325 -0.004248 0.992899 -0.118884
0.088261 0.078360 0.325341 -0.019078 -0.227506 0.973590
0.337551 0.114210 0.447866 -0.180911 0.981358 0.064863
0.215338 0.087414 0.719637 0.904875 -0.329432 -0.269584
0.245864 0.219424 0.875773 0.058000 0.733540 -0.677167
0.523805 0.137150 0.311235 0.020053 0.634146 0.772954
0.414242 0.114001 0.516731 -0.003472 0.999982 -0.004988
0.294159 0.036319 0.321448 -0.083224 -0.994079 -0.069856
0.477193 0.027962 0.239270 -0.031689 -0.961045 -0.274570
0.548110 0.129885 0.245016 0.668745 -0.732650 0.126508
0.545337 0.072113 0.762775 0.023193 0.454983 0.890198
0.099851 0.049683 0.786379 -0.001073 0.914922 0.403630
0.484897 0.076332 0.948957 0.997874 -0.053354 0.037421
0.298069 0.074728 0.588167 0.182141 0.789130 -0.586599
0.091927 0.127621 0.839456 -0.005565 -0.713067 -0.701074
0.530772 0.117239 0.848872 0.052121 0.460113 0.886329
0.063808 0.075178 0.759981 -0.048865 -0.346321 -0.936842
0.088574 0.132949 0.235414 0.223438 -0.847157 0.482080
0.274677 0.128929 0.588167 -0.017602 0.108716 -0.993917
0.151547 0.049484 0.271974 -0.286866 0.898679 -0.331790
0.263392 0.045367 0.088786 0.084127 -0.993463 0.077165
0.190416 0.068750 0.620206 0.867909 0.440770 -0.229032
0.113830 0.154029 0.226946 0.009362 0.883846 -0.467684
0.125942 0.158987 0.786237 0.013473 0.956498 -0.291428
0.134386 0.094274 0.964043 0.976563 -0.047251 0.209982
0.266928 0.107084 0.462752 0.685495 -0.710951 0.156985
0.410892 0.036953 0.563298 0.172939 -0.984617 0.024938
0.427649 0.060757 0.788819 -0.979988 -0.198895 0.008062
0.243706 0.175627 0.775060 -0.407730 0.911280 0.057661
0.266054 0.109898 0.633449 0.132200 -0.989592 0.056845
0.167415 0.076225 0.118935 0.100324 0.987685 0.120058
0.394289 0.211766 0.926585 -0.064608 -0.993711 0.091457
0.144464 0.137583 0.792996 -0.269340 -0.919505 0.286298
0.141388 0.131934 0.315253 0.039928 0.573856 0.817982
0.337796 0.211047 0.893026 0.104106 -0.993891 -0.036644
0.298766 0.148530 0.800155 -0.575864 0.786619 0.222735
0.490727 0.106302 0.853261 -0.048031 0.261514 0.964004
0.389894 0.073413 0.136681 -0.071419 0.985040 0.156831
0.245660 0.095775 0.612709 -0.919593 -0.392527 -0.016476
0.252137 0.085891 0.820143 -0.825529 0.311296 0.470740
0.548121 0.057652 0.747634 0.024545 -0.514893 -0.856903
0.195230 0.079271 0.333856 0.733034 0.283930 -0.618098
0.530645 0.091050 0.851482 -0.109748 0.065172 -0.991821
0.357222 0.114044 0.599799 -0.056340 0.998313 0.014006
0.131161 0.046253 0.209332 0.028596 -0.697244 -0.716263
0.066028 0.079034 0.851498 -0.020143 0.291899 -0.956237
0.484897 0.082865 0.938390 0.998202 -0.058986 0.010634
0.547170 0.045821 0.810341 0.024265 0.993904 -0.107544
0.466451 0.080143 0.456544 0.961030 -0.264202 -0.081357
0.438850 0.112250 0.631953 0.330284 0.936192 0.120241
0.515819 0.045892 0.800215 0.006587 0.993619 0.112595
0.476847 0.084604 0.758641 -0.015376 0.177633 0.983977
0.161713 0.046304 0.037400 -0.981675 -0.096013 -0.164606
0.151861 0.116458 0.234521 -0.971589 0.141454 -0.189752
0.470515 0.127976 0.902753 -0.156157 0.987188 0.032793
0.517551 0.090737 0.851461 -0.099489 0.082463 -0.991616
0.185726 0.106472 0.428195 0.107131 -0.994182 0.011225
0.025290 0.110207 0.848366 -0.513584 -0.371924 -0.773242
0.144851 0.213749 0.894080 0.402294 -0.903863 -0.145571
0.570235 0.112595 0.740571 0.155181 0.291227 -0.943984
0.078989 0.071817 0.846186 0.096386 0.373810 -0.922483
0.488311 0.079193 0.851535 -0.008939 0.301531 -0.953414
0.427318 0.113941 0.609921 0.093699 0.995439 0.017925
0.081618 0.106871 0.849621 0.117683 -0.364179 -0.923864
0.352630 0.036424 0.468617 0.002545 -0.999537 -0.030307
0.200519 0.116474 0.919414 0.145511 -0.988291 0.045909
0.496238 0.078994 0.192046 -0.010577 -0.215405 -0.976467
0.348749 0.106821 0.406082 -0.426819 -0.902839 0.052020
0.430416 0.045459 0.035282 -0.082805 -0.479987 -0.873359
0.148023 0.213945 0.938530 0.501135 -0.862150 0.074577
0.526392 0.063092 0.320068 0.022885 -0.451462 0.891997
0.283428 0.036291 0.322366 -0.093609 -0.993169 -0.069663
0.168810 0.088374 0.756683 0.097440 -0.131116 -0.986567
0.306984 0.051974 0.038570 -0.114823 0.959010 -0.259066
0.505177 0.096014 0.757927 0.000586 -0.052700 0.998610
0.213073 0.081850 0.714077 0.768858 -0.403696 -0.495869
0.358262 0.036587 0.656115 0.032451 -0.999464 0.004286
0.438686 0.104413 0.431481 -0.403659 -0.914232 0.035200
0.580316 0.058350 0.771022 0.113373 -0.671520 -0.732262
0.258381 0.081376 0.255721 -0.933091 0.305391 -0.189938
0.300005 0.155310 0.773803 -0.514085 0.832349 0.207151
0.576046 0.084288 0.756720 0.323445 0.194266 0.926091
0.271173 0.036304 0.500095 -0.070851 -0.997116 -0.027186
0.536401 0.049570 0.786655 0.018186 0.920395 0.390567
0.158345 0.121142 0.764880 0.062672 0.540179 -0.839213
0.348951 0.068877 0.313117 -0.977197 -0.067261 0.201401
0.145393 0.045548 0.817072 0.062268 -0.967623 0.244599
0.223325 0.078054 0.313873 -0.750113 -0.023331 0.660898
0.308222 0.114867 0.895761 0.016866 -0.769862 -0.637987
0.494190 0.135157 0.831921 0.003574 0.844744 0.535159
0.171495 0.044661 0.813394 0.075230 -0.980163 0.183362
0.439611 0.070722 0.377517 -0.978006 0.036387 0.205379
0.276989 0.036338 0.577036 -0.049984 -0.998712 -0.008725
0.223670 0.038214 0.621306 -0.157839 -0.987465 -0.000462
0.174880 0.054246 0.774065 0.356634 0.707964 0.609589
0.553610 0.111953 0.761585 0.027945 -0.374277 0.926896
0.370323 0.076050 0.413653 0.990145 0.137035 -0.028872
0.496624 0.025880 0.816588 -0.004170 -0.986971 0.160842
0.500854 0.054351 0.829603 -0.042374 0.837954 -0.544093
0.096140 0.108354 0.739112 -0.003142 0.219237 -0.975667
0.173294 0.063580 0.565961 0.952870 0.236962 -0.189441
0.166465 0.045679 0.512141 0.825610 0.558816 -0.078059
0.234088 0.044770 0.618034 -0.130705 0.985731 -0.106072
0.215471 0.044790 0.446643 -0.300412 0.952661 0.046797
0.270015 0.127350 0.704178 -0.910107 0.412898 0.034943
0.362065 0.114044 0.467644 -0.179006 0.983443 -0.028211
0.437236 0.057092 0.820899 0.632924 0.767266 -0.103492
0.346822 0.136910 0.402588 0.623658 0.773885 -0.110241
0.397111 0.044840 0.475497 -0.064244 0.997660 -0.023394
0.249753 0.095600 0.801508 -0.066080 0.985564 0.155873
0.490836 0.138919 0.812625 -0.023606 -0.988005 -0.152606
0.291982 0.110473 0.287637 0.603349 -0.731007 0.318745
0.484897 0.196291 0.941226 0.999972 -0.000388 -0.007434
0.172730 0.124035 0.949476 0.061180 0.991216 0.117251
0.353502 0.127802 0.398925 0.586853 0.802813 -0.105336
0.180343 0.127870 0.904812 0.199994 0.979403 0.027801
0.568034 0.067560 0.765314 0.071298 0.551853 0.830888
0.537560 0.052343 0.832808 0.063291 -0.846600 0.528454
0.472924 0.238571 0.918899 -0.671748 0.722617 0.163032
0.407997 0.082028 0.291509 0.325805 0.909649 0.257661
0.288781 0.147199 0.401260 -0.441996 0.891474 -0.099564
0.519311 0.048499 0.857093 0.008471 -0.661628 0.749785
0.447932 0.057763 0.064998 -0.420385 0.676952 -0.604162
0.158836 0.081321 0.849943 -0.232423 0.357188 -0.904653
0.345238 0.114210 0.413534 -0.427051 0.902396 0.057526
0.541423 0.111590 0.324620 0.039621 0.251618 0.967015
0.150947 0.041053 0.467210 -0.373689 -0.926942 -0.033680
0.304045 0.106095 0.345952 -0.146331 0.905501 -0.398316
0.174775 0.102323 0.415672 0.634458 -0.768602 0.081940
0.550898 0.135296 0.268604 -0.837219 -0.538839 -0.093363
0.472924 0.102319 0.926031 -0.543813 -0.839203 -0.002419
0.367022 0.077022 0.742950 0.573078 -0.748399 -0.333888
0.456902 0.071762 0.228429 -0.634079 0.497820 0.591709
0.385707 0.078687 0.729123 -0.534549 0.664100 -0.522713
0.269912 0.036276 0.400046 -0.091713 -0.994471 -0.051138
0.472924 0.169890 0.911194 -0.911890 -0.365075 -0.187556
0.456606 0.118082 0.941332 -0.268489 -0.960089 0.078380
0.430727 0.102255 0.854249 -0.154680 0.212365 0.964871
0.228969 0.064938 0.834305 0.294935 -0.902488 -0.313893
0.075760 0.109094 0.848840 0.164435 -0.395540 -0.903609
0.380490 0.114192 0.366014 0.227713 0.970798 -0.075490
0.446261 0.128903 0.275652 -0.926664 0.341137 0.157856
0.305014 0.055640 0.322265 0.087252 0.995926 0.022783
0.140984 0.125889 0.865929 0.021851 0.483563 0.875037
0.361965 0.124485 0.943276 -0.008460 0.996684 0.080926
0.559437 0.119545 0.313809 0.990452 0.054004 0.126841
0.484897 0.095806 0.918668 0.996957 -0.067358 -0.039248
0.384650 0.210400 0.894349 0.032087 -0.999484 -0.001144
0.062443 0.116007 0.848062 -0.022135 -0.479321 -0.877360
0.463592 0.037409 0.550551 0.416394 -0.908647 0.031258
0.163744 0.138047 0.857432 0.034582 0.664779 0.746239
0.170557 0.056938 0.837868 0.233168 0.736811 -0.634619
0.529159 0.103749 0.303399 -0.105788 -0.266053 -0.958136
0.095514 0.092441 0.757808 -0.003511 0.023086 0.999727
0.175079 0.039665 0.472554 -0.311781 -0.949378 -0.038389
0.203008 0.073731 0.786198 -0.067278 -0.997235 -0.031572
0.348449 0.055640 0.471497 -0.192750 0.980903 0.026017
0.188261 0.049056 0.087212 0.209412 0.973716 -0.089579
0.182315 0.071909 0.141472 0.602913 -0.003885 0.797797
0.131760 0.116200 0.974939 0.853886 -0.012237 0.520316
0.210055 0.037207 0.349145 -0.198817 -0.965925 -0.165714
0.113525 0.078971 0.739020 0.006570 -0.215147 -0.976560
0.112370 0.075945 0.216357 -0.018790 0.401347 0.915733
0.310839 0.036394 0.454198 -0.040657 -0.998452 -0.037946
0.181731 0.064534 0.257203 -0.375554 -0.840541 -0.390448
0.181237 0.068765 0.591102 0.914724 0.337118 -0.222782
0.229178 0.117854 0.936974 0.051070 -0.996365 0.068187
0.126639 0.029136 0.281821 0.023558 -0.938350 0.344884
0.150922 0.082512 0.285613 0.827911 -0.400311 -0.392829
0.075730 0.081987 0.234299 0.120233 -0.929032 0.349921
0.292303 0.055640 0.479914 0.193654 0.963971 -0.182366
0.484871 0.231902 0.888451 0.999993 -0.000704 0.003723
0.168947 0.119145 0.952480 0.165365 -0.982566 0.084966
0.058202 0.092021 0.853636 -0.024568 0.018777 -0.999522
0.376514 0.106815 0.398032 0.445881 -0.894960 -0.015390
0.385533 0.104124 0.680636 0.130126 -0.988812 -0.072921
0.216566 0.100151 0.681467 0.495445 -0.676460 -0.544918
0.284914 0.118822 0.958989 -0.000163 -0.963016 0.269444
0.181024 0.077111 0.782741 0.998654 -0.039063 -0.034121
0.368479 0.110174 0.326413 -0.395298 -0.166372 -0.903360
0.317853 0.036585 0.698782 -0.010030 -0.999878 0.012005
0.364120 0.036586 0.744810 0.040077 -0.999077 0.015450
0.411202 0.113075 0.712193 0.280474 0.943234 0.177888
0.350012 0.129384 0.374829 0.573135 0.810755 -0.119138
0.030413 0.073905 0.760224 -0.308304 0.393764 0.865967
0.072004 0.151742 0.841292 -0.016614 0.849541 0.527261
0.470843 0.142475 0.306508 -0.038735 0.724733 0.687940
0.309176 0.041996 0.044303 0.018911 -0.999452 0.027173
0.430870 0.133815 0.815206 -0.714421 -0.691584 -0.106370
0.401190 0.037302 0.441499 0.229239 -0.973193 -0.018592
0.538510 0.050404 0.784641 0.019342 0.901984 0.431335
0.111750 0.079212 0.872517 0.005572 -0.205966 0.978543
0.436948 0.141576 0.811864 -0.180706 -0.974005 -0.136597
0.356773 0.091294 0.428311 -0.937123 -0.339277 0.081799
0.261581 0.114525 0.529313 0.976505 -0.215125 0.012622
0.056769 0.118760 0.765101 -0.025375 -0.518370 0.854780
0.263550 0.117053 0.325530 -0.679542 0.702980 -0.209863
0.472924 0.124849 0.945772 -0.296874 0.944997 0.137285
0.126827 0.124316 0.842338 0.014138 -0.639202 -0.768909
0.374130 0.048976 0.619572 0.760131 0.649564 -0.016346
0.448314 0.210680 0.908342 -0.160795 -0.986052 0.042969
0.219577 0.085363 0.733495 0.977034 -0.004585 -0.213035
0.309643 0.132285 0.341540 0.027506 -0.970804 0.238294
0.352751 0.055641 0.521577 -0.155434 0.984562 -0.080489
0.261181 0.114283 0.567514 0.976797 -0.213800 0.012517
0.403359 0.044793 0.551945 -0.159446 0.985663 -0.055176
0.295533 0.114209 0.382794 -0.017268 0.998271 -0.056181
0.316192 0.036381 0.344854 -0.056860 -0.996318 -0.064165
0.138119 0.104147 0.757605 0.082455 0.202122 -0.975883
0.133087 0.172976 0.974947 0.880969 0.033633 0.471977
0.226481 0.106792 0.572415 0.076146 -0.996406 -0.037118
0.226448 0.067626 0.135457 0.256363 -0.920190 0.295851
0.063447 0.102348 0.818353 -0.345623 0.931200 -0.115808
0.260132 0.100798 0.586172 0.462450 0.360383 -0.810101
0.356093 0.055640 0.365685 -0.510136 0.859340 0.036000
0.181024 0.093245 0.780031 0.995721 0.053917 -0.075049
0.278345 0.057843 0.905148 -0.644155 -0.635660 0.425443
0.295475 0.122631 0.315798 0.466150 -0.845882 0.259205
0.250423 0.109897 0.460873 0.015896 -0.999504 -0.027181
0.441195 0.067573 0.133476 -0.169611 -0.965994 0.195162
0.083723 0.071670 0.740886 -0.010050 -0.314143 -0.949322
0.456653 0.037452 0.446182 0.534707 -0.843035 -0.058139
0.052227 0.154893 0.247309 -0.942799 0.330037 -0.046965
0.132498 0.133872 0.874286 0.817496 -0.040254 -0.574525
0.076275 0.031179 0.777757 -0.014224 -0.909456 -0.415558
0.278194 0.110443 0.239549 -0.615386 0.718855 -0.323338
0.541203 0.128060 0.288809 -0.116275 -0.769332 -0.628179
0.273309 0.116673 0.937622 -0.007079 -0.980322 0.197276
0.197644 0.100116 0.341894 0.502913 -0.809632 0.302614
0.259677 0.098681 0.499998 0.991861 -0.127200 0.005688
0.365550 0.044315 0.074095 -0.026732 -0.997764 0.061263
0.280374 0.121178 0.353949 0.733668 -0.659989 0.161697
0.183329 0.071679 0.790734 0.308379 0.866826 -0.391810
0.122413 0.246947 0.878951 -0.855632 0.494996 -0.151238
0.209346 0.106641 0.511856 -0.011674 -0.999905 -0.007314
0.167415 0.039507 0.067555 0.489837 -0.871236 0.031744
0.305984 0.211460 0.887107 0.140697 -0.986339 -0.085666
0.338168 0.212734 0.942919 0.056642 -0.988582 0.139630
0.174738 0.127514 0.829142 -0.923206 0.305683 0.232915
0.409595 0.114122 0.695706 0.112155 0.993291 0.028186
0.456511 0.132156 0.775145 -0.104187 0.768050 -0.631858
0.510740 0.113930 0.849072 0.003694 -0.428837 -0.903374
0.555673 0.103864 0.759008 0.029090 -0.203667 0.978608
0.098858 0.028176 0.785313 -0.001613 -0.954158 -0.299299
0.072402 0.114440 0.762616 -0.016543 -0.430772 0.902309
0.160899 0.159559 0.788620 0.032984 0.963453 -0.265839
0.224173 0.110824 0.469322 -0.270386 -0.958989 -0.085039
0.381058 0.082373 0.745391 -0.258625 0.961938 -0.088257
0.135698 0.111522 0.851528 0.075212 0.375558 0.923742
0.237656 0.114044 0.464540 -0.147919 0.988589 -0.028504
0.040903 0.048396 0.821998 -0.034325 0.934644 -0.353925
0.319299 0.127524 0.331891 -0.286835 -0.922143 0.259571
0.164038 0.094149 0.757780 0.035081 -0.030309 0.998925
0.524822 0.117479 0.844744 -0.178392 -0.452970 -0.873496
0.483464 0.161521 0.811100 -0.011554 0.997242 0.073310
0.090368 0.050781 0.781115 -0.021518 -0.859369 -0.510904
0.300984 0.211596 0.899286 0.178795 -0.983489 -0.027967
0.365203 0.036588 0.635520 0.039522 -0.999218 0.001244
0.197036 0.213178 0.923274 0.399409 -0.916301 0.029403
0.110988 0.037173 0.297540 0.006189 -0.822406 0.568867
0.495892 0.161181 0.815439 -0.004620 0.990139 0.140014
0.059895 0.136110 0.251220 0.636806 -0.743809 0.203042
0.025092 0.053975 0.758428 -0.969256 -0.144767 -0.198961
0.257310 0.068854 0.146684 0.169601 -0.946361 0.275020
0.298883 0.036254 0.157861 -0.006266 -0.993452 -0.114075
0.237017 0.066737 0.839516 0.590907 -0.510437 -0.624726
0.221935 0.037142 0.501737 -0.187560 -0.981906 -0.026112
0.213687 0.042873 0.057332 0.090317 -0.995001 0.042604
0.317025 0.126838 0.327364 -0.209673 -0.938832 0.273187
0.256359 0.105357 0.326168 -0.786498 0.581755 -0.207321
0.363604 0.221324 0.879117 -0.023195 0.923706 -0.382399
0.167415 0.051177 0.120169 0.785248 0.257417 0.563137
0.580619 0.056395 0.778477 0.536970 0.718962 0.441312
0.056463 0.146749 0.848462 -0.025265 0.772306 0.634748
0.289877 0.217812 0.940739 0.085120 0.972859 0.215174
0.553173 0.045939 0.756571 0.027295 -0.685151 -0.727889
0.043444 0.059749 0.746349 -0.032534 -0.480351 -0.876473
0.427380 0.068708 0.858630 -0.989077 -0.052239 0.137833
0.286335 0.153676 0.624038 -0.772557 0.634759 0.015389
0.134386 0.161826 0.970923 0.873516 -0.369587 0.316819
0.420494 0.051804 0.042664 -0.238382 0.959297 -0.151406
0.185355 0.046601 0.341719 -0.472235 -0.828182 -0.301842
0.235122 0.044747 0.586734 -0.296607 0.952444 -0.069819
0.272197 0.036585 0.614533 -0.060131 -0.998184 0.003538
0.318506 0.176183 0.615412 0.974961 0.222367 0.002034
0.382267 0.044202 0.333856 -0.001368 0.987549 -0.157306
0.166862 0.049375 0.517857 0.891804 0.443048 -0.091621
0.271599 0.149879 0.758791 0.686492 0.711465 0.150151
0.145326 0.131620 0.836869 0.068679 0.781312 0.620350
0.370469 0.054998 0.334294 0.994025 0.086283 -0.066857
0.155841 0.047981 0.812239 -0.186000 0.972719 -0.138641
0.336015 0.139966 0.478559 -0.807184 -0.539430 0.239729
0.142806 0.127924 0.900887 0.281750 0.956623 -0.074095
0.122413 0.201963 0.971200 -0.937750 0.073640 0.339414
0.339941 0.055640 0.317042 -0.406481 0.910608 0.074607
0.352008 0.060036 0.588167 -0.118830 0.906567 -0.404989
0.148692 0.138980 0.799433 -0.153707 -0.980947 0.118819
0.051873 0.138882 0.300092 -0.978275 0.147745 0.145429
0.140345 0.127679 0.289288 -0.125656 -0.738960 -0.661928
0.026003 0.141043 0.818394 -0.118358 0.944938 0.305097
0.435978 0.210750 0.909587 -0.127509 -0.990652 0.048470
0.323575 0.036585 0.721399 -0.003556 -0.999887 0.014628
0.122413 0.169318 0.944526 -0.999963 -0.000641 0.008542
0.566919 0.138356 0.815047 -0.224092 -0.959352 -0.171541
0.575187 0.154858 0.831928 0.387401 0.841952 0.375549
0.458208 0.065549 0.766712 -0.025852 0.571863 0.819942
0.251742 0.177777 0.735130 0.103189 0.994658 0.002718
0.367319 0.036262 0.501145 0.020658 -0.999710 -0.012415
0.418914 0.106901 0.346355 0.083366 0.942759 -0.322887
0.554273 0.125376 0.226588 -0.283128 -0.652916 0.702524
0.465273 0.044096 0.577018 0.861951 -0.499303 0.087960
0.441319 0.219736 0.921225 -0.210974 0.974923 0.070815
0.276134 0.037178 0.727007 -0.026403 -0.999630 0.006591
0.214361 0.037137 0.452103 -0.206744 -0.975260 -0.078264
0.430142 0.051112 0.809380 -0.831933 0.554630 -0.016548
0.096772 0.048337 0.856956 -0.002791 -0.661951 0.749542
0.184958 0.039437 0.627514 -0.446947 -0.887602 0.111360
0.122413 0.164792 0.964125 -0.999794 -0.001350 0.020262
0.456579 0.057234 0.233392 0.384017 0.794751 0.470002
0.540686 0.085807 0.812735 0.999182 0.028073 0.029097
0.342846 0.121957 0.744745 0.319808 0.797919 0.510929
0.322073 0.036585 0.713924 -0.005279 -0.999892 0.013740
0.457273 0.062871 0.280132 0.993706 -0.110381 0.019109
0.053352 0.085670 0.194108 -0.763426 -0.054272 -0.643611
0.095572 0.142815 0.806323 0.006793 0.999697 0.023639
0.463109 0.100996 0.760339 0.030130 -0.176862 0.983774
0.236191 0.120749 0.895253 0.056650 -0.193421 -0.979479
0.357508 0.097319 0.482617 -0.743994 -0.662743 0.085119
0.210509 0.106697 0.419923 0.018949 -0.999680 0.016778
0.122499 0.195322 0.943870 -0.999932 -0.000513 -0.011657
0.518562 0.128217 0.288638 -0.016129 -0.777294 -0.628931
0.290558 0.080446 0.246576 0.757968 -0.384382 0.527006
0.147811 0.098418 0.854712 0.079130 0.119118 0.989722
0.155270 0.142966 0.256647 0.963126 0.268973 -0.006466
0.454413 0.057500 0.774153 -0.028064 0.742368 0.669404
0.312368 0.036403 0.474085 -0.035228 -0.998829 -0.033161
0.147902 0.098527 0.462057 -0.996178 0.063625 -0.059851
0.418935 0.104721 0.341228 0.127612 0.903913 -0.408236
0.196768 0.059259 0.721107 -0.843002 -0.263239 0.469097
0.442605 0.127633 0.899979 -0.125625 0.956252 -0.264196
0.233260 0.104251 0.345006 -0.257850 -0.961079 0.099202
0.474901 0.188787 0.869171 -0.695752 0.059873 -0.715782
0.515698 0.130015 0.201103 0.011049 0.538544 -0.842525
0.028002 0.131698 0.782638 -0.532560 -0.710870 0.459395
0.128801 0.025146 0.803887 0.015082 -0.999685 -0.020075
0.242684 0.036255 0.516400 -0.113673 -0.993495 -0.006814
0.168761 0.086314 0.873096 0.188309 -0.090284 0.977951
0.233973 0.165371 0.668426 -0.946860 0.319429 -0.037705
0.224437 0.114210 0.628221 0.028381 0.999528 -0.011732
0.460246 0.116225 0.898489 -0.262817 -0.860918 -0.435599
0.211812 0.084242 0.684863 0.842528 0.290505 -0.453600
0.356536 0.097609 0.791849 0.195456 0.967921 0.157881
0.227817 0.071874 0.709406 0.660942 0.646980 -0.380227
0.326087 0.129191 0.353273 -0.469442 -0.855313 0.219234
0.158017 0.145331 0.256834 0.961002 -0.276284 0.011954
0.281914 0.145613 0.414949 -0.493663 0.865842 -0.081326
0.463393 0.108736 0.325306 -0.047088 0.238797 0.969927
0.151861 0.085224 0.257249 -0.995142 -0.025678 -0.095047
0.539380 0.090424 0.873967 0.019633 -0.053756 0.998361
0.463773 0.085877 0.434666 0.976286 -0.188756 -0.106000
0.297786 0.184102 0.623609 -0.968801 0.243756 0.044801
0.484897 0.170264 0.965981 0.998595 -0.000523 0.052990
0.514682 0.132728 0.829373 0.058251 -0.867861 -0.493381
0.194256 0.106633 0.553295 0.062387 -0.997721 -0.025693
0.454617 0.074367 0.321768 -0.679185 -0.193870 0.707900
0.028471 0.090444 0.850005 -0.547274 0.019065 -0.836736
0.301011 0.036868 0.781664 0.031796 -0.999243 0.022424
0.245950 0.114044 0.603005 0.068877 0.997466 0.017810
0.426957 0.106523 0.693407 0.793025 0.543642 0.274891
0.246465 0.062558 0.360258 -0.975654 0.215532 -0.040568
0.404043 0.218225 0.941488 -0.155894 0.978648 0.133959
0.151861 0.083435 0.225101 -0.954675 -0.100286 -0.280248
0.301235 0.036952 0.741617 -0.009929 -0.999885 0.011440
0.328280 0.218845 0.931189 -0.079083 0.990502 0.112480
0.264823 0.071715 0.860788 -0.968487 0.183436 0.168476
0.126743 0.101628 0.853006 0.014055 -0.163173 -0.986497
0.330540 0.106821 0.393142 -0.298625 -0.953131 0.048614
0.165384 0.045732 0.800900 0.062314 0.991180 0.116960
0.069743 0.098014 0.797581 0.964307 0.115884 -0.238081
0.484897 0.160806 0.894706 0.994895 -0.017875 -0.099324
0.275650 0.073247 0.139113 0.016645 0.986436 0.163303
0.334071 0.109527 0.309235 -0.799843 -0.534338 0.273375
0.291934 0.164215 0.632130 -0.774122 0.632842 0.015681
0.466839 0.087809 0.552218 0.997546 -0.001980 0.069979
0.192595 0.126516 0.920879 0.104490 0.992743 0.059526
0.292823 0.036315 0.321008 -0.084626 -0.993953 -0.069965
0.546539 0.142415 0.800067 0.054765 0.995074 -0.082631
0.178378 0.106030 0.476068 0.190546 -0.981604 -0.012082
0.565473 0.048474 0.796816 -0.285046 0.936790 0.202912
0.345147 0.051215 0.179643 0.947684 -0.021342 -0.318494
0.177804 0.041257 0.352374 -0.717947 -0.569530 -0.400234
0.359882 0.068725 0.455475 -0.998182 0.038796 0.046133
0.512354 0.140944 0.812609 0.004653 -0.989925 -0.141513
0.117302 0.074620 0.763873 -0.040116 0.400042 0.915618
