0.191412 0.113809 0.340256 -0.000821 0.999998 -0.001754
0.196029 0.106849 0.314442 0.998319 0.057325 0.008519
0.203076 0.098403 0.719988 0.999735 -0.023004 -0.001259
0.232625 0.047805 0.183842 -0.750489 -0.617037 -0.236709
0.047840 0.106803 0.843511 -0.418301 -0.461956 -0.782062
0.373451 0.046493 0.163599 -0.088713 0.877540 0.471225
0.319400 0.078482 0.598267 0.999968 0.000000 -0.008012
0.067638 0.113734 0.397985 0.001545 0.999998 -0.001228
0.081560 0.107480 0.251512 -0.026138 0.265250 0.963825
0.340670 0.035804 0.526208 -0.022807 -0.999604 0.016504
0.108435 0.025908 0.173220 0.027088 -0.971292 -0.236342
0.235975 0.146821 0.188576 -0.991913 0.072481 0.104183
0.091999 0.085686 0.266257 0.000179 -0.494912 -0.868943
0.306260 0.126129 0.818107 0.794274 0.481578 0.370421
0.466758 0.104146 0.573355 0.967586 -0.001084 0.252539
0.121866 0.081550 0.779210 -0.253124 -0.876380 -0.409740
0.151163 0.035190 0.496754 0.000434 -0.999932 0.011640
0.258610 0.031548 0.237458 -0.030395 -0.967123 -0.252486
0.283881 0.030373 0.604222 0.000000 -0.997742 -0.067156
0.260047 0.051747 0.908808 0.001061 0.998390 0.056708
0.265587 0.132053 0.341619 0.037309 0.707459 -0.705769
0.220412 0.150841 0.132843 0.676454 -0.736485 -0.000010
0.400634 0.156501 0.209717 -0.032964 0.943200 0.330587
0.250584 0.030373 0.663334 0.000000 -0.999887 -0.015062
0.295208 0.138792 0.815643 0.482989 0.733191 0.478699
0.380141 0.129961 0.784541 -0.349805 0.864441 -0.361079
0.200785 0.148327 0.723382 -0.845314 0.534182 -0.009673
0.039621 0.060014 0.220994 -0.093233 0.603450 -0.791932
0.242700 0.031543 0.417776 0.000000 -0.999810 -0.019517
0.213401 0.165075 0.171923 -0.914425 0.404755 0.000001
0.196343 0.127293 0.519244 -0.998990 0.003442 -0.044796
0.325278 0.110070 0.148639 -0.802127 0.597153 0.000010
0.132434 0.101826 0.135051 0.070687 -0.239094 0.968420
0.228287 0.075293 0.281721 -0.269024 -0.233878 -0.934306
0.119228 0.084417 0.234731 0.012647 -0.120805 0.992596
0.308554 0.168141 0.562094 0.948339 0.315986 0.028404
0.369395 0.035239 0.311757 -0.000509 -0.976661 -0.214784
0.096415 0.081746 0.790740 0.212705 0.333332 -0.918502
0.319400 0.098468 0.631219 0.999989 0.000000 -0.004789
0.097983 0.041537 0.812800 -0.025386 0.967022 -0.253423
0.211853 0.097981 0.862119 -0.977126 0.001770 0.212653
0.148604 0.109655 0.565473 -0.000997 0.995830 0.091223
0.410876 0.041145 0.807999 -0.014396 -0.989975 0.140504
0.082275 0.042021 0.191736 -0.024219 0.994037 -0.106321
0.340296 0.035509 0.278399 -0.017488 -0.674443 -0.738119
0.195289 0.096906 0.439842 0.999998 0.001768 0.000419
0.372460 0.068537 0.121533 -0.073677 -0.293852 -0.953007
0.156207 0.029640 0.159612 0.082807 -0.928114 -0.362970
0.312002 0.109907 0.606515 -0.962102 -0.086316 0.258668
0.426936 0.103946 0.803599 0.269203 -0.477684 -0.836270
0.415873 0.035031 0.376598 0.001816 -0.999998 0.000000
0.260302 0.202434 0.057664 -0.000959 -0.900178 -0.435522
0.079100 0.156499 0.160787 -0.024459 0.954600 -0.296885
0.127713 0.044555 0.168891 0.016953 -0.927593 -0.373207
0.319038 0.055033 0.500608 -0.999984 0.001848 0.005392
0.477437 0.089609 0.330837 0.998791 0.000935 0.049143
0.223557 0.205744 0.590479 -0.485409 0.135659 -0.863699
0.366642 0.035801 0.526583 -0.000485 -0.999864 0.016515
0.205106 0.139134 0.799624 -0.790821 0.454305 0.410134
0.046598 0.125540 0.125664 -0.095563 0.489188 -0.866927
0.204981 0.166029 0.190795 0.650326 -0.759655 -0.000056
0.421807 0.079359 0.166354 0.966547 -0.027582 0.255002
0.084007 0.046314 0.959241 0.366625 0.552950 0.748219
0.055977 0.128196 0.282522 0.001929 0.911712 0.410825
0.120679 0.159739 0.197603 0.046815 0.969428 0.240870
0.067194 0.115429 0.779843 -0.027783 0.786716 -0.616689
0.220902 0.031544 0.374774 -0.009537 -0.999910 -0.009477
0.223993 0.133557 0.316442 0.343986 0.720366 0.602285
0.337411 0.103679 0.351148 0.971423 0.000518 -0.237355
0.439766 0.041854 0.185084 0.006177 0.999927 -0.010338
0.307358 0.112308 0.836079 0.980585 0.071239 0.182697
0.295731 0.047307 0.200292 0.980021 -0.124948 -0.154749
0.274166 0.220033 0.650170 0.378333 0.923321 0.065891
0.372180 0.086858 0.802815 -0.156057 -0.112949 0.981269
0.081849 0.035277 0.302304 0.000483 -0.925447 -0.378877
0.358756 0.063201 0.661915 -0.018156 -0.375933 0.926469
0.229626 0.084210 0.580928 0.331975 0.440561 0.834086
0.422869 0.124631 0.291120 -0.001966 0.919739 0.392525
0.147299 0.085662 0.117405 0.090988 -0.053108 -0.994435
0.423737 0.127985 0.216821 0.002642 -0.797556 -0.603239
0.116597 0.086798 0.845445 0.021259 0.140484 0.989855
0.125696 0.060323 0.813239 0.218301 -0.972194 -0.084753
0.104434 0.053340 0.774718 0.008876 -0.619442 -0.784992
0.322223 0.183257 0.166389 0.003194 0.145496 0.989354
0.199829 0.147332 0.743542 -0.867943 0.496361 -0.017346
0.373277 0.103944 0.403401 0.049678 0.973383 -0.223737
0.346165 0.106487 0.156388 0.956593 0.291426 -0.000012
0.409083 0.035010 0.336339 0.001539 -0.999988 -0.004646
0.201266 0.149002 0.641975 -0.828458 0.546486 0.122516
0.302942 0.212278 0.036047 0.000339 0.994120 0.108280
0.436195 0.086937 0.235037 0.010969 -0.119779 0.992740
0.445975 0.035097 0.358716 0.002497 -0.999997 0.000142
0.319380 0.137992 0.725413 0.988473 0.151226 -0.007149
0.242705 0.031543 0.415922 0.000000 -0.999821 -0.018905
0.217708 0.152806 0.287820 0.521273 0.804922 0.283503
0.208730 0.031545 0.342878 -0.264206 -0.964067 -0.027733
0.419700 0.204014 0.105227 0.995883 0.090555 0.004020
0.306035 0.060859 0.751969 -0.625874 0.300685 -0.719632
0.405095 0.045419 0.823096 -0.019845 -0.919822 0.391835
0.439377 0.090427 0.330709 0.000000 0.766690 0.642017
0.287248 0.225627 0.565476 0.865427 0.499421 0.040191
0.279353 0.031543 0.481188 0.000000 -0.998495 -0.054836
0.220269 0.168608 0.063991 0.658133 0.752902 -0.000003
0.096061 0.037641 0.602031 0.000491 -0.998181 0.060293
0.417356 0.044328 0.795831 -0.009276 0.991512 0.129681
0.301558 0.066265 0.758927 -0.406552 0.251419 -0.878353
0.287849 0.116183 0.319677 -0.266308 -0.963869 0.006026
0.416979 0.054337 0.852373 -0.056226 -0.490092 0.869855
0.069819 0.109735 0.832126 -0.030372 -0.645443 -0.763204
0.391322 0.150442 0.221216 -0.050424 0.869130 0.492007
0.221288 0.034604 0.184733 -0.774013 -0.624677 -0.103358
0.104431 0.063913 0.841487 0.009585 -0.373323 0.927652
0.475797 0.036540 0.457153 0.653627 -0.756800 -0.005104
0.098968 0.120385 0.812014 0.004532 -0.992680 -0.120687
0.256515 0.150017 0.581086 0.035967 0.394503 0.918191
0.441946 0.117539 0.225619 0.010720 -0.565522 -0.824664
0.246817 0.204746 0.463765 -0.158545 0.954807 -0.251410
0.195461 0.077316 0.653812 0.886799 0.081432 0.454924
0.470732 0.063519 0.123712 0.083058 -0.491663 -0.866816
0.223449 0.181308 0.626445 -0.852933 -0.024286 -0.521455
0.084174 0.151348 0.228816 0.000059 -0.672155 -0.740411
0.069415 0.059834 0.146278 -0.012454 -0.616479 -0.787273
0.341191 0.105880 0.253940 -0.789932 0.602987 -0.111416
0.109417 0.083859 0.134972 0.007730 -0.140375 -0.990068
0.062269 0.068841 0.840757 -0.028884 0.373156 -0.927319
0.319512 0.095474 0.725974 0.999990 0.000000 -0.004367
0.302081 0.031545 0.329797 0.168494 -0.985406 -0.024163
0.063560 0.058083 0.222061 -0.016306 -0.607966 0.793795
0.318576 0.088719 0.482313 0.998114 0.000000 -0.061395
0.272096 0.030971 0.834061 0.000000 -0.999995 -0.003223
0.236199 0.078683 0.329853 0.960744 0.268189 0.071035
0.068554 0.076561 0.860017 -0.047136 -0.069055 0.996499
0.196631 0.118762 0.478054 -0.998117 0.000000 -0.061335
0.040904 0.079710 0.136016 -0.082175 0.267785 0.959968
0.419700 0.208623 0.090278 0.989511 0.144047 0.010929
0.254173 0.031543 0.474239 0.000000 -0.999190 -0.040229
0.319400 0.052443 0.708138 0.999994 0.000000 -0.003541
0.470277 0.059762 0.769893 0.100731 0.506839 0.856135
0.416520 0.126093 0.250565 -0.000073 -0.524658 -0.851313
0.191541 0.035210 0.475808 0.462024 -0.886867 0.000285
0.288795 0.043956 0.714054 -0.482184 0.876067 0.002140
0.073134 0.106482 0.600846 0.002050 0.992835 0.119475
0.446287 0.035150 0.479880 -0.000188 -0.999991 0.004196
0.207731 0.051469 0.911730 -0.003286 0.999249 0.038612
0.384722 0.063790 0.143178 -0.016898 -0.616954 -0.786817
0.292260 0.045897 0.950911 0.001763 0.851814 0.523841
0.242481 0.030373 0.659227 0.000000 -0.999825 -0.018683
0.196044 0.097237 0.485771 0.999982 0.001826 -0.005629
0.096241 0.036257 0.565080 0.000492 -0.999709 0.024125
0.431169 0.076453 0.250974 0.040090 -0.249105 0.967646
0.111144 0.044199 0.811606 0.016235 0.989945 -0.140517
0.132771 0.110364 0.774204 0.090239 -0.696778 0.711588
0.348218 0.113630 0.487228 0.000870 0.999935 0.011343
0.087696 0.093459 0.211572 -0.411717 0.789196 -0.455696
0.204565 0.051346 0.327137 -0.994167 -0.041198 -0.099676
0.094454 0.073253 0.162269 0.101776 0.298173 -0.949070
0.330213 0.050074 0.927373 0.009149 0.997107 0.075463
0.104604 0.215023 0.037245 -0.905955 0.422197 -0.031560
0.268476 0.194364 0.077331 -0.000940 -0.911775 -0.410688
0.128114 0.152150 0.218184 0.086108 0.867750 0.489485
0.199368 0.030373 0.607543 -0.230454 -0.972249 -0.040283
0.414136 0.029117 0.790020 -0.040697 -0.967805 -0.248390
0.259983 0.164296 0.798866 -0.009154 0.854550 0.519288
0.063379 0.042532 0.274651 0.000324 -0.633963 -0.773363
0.058234 0.052935 0.158627 -0.018843 0.799275 0.600670
0.202721 0.155754 0.192351 -0.962764 0.262722 -0.063740
0.107928 0.183227 0.126148 0.999205 -0.039000 -0.008281
0.108463 0.050550 0.922559 -0.010176 0.997593 0.068585
0.052710 0.030225 0.212080 -0.076475 -0.915165 0.395758
0.354103 0.090429 0.330496 0.001618 0.755951 0.654627
0.244926 0.130616 0.858833 -0.166745 0.906434 0.388039
0.097374 0.080416 0.860078 0.016364 0.009341 0.999822
0.135042 0.055169 0.241757 0.062959 -0.498138 0.864809
0.122918 0.043470 0.198046 0.013501 -0.972131 0.234048
0.203600 0.151540 0.158241 -0.735406 -0.677627 -0.000017
0.213263 0.162164 0.188431 -0.954092 -0.299514 -0.000002
0.197821 0.143337 0.545986 -0.956133 0.291717 0.026650
0.285759 0.053804 0.580866 -0.234045 0.558714 0.795652
0.421182 0.094265 0.363917 0.000000 0.976269 -0.216562
0.174073 0.202921 0.056589 -0.002117 -0.893719 -0.448622
0.408539 0.113552 0.318456 0.001531 0.945889 0.324486
0.447610 0.036089 0.544063 -0.000509 -0.999807 0.019629
0.107928 0.204165 0.074600 0.988031 0.154159 0.005524
0.356147 0.091277 0.346412 0.005301 0.996736 -0.080557
0.335047 0.108408 0.254932 0.985403 -0.168134 0.026679
0.435416 0.041072 0.810716 0.015328 0.989025 -0.146951
0.477436 0.090249 0.347258 0.999998 0.000773 0.001656
0.477312 0.071884 0.451752 0.999940 0.002515 -0.010685
0.422093 0.048577 0.167165 -0.003378 0.927694 0.373327
0.470479 0.113773 0.426732 0.045483 0.998965 0.000263
0.077241 0.089938 0.137225 -0.008940 0.140714 0.990010
0.207544 0.116622 0.301771 -0.984467 0.004214 -0.175520
0.130757 0.045572 0.165399 0.110153 0.901233 0.419100
0.286948 0.030792 0.790045 0.000000 -0.999998 0.002088
0.441976 0.042811 0.792065 0.014982 -0.927608 -0.373255
0.408313 0.083070 0.762972 -0.016885 0.126308 -0.991847
0.260931 0.030373 0.590486 0.000000 -0.996856 -0.079233
0.068975 0.042121 0.814876 -0.025395 -0.982400 0.185054
0.368744 0.035447 0.284434 -0.000387 -0.751222 -0.660049
0.215342 0.083288 0.235369 -0.934572 0.000000 -0.355775
0.381922 0.085570 0.231761 -0.018919 0.120775 -0.992500
0.039402 0.036539 0.394715 -0.669675 -0.742655 0.000000
0.365966 0.061572 0.124839 -0.089060 -0.502488 -0.859985
0.424457 0.113539 0.480721 -0.001967 0.999963 0.008348
0.319400 0.076739 0.607507 0.999975 0.000000 -0.007108
0.346441 0.101063 0.134886 0.986363 -0.164584 -0.000003
0.205094 0.073143 0.614840 0.881770 0.211542 0.421583
0.105802 0.139243 0.175127 0.005964 -0.990075 0.140411
0.169654 0.093768 0.791678 -0.253874 0.753559 -0.606380
0.418084 0.068518 0.269598 -0.000233 -0.550135 -0.835076
0.073879 0.028810 0.818273 -0.045926 -0.962050 0.268979
0.046173 0.041915 0.190005 -0.096405 0.994565 -0.039317
0.288757 0.045596 0.580845 -0.266391 0.566111 0.780099
0.235646 0.199037 0.091385 0.002147 0.998886 0.047137
0.289486 0.054066 0.907880 0.936637 0.000000 0.350302
0.251590 0.196392 0.119087 -0.002609 0.995781 0.091726
0.370983 0.112876 0.327331 0.212616 0.277425 0.936926
0.129202 0.113811 0.438009 -0.100055 0.993921 -0.045936
0.428633 0.143432 0.182145 0.016743 -0.999781 0.012580
0.399152 0.113148 0.520099 0.005958 0.999224 0.038944
0.369425 0.143005 0.193247 -0.098410 -0.973109 -0.208265
0.398101 0.142571 0.195025 -0.043973 -0.968894 -0.243537
0.381269 0.025001 0.180150 -0.056177 -0.998358 -0.011189
0.472559 0.129001 0.821349 0.767606 0.639271 0.045969
0.157234 0.036182 0.550705 0.000492 -0.999779 0.021024
0.488036 0.148785 0.160207 0.559134 0.668143 -0.490871
0.390917 0.096737 0.831682 -0.049495 -0.367575 -0.928676
0.222630 0.132535 0.324231 -0.894261 0.138327 0.425633
0.144922 0.058307 0.217930 0.027201 0.782563 -0.621976
0.284351 0.041790 0.719072 -0.389101 0.921187 -0.003811
0.323407 0.106374 0.046802 -0.946768 0.321917 0.000012
0.201979 0.165301 0.054865 -0.880024 0.474930 0.000014
0.195224 0.062996 0.575912 0.999998 0.001841 -0.000213
0.206230 0.048685 0.938937 -0.007100 0.988707 0.149690
0.330530 0.094009 0.086015 0.425178 0.905110 0.000007
0.339164 0.069561 0.269401 -0.019895 -0.541188 -0.840666
0.195387 0.036749 0.454196 0.872409 -0.488493 -0.016640
0.453338 0.136410 0.166348 0.015512 -0.919845 0.391974
0.444803 0.035094 0.363097 0.002474 -0.999997 0.000045
0.046041 0.138304 0.162543 -0.063263 -0.865564 0.496786
0.098040 0.123977 0.185800 0.353310 0.431759 0.829914
0.401493 0.146174 0.250600 0.000000 0.879449 0.475993
0.133454 0.058260 0.151539 0.026104 0.719239 0.694272
0.304699 0.052563 0.276714 0.990103 -0.074643 -0.118845
0.312975 0.031543 0.477414 0.220039 -0.975261 -0.021175
0.081964 0.047505 0.782070 -0.011641 -0.799297 -0.600824
0.412931 0.126503 0.286430 -0.001484 0.916590 0.399825
0.026545 0.110258 0.119556 -0.124409 0.246563 -0.961108
0.393386 0.035335 0.297347 -0.000460 -0.886133 -0.463432
0.426862 0.122673 0.842766 0.032581 0.713454 0.699944
0.071796 0.035249 0.508243 0.000480 -0.999910 0.013424
0.312852 0.099025 0.625408 -0.974020 -0.014343 0.226006
0.085492 0.089174 0.253033 -0.018667 0.004296 0.999817
0.311192 0.102236 0.241660 0.825528 -0.125619 0.550203
0.475204 0.075238 0.536484 0.988544 0.001824 0.150921
0.220995 0.165130 0.151719 0.909772 0.415107 0.000005
0.319762 0.055428 0.393460 -0.999999 0.001752 0.000000
0.235849 0.176503 0.614896 -0.536537 -0.047708 -0.842527
0.300432 0.191705 0.558834 -0.367913 0.380747 0.848335
0.243796 0.222793 0.521128 -0.258710 0.944154 -0.204065
0.147920 0.035189 0.324524 0.000534 -0.999989 -0.004600
0.042246 0.070703 0.547007 -0.983929 0.001198 0.178554
0.121053 0.070970 0.777428 -0.474445 -0.332275 -0.815166
0.089918 0.125175 0.244877 -0.012844 0.508543 0.860941
0.411853 0.154534 0.224587 -0.000181 -0.819005 -0.573787
0.105473 0.157510 0.206280 0.016054 0.968401 0.248882
0.107716 0.191395 0.144102 -0.064606 0.975298 0.211233
0.488036 0.049033 0.224271 0.816917 0.434297 -0.379518
0.460215 0.094529 0.235930 0.088919 -0.009756 -0.995991
0.147488 0.094958 0.661793 -0.000464 0.426437 0.904517
0.195776 0.068588 0.601537 -0.999969 0.000000 -0.007824
0.322723 0.035155 0.425160 -0.412474 -0.910969 0.000850
0.400704 0.112264 0.465881 0.006693 0.996180 -0.087061
0.469623 0.072514 0.859285 0.135268 -0.232969 0.963031
0.431566 0.137813 0.161768 0.006920 0.919945 -0.391987
0.077291 0.057368 0.148574 -0.031192 0.713852 0.699602
0.352525 0.042336 0.953511 0.000332 -0.197005 0.980402
0.274894 0.030373 0.664063 0.000000 -0.999896 -0.014419
0.387699 0.099611 0.799618 -0.107178 0.887507 0.448156
0.230011 0.030373 0.660910 0.000000 -0.999852 -0.017199
0.148108 0.123743 0.225659 0.105151 -0.583024 -0.805622
0.122250 0.035857 0.529032 0.000485 -0.999858 0.016822
0.037897 0.043008 0.454062 -0.999558 -0.026979 -0.012475
0.318686 0.108141 0.498006 0.998410 0.000000 -0.056372
0.389953 0.129985 0.776317 -0.123670 0.854275 -0.504896
0.202468 0.159755 0.044748 0.999368 0.035549 0.000008
0.162803 0.086707 0.117366 0.115076 -0.033106 -0.992805
0.471783 0.040311 0.768677 0.144059 -0.715040 -0.684079
0.319653 0.059076 0.597445 -0.999997 0.001851 -0.001695
0.440308 0.054219 0.212713 0.011659 0.787071 -0.616752
0.099247 0.104872 0.252201 0.005987 0.237666 0.971328
0.473762 0.041845 0.184237 0.095958 0.995339 -0.009593
0.272480 0.050811 0.919609 -0.001325 0.998605 0.052783
0.309240 0.164746 0.507168 -0.845645 -0.362225 -0.392018
0.055642 0.140146 0.166470 -0.078132 -0.942355 0.325365
0.221733 0.162478 0.122951 -0.956252 -0.292543 -0.000008
0.263240 0.200777 0.072399 0.004335 0.996182 0.087191
0.070091 0.111447 0.548225 0.002016 0.997218 0.074507
0.277473 0.031545 0.317193 0.047075 -0.997059 -0.060477
0.208091 0.166735 0.197034 -0.261809 -0.965120 0.000000
0.301431 0.054363 0.719734 -0.771227 0.636528 -0.006385
0.125374 0.092361 0.815820 0.119731 0.906880 0.404021
0.363205 0.138426 0.200235 -0.054494 -0.926507 -0.372311
0.210714 0.031543 0.482082 -0.059277 -0.997336 -0.042507
0.309086 0.167479 0.443575 0.964548 0.258751 -0.051912
0.401094 0.109179 0.832559 -0.024057 -0.627013 -0.778638
0.284697 0.110083 0.276742 -0.459220 0.211730 -0.862721
0.246354 0.192783 0.081511 -0.006143 -0.916250 -0.400560
0.417185 0.040763 0.804310 -0.002553 -0.997097 -0.076101
0.424261 0.027108 0.800818 -0.034442 -0.999393 -0.005148
0.140259 0.123469 0.820043 0.342297 -0.896026 -0.282791
0.369038 0.133925 0.239593 -0.081639 0.558452 0.825510
0.313801 0.121637 0.354271 0.986970 0.003154 -0.160876
0.124931 0.150062 0.148525 0.077680 0.858348 -0.507154
0.407725 0.117631 0.256663 -0.000084 -0.460042 -0.887897
0.420200 0.107964 0.205784 0.263878 -0.289134 0.920201
0.123361 0.071970 0.792862 -0.180419 0.837245 0.516207
0.392164 0.061793 0.837460 -0.032841 0.596203 -0.802162
0.100339 0.035374 0.512188 0.000463 -0.999899 0.014209
0.195573 0.051217 0.659538 0.927805 -0.133600 0.348322
0.082010 0.113603 0.318459 0.002039 0.943397 0.331660
0.428630 0.075482 0.794670 0.637266 -0.378357 -0.671371
0.134447 0.046694 0.163234 0.073760 0.872996 0.482118
0.379409 0.140098 0.202359 -0.020026 0.927496 0.373297
0.319618 0.080066 0.661657 -0.827877 0.141192 0.542849
0.473993 0.165046 0.212876 0.020131 0.948856 0.315068
0.155386 0.089401 0.793413 -0.209897 0.127707 -0.969347
0.347740 0.036192 0.551356 -0.000493 -0.999776 0.021164
0.138879 0.178375 0.140783 -0.038464 -0.995654 -0.084815
0.380141 0.071113 0.857140 -0.185979 -0.247283 0.950927
0.438282 0.042908 0.791825 0.011493 -0.927649 -0.373276
0.337925 0.097286 0.264003 -0.017739 -0.451860 -0.891913
0.177550 0.103323 0.626733 -0.000951 0.980141 0.198301
0.195619 0.092819 0.729153 -0.999994 0.000000 -0.003542
0.087640 0.093099 0.232675 -0.004605 -0.010716 -0.999932
0.332858 0.035047 0.371012 -0.027611 -0.999619 0.000012
0.412521 0.095195 0.214263 -0.302558 0.826882 -0.474052
0.113547 0.109689 0.261586 0.000098 -0.415028 -0.909808
0.117891 0.074443 0.119853 0.059039 -0.268103 -0.961580
0.103341 0.111200 0.458102 0.095773 0.988068 -0.120623
0.465914 0.035360 0.288510 -0.000575 -0.867202 -0.497957
0.094009 0.032710 0.780305 -0.017617 -0.872612 -0.488097
0.217104 0.085607 0.220362 -0.925020 0.000000 -0.379918
0.335285 0.113809 0.397370 0.000463 1.000000 0.000141
0.196057 0.051276 0.472048 0.999869 0.001798 -0.016097
0.338525 0.091655 0.149425 0.314714 -0.949187 -0.000011
0.219456 0.046520 0.915832 -0.004340 -0.915020 -0.403386
0.306328 0.058924 0.290591 0.990645 -0.065408 -0.119766
0.195190 0.038929 0.569777 0.767245 -0.641248 0.011644
0.393147 0.043104 0.661915 -0.000452 -0.473905 0.880576
0.427037 0.139377 0.205646 0.016279 -0.893136 -0.449491
0.230429 0.191519 0.151902 -0.001768 0.965450 0.260581
0.320100 0.100154 0.566400 -0.998789 0.048868 0.005693
0.316762 0.143756 0.428848 0.965192 0.261279 -0.011706
0.096058 0.081127 0.822737 0.091993 0.866050 -0.491421
0.222592 0.110710 0.274257 -0.818141 -0.451795 -0.355706
0.106184 0.113507 0.318701 -0.001265 0.953172 0.302425
0.242072 0.067693 0.183842 -0.363264 -0.130031 -0.922568
0.417501 0.035011 0.444762 0.001839 -0.999998 0.000320
0.331261 0.036290 0.563679 -0.108090 -0.993886 0.022514
0.222944 0.031547 0.267359 -0.098853 -0.994611 -0.031267
0.306104 0.174620 0.513166 0.952427 0.304725 0.005047
0.433596 0.049567 0.825445 0.006744 0.789617 -0.613563
0.110540 0.041307 0.811894 0.130027 0.966041 -0.223289
0.217772 0.031543 0.422385 -0.006102 -0.999835 -0.017124
0.306340 0.173860 0.495269 0.954219 0.299105 -0.001757
0.200398 0.158849 0.165923 -0.998172 -0.060439 -0.000005
0.303102 0.166194 0.388162 0.608637 0.758075 -0.234272
0.112061 0.070096 0.661915 0.000848 -0.004700 0.999989
0.305278 0.036868 0.281645 0.971237 -0.220933 -0.088809
0.090778 0.060653 0.768988 0.001827 -0.585021 -0.811016
0.384923 0.060612 0.149589 -0.017228 0.616493 0.787172
0.452163 0.085819 0.235743 0.065932 0.163596 -0.984322
0.220027 0.098002 0.195493 -0.953679 0.011386 -0.300611
0.304252 0.162040 0.762020 0.609562 0.792714 -0.006241
0.211469 0.057735 0.583455 0.630610 0.355051 0.690123
0.196095 0.069888 0.504715 0.999963 0.001836 0.008461
0.334221 0.091002 0.144799 -0.044811 -0.998995 -0.000017
0.424726 0.043818 0.170723 0.003756 -0.928513 -0.371282
0.253308 0.031548 0.228775 -0.091271 -0.984601 -0.149099
0.451972 0.151704 0.218977 0.067352 0.869192 0.489866
0.343937 0.099299 0.087902 -0.927010 0.375037 0.000005
0.377693 0.187466 0.096705 0.032279 -0.928596 -0.369686
0.301527 0.054523 0.627862 -0.677547 0.594609 0.432863
0.043789 0.118808 0.122050 -0.060265 0.402724 -0.913335
0.042530 0.123542 0.252423 -0.019838 -0.506667 -0.861914
0.309877 0.070286 0.697764 -0.950908 0.309462 0.002628
0.339653 0.111832 0.261008 0.413736 0.910204 0.018714
0.280786 0.031543 0.567538 0.000000 -0.997349 -0.072761
0.331233 0.041087 0.647321 -0.089529 -0.975682 0.200073
0.467894 0.106496 0.838524 0.143524 -0.521898 -0.840847
0.319400 0.080864 0.711048 0.999991 0.000000 -0.004360
0.458393 0.044905 0.821888 0.032489 -0.919530 0.391675
0.488036 0.141293 0.231142 0.165890 0.704274 0.690274
0.119807 0.078283 0.139312 0.013003 0.382680 0.923789
0.079034 0.044243 0.811914 -0.014817 0.989964 -0.140540
0.375837 0.034981 0.418253 0.000317 -1.000000 -0.000091
0.246207 0.030373 0.619973 0.000000 -0.998579 -0.053288
0.326310 0.190705 0.087214 0.009762 -0.916598 -0.399690
0.081308 0.042107 0.181642 -0.006602 -0.992693 -0.120487
0.069792 0.096732 0.751235 -0.087046 0.247361 -0.965005
0.318765 0.119714 0.509304 0.998728 -0.000031 -0.050414
0.382892 0.177618 0.150595 0.045970 -0.998915 0.007502
0.267374 0.195490 0.126816 0.001172 0.993501 0.113814
0.312636 0.057608 0.344339 0.995646 -0.029815 -0.088320
0.051914 0.160263 0.174611 -0.062762 0.981492 -0.180925
0.145069 0.046181 0.173692 0.029145 0.982412 0.184435
0.217231 0.161951 0.282778 -0.347448 0.879936 0.324024
0.270859 0.198790 0.094389 0.002312 0.999227 0.039253
0.340321 0.111060 0.151915 -0.568404 -0.822749 -0.000003
0.378638 0.039875 0.635915 -0.000468 -0.957179 0.289498
0.472703 0.140225 0.196187 0.113756 -0.929328 -0.351295
0.160824 0.133800 0.215395 0.127533 -0.802075 -0.583447
0.159969 0.103670 0.623774 -0.000987 0.979233 0.202735
0.194881 0.110965 0.553433 0.692819 0.717873 0.068268
0.216902 0.119918 0.248212 -0.830882 0.454265 -0.321371
0.128986 0.107449 0.755255 0.123773 0.487213 -0.864467
0.238689 0.090441 0.303890 -0.741027 0.017546 0.671246
0.429378 0.123444 0.144397 0.035490 -0.613624 0.788800
0.316696 0.069459 0.378940 0.997114 -0.006900 -0.075607
0.203312 0.104384 0.609154 0.956121 -0.084633 0.280482
0.219182 0.031546 0.299688 -0.085923 -0.995992 -0.024827
0.209712 0.164614 0.250646 -0.607979 -0.786151 -0.111029
0.215927 0.192228 0.498622 -0.965935 0.242207 -0.091130
0.416692 0.131731 0.274452 -0.001785 0.901538 0.432695
0.071550 0.141037 0.200986 -0.035001 -0.966112 -0.255738
0.304260 0.116011 0.272742 0.986036 0.148064 -0.076227
0.319142 0.091665 0.506346 -0.999960 0.001887 0.008747
0.363242 0.061604 0.144891 -0.032770 -0.616615 -0.786582
0.320489 0.113657 0.322759 -0.610763 0.791814 0.000000
0.310764 0.030373 0.582911 0.330170 -0.939070 -0.095579
0.342081 0.100011 0.219323 0.850553 0.525890 0.000005
0.156692 0.041777 0.933415 -0.012151 -0.984908 -0.172651
0.434862 0.121488 0.791189 0.008266 0.919929 -0.391998
0.196359 0.089152 0.517052 -0.998449 0.000000 -0.055676
0.304829 0.195759 0.073746 0.002585 -0.904145 -0.427218
0.129222 0.107751 0.854062 0.112621 0.499826 0.858772
0.122059 0.201175 0.069243 -0.007795 0.994896 0.100606
0.196868 0.034986 0.444227 -0.886746 -0.456513 -0.072641
0.356077 0.057826 0.661915 -0.027431 -0.405410 0.913723
0.302902 0.082712 0.864663 0.976499 0.000000 0.215520
0.419563 0.159517 0.198480 0.006590 0.969101 0.246577
0.230662 0.063040 0.580885 0.303274 0.487364 0.818841
0.407000 0.054660 0.835648 -0.072894 0.696178 -0.714158
0.054833 0.090122 0.117319 -0.057184 -0.009259 -0.998321
0.433080 0.026533 0.199781 0.040932 -0.961810 0.270641
0.379643 0.137538 0.200456 -0.019914 -0.927470 -0.373368
0.106651 0.065386 0.141926 0.006324 -0.620672 -0.784045
0.206847 0.038673 0.827626 -0.981954 -0.088554 0.167104
0.086474 0.050839 0.161545 -0.009488 0.893819 0.448327
0.286395 0.228247 0.573592 0.884540 0.461799 0.065813
0.099025 0.095023 0.235925 0.006376 -0.010576 -0.999924
0.204998 0.166298 0.142554 0.740044 -0.672559 -0.000002
0.415800 0.112676 0.535018 -0.002043 0.998082 0.061870
0.461799 0.058220 0.147704 0.089332 0.707681 0.700862
0.100799 0.101596 0.327473 0.000000 0.476586 0.879128
0.078710 0.120796 0.808635 -0.009416 -0.992680 -0.120403
0.319806 0.080549 0.331575 -0.998766 0.001792 0.049625
0.067529 0.106538 0.600485 0.000171 0.993088 0.117370
0.319284 0.057305 0.582604 0.925729 0.000000 -0.378187
0.425826 0.127528 0.283972 -0.001911 0.912928 0.408117
0.308389 0.087482 0.827173 0.985741 0.000000 0.168269
0.162104 0.210394 0.051859 -0.005243 0.954702 0.297517
0.419700 0.182605 0.117287 0.994060 -0.106265 -0.023503
0.134827 0.109860 0.421827 -0.857830 0.008570 -0.513862
0.180513 0.073577 0.818855 -0.176316 0.102728 0.978958
0.349349 0.113651 0.471758 0.000698 0.999984 0.005631
0.101823 0.049686 0.930895 -0.019414 0.995241 0.095492
0.195400 0.044710 0.642797 0.927701 -0.353228 0.120831
0.204574 0.160769 0.245862 0.845884 0.531537 0.044145
0.273935 0.032216 0.943066 0.710649 -0.628271 0.316629
0.375103 0.035317 0.301040 -0.000475 -0.916199 -0.400723
0.477419 0.065941 0.337927 0.999881 -0.002927 0.015126
0.427586 0.043699 0.138403 -0.001121 -0.713757 -0.700393
0.238298 0.217737 0.510998 -0.355119 0.913511 -0.198464
0.207304 0.096063 0.303817 -0.971118 0.000000 -0.238598
0.149457 0.043472 0.172439 0.099833 0.963735 0.247482
0.185582 0.075966 0.791352 0.149394 0.987797 0.044038
0.250197 0.200076 0.448161 -0.104608 0.958833 -0.264002
0.419700 0.199679 0.052473 0.975900 -0.186844 -0.112735
0.462458 0.147493 0.226020 0.059454 0.808244 0.585839
0.127484 0.026951 0.201281 0.047598 -0.962013 0.268822
0.212320 0.160428 0.259224 0.990560 0.132885 -0.033657
0.426749 0.062711 0.270727 -0.000251 -0.568271 -0.822841
0.298353 0.101191 0.880466 0.900790 0.262558 0.345893
0.134443 0.199224 0.089092 -0.015663 0.998369 0.054904
0.104604 0.176277 0.159129 -0.996336 -0.079914 0.030454
0.310976 0.074846 0.607513 -0.867215 0.238669 0.437008
0.203839 0.108474 0.620093 0.964705 -0.108039 0.240149
0.089093 0.126835 0.285687 0.001918 0.914591 0.404375
0.195990 0.093494 0.507500 0.999958 0.001838 0.008927
0.102018 0.098330 0.379362 0.000000 0.969883 -0.243573
0.286210 0.031543 0.541963 0.000000 -0.998081 -0.061915
0.239160 0.031547 0.257422 -0.085685 -0.994359 -0.062511
0.426304 0.035411 0.284746 -0.000389 -0.754843 -0.655905
0.204241 0.048949 0.329897 -0.994985 -0.039411 -0.091929
0.456666 0.116863 0.140472 0.044530 -0.490440 0.870336
0.208455 0.031543 0.503498 -0.099428 -0.993599 -0.053623
0.251257 0.117243 0.891297 -0.099829 0.865927 0.490106
0.308682 0.123176 0.310505 0.979724 0.187701 -0.070061
0.133331 0.067889 0.269723 0.000234 -0.552215 -0.833701
0.054736 0.087923 0.859985 -0.123565 0.038878 0.991575
0.457125 0.055993 0.853307 0.129746 -0.487307 0.863538
0.315878 0.146981 0.632253 0.861806 0.492163 0.122743
0.091366 0.139154 0.195791 -0.004247 -0.988786 -0.149279
0.456100 0.097361 0.252951 0.066627 0.014306 0.997675
0.471332 0.081476 0.234723 0.105819 0.247872 -0.962996
0.339604 0.097228 0.652882 -0.044034 0.912475 0.406755
0.196983 0.062473 0.427799 -0.998107 0.000000 -0.061502
0.213685 0.030373 0.585075 0.012832 -0.996495 -0.082657
0.160854 0.160742 0.185160 0.141365 0.989906 -0.010064
0.371820 0.118749 0.224671 -0.024128 -0.616317 -0.787128
0.399404 0.160725 0.191954 -0.034517 0.997795 0.056698
0.220450 0.162306 0.214272 -0.948355 0.317212 -0.000000
0.439458 0.061956 0.771162 0.008513 0.577419 0.816404
0.390832 0.075510 0.805095 0.042655 0.979363 -0.197559
0.417413 0.111623 0.829862 -0.008432 -0.799296 -0.600878
0.121735 0.121393 0.146996 0.012026 -0.600580 0.799475
0.180313 0.160861 0.221853 -0.000128 0.924012 0.382362
0.096583 0.100358 0.117354 0.009524 0.079969 -0.996752
0.342793 0.110372 0.558863 0.000987 0.996383 0.084968
0.211654 0.147748 0.037375 0.028080 -0.999606 -0.000035
0.181011 0.073720 0.818939 -0.165013 0.171350 0.971293
0.395248 0.178274 0.141792 0.043132 -0.996210 -0.075537
0.294745 0.031543 0.467805 0.000000 -0.999371 -0.035454
0.403234 0.041911 0.189806 -0.033135 0.998918 -0.032648
0.258132 0.030373 0.657884 0.000000 -0.999803 -0.019867
0.125164 0.036957 0.585194 0.000492 -0.999279 0.037952
0.203011 0.086859 0.647188 0.977516 0.074202 0.197374
0.088592 0.077462 0.178987 -0.791175 0.226130 0.568249
0.304477 0.111308 0.308053 -0.180347 -0.977343 0.110793
0.195495 0.072597 0.739472 -0.999996 0.000000 0.002694
0.356815 0.035606 0.519443 -0.000490 -0.999880 0.015508
0.206434 0.145384 0.224517 0.604981 0.763738 0.225172
0.147331 0.074757 0.661915 -0.000220 0.070102 0.997540
0.488036 0.036340 0.165862 0.968129 -0.171038 0.182953
0.136722 0.117154 0.782256 0.094836 -0.856202 0.507863
0.300870 0.097949 0.244083 0.935673 0.001419 -0.352865
0.282468 0.031547 0.254692 0.087546 -0.994341 -0.060178
0.427212 0.109312 0.136989 0.004713 0.372971 -0.927831
0.425896 0.025069 0.188412 0.017191 -0.999800 0.010250
0.068577 0.035447 0.278295 0.000355 -0.679616 -0.733568
0.118452 0.035000 0.416992 -0.001237 -0.999999 -0.000080
0.465357 0.067614 0.579106 0.965321 0.000686 0.261067
0.259604 0.170097 0.610095 0.070608 0.005028 -0.997491
0.206300 0.030702 0.802561 -0.420979 -0.903232 0.083360
0.447814 0.046813 0.198315 0.014491 0.941738 -0.336036
0.089684 0.125472 0.125626 -0.022316 0.491597 -0.870537
0.059388 0.036162 0.554611 0.000476 -0.999774 0.021247
0.446301 0.139846 0.261882 -0.000868 0.872138 0.489259
0.375834 0.090836 0.253018 -0.075933 0.009130 0.997071
0.250570 0.164942 0.797841 -0.001459 0.846203 0.532859
0.226592 0.031543 0.503889 0.000000 -0.998889 -0.047134
0.038953 0.070015 0.526047 -0.993030 0.000934 0.117857
0.375549 0.081819 0.135427 -0.078084 0.264063 0.961339
0.422338 0.101228 0.752414 -0.031354 0.273578 -0.961339
0.319815 0.085483 0.373286 -0.999998 0.001758 -0.000000
0.399247 0.097954 0.649756 -0.001569 0.690838 0.723008
0.318635 0.110146 0.490714 0.998361 0.000000 -0.057230
0.317694 0.143262 0.698711 0.924923 0.380155 -0.000468
0.440465 0.092999 0.859219 0.039707 0.254229 0.966329
0.414002 0.042331 0.930166 0.017885 -0.977746 -0.209027
0.380372 0.053272 0.898900 0.000284 -0.887575 -0.460663
0.378098 0.177868 0.161373 0.023525 -0.938975 0.343179
0.307499 0.052089 0.300567 0.992998 -0.058875 -0.102415
0.037780 0.056507 0.392275 -0.999981 -0.006126 0.000000
0.181487 0.035132 0.467955 0.038880 -0.999230 0.005326
0.452754 0.126063 0.770127 0.080318 0.764099 -0.640080
0.211626 0.159747 0.703266 -0.600309 0.799768 -0.000858
0.206540 0.047269 0.824959 -0.985392 0.000000 0.170304
0.046890 0.113759 0.345706 0.004004 0.999991 -0.001085
0.195475 0.051113 0.650598 0.958199 -0.092292 0.270807
0.436630 0.028235 0.205889 0.035001 -0.962618 0.268591
0.077343 0.145130 0.252470 0.000648 0.878224 0.478249
0.076512 0.035235 0.220944 -0.010991 -0.861181 0.508179
0.456559 0.072212 0.138544 0.020383 -0.391867 -0.919796
0.075533 0.134097 0.130791 -0.032481 0.613732 -0.788846
0.419380 0.088621 0.193420 0.285275 0.329126 -0.900163
0.467030 0.036735 0.558229 0.318705 -0.944072 0.084591
0.082704 0.143300 0.178621 -0.016027 -0.994571 0.102819
0.209548 0.138480 0.657780 0.969295 -0.235433 0.070984
0.380251 0.211912 0.039768 0.003600 0.998416 0.056142
0.114781 0.120198 0.227456 0.010426 0.619331 0.785061
0.204793 0.153372 0.157765 0.771501 0.636228 0.000029
0.202773 0.211372 0.036612 -0.001413 -0.898715 -0.438530
0.185474 0.073295 0.819795 -0.153125 0.237630 0.959210
0.318280 0.122360 0.440045 0.997455 0.000303 -0.071292
0.106273 0.139565 0.164951 0.036729 -0.919743 0.390800
0.091177 0.105681 0.205032 -0.126617 -0.297434 0.946309
0.325411 0.105994 0.111795 0.952702 -0.303907 -0.000004
0.298786 0.123628 0.763105 -0.650821 0.038359 -0.758262
0.121784 0.140840 0.239940 0.000053 -0.630232 -0.776407
0.195347 0.085452 0.336182 0.999699 0.001714 0.024480
0.343542 0.037088 0.588068 -0.004322 -0.999188 0.040065
0.028247 0.081765 0.234798 -0.129878 0.245979 -0.960534
0.376429 0.038852 0.622568 -0.000489 -0.991047 0.133516
0.381247 0.055916 0.154659 -0.019141 0.799223 0.600729
0.268861 0.031543 0.377955 0.003627 -0.998033 -0.062582
0.207074 0.035659 0.829590 -0.913436 -0.377204 0.152816
0.213428 0.175147 0.593020 -0.952775 0.245668 -0.178513
0.313406 0.119581 0.596756 0.729651 -0.218162 0.648086
0.141362 0.141798 0.172240 0.090235 -0.959353 0.267395
0.298498 0.031224 0.811500 0.051811 -0.998591 0.011487
0.112793 0.129126 0.834664 0.063146 0.866969 0.494345
0.430317 0.066978 0.228745 0.010327 -0.567462 0.823335
0.195304 0.109341 0.373419 0.980158 0.198218 -0.000003
0.119750 0.066866 0.839962 0.024918 0.373097 -0.927458
0.319080 0.077501 0.475705 -0.999912 0.001830 -0.013161
0.042669 0.035267 0.493523 -0.140423 -0.990009 0.012822
0.308208 0.178796 0.509749 0.974000 0.199874 0.106655
0.404741 0.153574 0.225861 -0.000110 -0.784257 -0.620436
0.060051 0.111098 0.250502 -0.081791 0.267575 0.960059
0.422655 0.051334 0.776971 -0.003269 -0.799561 -0.600577
0.402140 0.102876 0.235030 -0.026616 -0.258070 -0.965759
0.046185 0.095377 0.252971 -0.075233 0.009513 0.997121
0.319400 0.128878 0.710130 0.999994 -0.000760 -0.003284
0.164450 0.146381 0.183324 0.199111 -0.979928 0.009780
0.223188 0.129847 0.326045 -0.931933 0.044252 0.359921
0.102968 0.093372 0.359710 0.000000 0.980323 -0.197402
0.464547 0.035141 0.475887 -0.000347 -0.999997 0.002391
0.364217 0.182936 0.112064 0.028631 -0.963883 -0.264783
0.274327 0.031422 0.894791 0.000000 -0.999978 0.006576
0.268500 0.051689 0.909384 0.001280 0.998755 0.049875
0.087784 0.037133 0.590341 0.000491 -0.999124 0.041841
0.268415 0.237857 0.564718 0.238284 0.955158 -0.175769
0.438574 0.054232 0.774016 0.011770 -0.616806 -0.787027
0.131676 0.054718 0.661915 -0.000992 -0.037297 0.999304
0.155419 0.160638 0.178130 0.105434 0.993243 -0.048506
0.352871 0.109733 0.379223 0.841362 0.003840 -0.540458
0.077334 0.077820 0.230001 -0.008889 0.373433 -0.927615
0.339604 0.065721 0.661915 -0.208478 -0.087087 0.974142
0.324619 0.096938 0.124063 -0.857862 -0.513880 0.000003
0.058039 0.027749 0.814333 -0.102467 -0.966222 0.236467
0.308528 0.031543 0.461283 0.074129 -0.996949 -0.024447
0.195254 0.106304 0.442480 0.996954 0.077990 -0.000096
0.395755 0.040817 0.941898 0.015912 -0.997541 -0.068254
0.031307 0.158908 0.169293 -0.107785 0.957758 -0.266612
0.044393 0.115671 0.226599 -0.026053 -0.408299 -0.912476
0.139260 0.084081 0.134841 0.088141 0.207659 0.974222
0.336733 0.099532 0.346753 0.990404 -0.000243 -0.138205
0.231239 0.095325 0.303309 0.927957 0.334397 0.164542
0.352350 0.035370 0.295775 -0.000453 -0.871997 -0.489510
0.300814 0.157374 0.708793 -0.849508 -0.517425 -0.102989
0.202061 0.083335 0.348461 -0.971677 -0.025199 -0.234965
0.414278 0.060951 0.245027 0.011309 -0.491534 0.870785
0.136484 0.035198 0.505300 0.000466 -0.999910 0.013436
0.087876 0.055513 0.191057 -0.437165 0.448577 0.779529
0.051565 0.089883 0.117321 -0.066698 -0.009271 -0.997730
0.416376 0.183942 0.125375 -0.998983 -0.043641 -0.011288
0.298860 0.032054 0.226956 0.881239 -0.463129 -0.094499
0.283180 0.031543 0.567597 0.000000 -0.997348 -0.072774
0.183075 0.107295 0.592589 0.004971 0.994139 0.107991
0.131642 0.115569 0.139742 0.061781 -0.488582 0.870328
0.410051 0.110753 0.554167 -0.001743 0.996701 0.081145
0.147052 0.152850 0.216946 0.104221 0.866385 0.488380
0.429992 0.107739 0.586741 -0.002096 0.994593 0.103832
0.283601 0.177482 0.154435 0.010162 -0.998519 0.053456
0.095449 0.074718 0.232079 0.004773 -0.373889 0.927461
0.219222 0.102969 0.205374 -0.919052 0.223160 -0.324875
0.195648 0.096977 0.727073 -0.999992 0.000000 -0.004067
0.466622 0.141281 0.239619 -0.000148 -0.613947 -0.789347
0.417039 0.133664 0.180639 0.007819 0.527942 0.849245
0.206368 0.064587 0.823474 -0.985166 0.000000 0.171603
0.116719 0.142947 0.190154 0.017611 0.992596 0.120177
0.126360 0.065091 0.801691 0.846492 -0.395071 -0.356889
0.280307 0.129579 0.855129 0.300957 0.873981 0.381552
0.119762 0.141826 0.258412 -0.000355 0.874635 0.484782
0.385147 0.052836 0.130047 -0.052906 -0.533224 -0.844318
0.221106 0.167689 0.120398 0.734660 0.678435 0.000026
0.074271 0.038107 0.610263 0.000482 -0.995552 0.094212
0.401227 0.112578 0.776201 -0.023513 0.787518 -0.615844
0.195415 0.046090 0.382351 0.999586 -0.028778 0.000000
0.110908 0.143479 0.186782 0.035598 -0.999330 0.008465
0.247011 0.143884 0.264862 -0.145172 0.920400 -0.363028
0.488036 0.120953 0.232258 0.207647 -0.498058 -0.841915
0.267817 0.185738 0.405424 0.117285 0.949925 -0.289632
0.319135 0.110844 0.308670 -0.993357 0.111451 0.028659
0.238220 0.031543 0.489393 0.000000 -0.999060 -0.043345
0.390872 0.036069 0.537585 -0.000494 -0.999834 0.018192
0.047840 0.124789 0.786423 -0.548920 -0.794155 0.260776
0.419411 0.081408 0.843328 -0.005983 0.111820 -0.993710
0.221529 0.202261 0.062564 0.000595 0.984882 0.173227
0.411615 0.099633 0.173145 -0.965341 0.214078 0.149289
0.404752 0.130934 0.275770 0.015917 0.904494 0.426188
0.036998 0.062070 0.308002 -0.999999 -0.001233 -0.000179
0.318113 0.102151 0.416206 0.995726 0.000000 -0.092354
0.119701 0.122905 0.813163 0.097366 -0.964754 -0.244479
0.293352 0.209335 0.042388 0.002213 -0.941176 -0.337911
0.389025 0.123515 0.810570 -0.144267 -0.975217 -0.167746
0.097796 0.090630 0.235969 0.009661 -0.007402 -0.999926
0.443943 0.099758 0.857347 0.060688 0.269373 0.961122
0.204219 0.075594 0.330079 -0.968003 -0.037862 -0.248065
0.204043 0.031543 0.445133 -0.296723 -0.953823 -0.046648
0.396917 0.049247 0.849327 -0.055405 -0.595758 0.801251
0.357390 0.208468 0.045799 0.005515 -0.981108 -0.193381
0.318016 0.039467 0.402308 0.979195 -0.194969 -0.056255
0.227121 0.135282 0.831994 -0.401589 0.814779 0.418164
0.121056 0.106816 0.793000 -0.955938 -0.074154 -0.284050
0.412271 0.074928 0.845077 -0.013075 -0.120504 0.992627
0.064145 0.098763 0.134440 -0.090595 -0.117584 0.988922
0.429036 0.038613 0.618900 -0.000502 -0.991977 0.126418
0.239539 0.085317 0.304038 0.482067 -0.107750 -0.869483
0.247695 0.212217 0.034560 -0.000606 -0.897329 -0.441362
0.043861 0.157758 0.228498 -0.008223 0.910937 0.412464
0.417412 0.035034 0.403452 0.001853 -0.999998 0.000000
0.253471 0.223383 0.648049 -0.051620 0.998663 -0.002760
0.224965 0.140707 0.268010 -0.867660 -0.473560 -0.151351
0.083990 0.054114 0.151893 -0.022221 0.719420 0.694220
0.255794 0.094699 0.183842 -0.517379 0.192108 -0.833915
0.116218 0.055421 0.272148 0.000272 -0.590711 -0.806883
0.374971 0.078433 0.798021 0.203151 -0.938793 -0.278204
0.119343 0.025110 0.191251 0.043248 -0.998679 0.027731
0.242964 0.044745 0.758427 0.057355 0.406316 -0.911931
0.222124 0.160800 0.149855 -0.992667 -0.120884 -0.000010
0.235917 0.039598 0.749081 0.193752 0.736000 -0.648663
0.405665 0.135126 0.206447 -0.006647 -0.926963 -0.375094
0.353245 0.090534 0.340986 0.008995 0.999955 0.002986
0.140259 0.031411 0.791874 0.247461 -0.938384 -0.241243
0.203167 0.102736 0.696275 0.998261 -0.058710 0.005316
0.112370 0.137856 0.808802 0.055641 0.998393 0.010791
0.214275 0.153455 0.143051 0.926604 0.376038 0.000025
0.183309 0.108739 0.575973 0.015345 0.995023 0.098453
0.396084 0.103602 0.401675 0.000000 0.979639 -0.200767
0.472559 0.043959 0.832973 0.764457 0.531958 -0.364178
0.264546 0.037463 0.623883 -0.040406 0.843905 0.534969
0.208290 0.171308 0.463486 -0.946264 0.323143 -0.012747
0.465897 0.073512 0.137820 0.115370 0.330871 0.936597
0.061465 0.051047 0.827336 -0.031753 0.786715 -0.616499
0.233984 0.031546 0.290635 -0.064292 -0.996996 -0.043198
0.207185 0.135351 0.589936 -0.063537 0.014542 -0.997873
0.444090 0.059853 0.224116 0.044750 0.689383 -0.723013
0.434232 0.027109 0.802005 0.034617 -0.999332 0.011750
0.193447 0.113215 0.520484 0.534296 0.844072 0.045496
0.095907 0.107310 0.755177 -0.025152 0.490148 -0.871276
0.221671 0.034572 0.897224 -0.884506 -0.360858 0.295685
0.405388 0.141303 0.170463 -0.038465 -0.962623 0.268101
0.334467 0.113766 0.464091 0.000267 0.999986 0.005197
0.126227 0.040463 0.948646 -0.010904 -0.996119 0.087335
0.053177 0.046730 0.762173 -0.098562 -0.692089 -0.715051
0.218977 0.199671 0.083747 -0.010445 0.998917 0.045346
0.414265 0.210896 0.049223 0.008957 0.987585 0.156827
0.050571 0.109856 0.350265 0.980346 0.003893 -0.197249
0.236255 0.051873 0.907680 0.001977 0.996907 0.078563
0.132291 0.084274 0.134914 0.019664 -0.140337 -0.989908
0.381914 0.095093 0.366960 0.000000 0.974041 -0.226373
0.025000 0.159148 0.189569 -0.165403 0.986226 0.000373
0.390894 0.092387 0.133825 -0.006810 0.043362 -0.999036
0.140341 0.042598 0.175843 0.084943 0.967040 0.240040
0.157057 0.086120 0.266176 0.000177 -0.493648 -0.869662
0.121309 0.071349 0.249656 0.040523 -0.256319 0.965742
0.127365 0.051215 0.914736 -0.005816 0.998193 0.059802
0.385950 0.055815 0.661915 0.000558 -0.108031 0.994147
0.084352 0.106944 0.230319 -0.005839 -0.385499 -0.922690
0.406468 0.036102 0.543063 -0.000492 -0.999812 0.019375
0.197083 0.049272 0.413493 -0.997823 -0.002898 -0.065887
0.212224 0.148645 0.703868 0.977882 -0.209155 0.001271
0.470922 0.101070 0.555639 0.978850 0.004913 0.204519
0.140259 0.094764 0.759346 0.620538 -0.194943 0.759559
0.060934 0.143929 0.237712 0.000048 -0.649092 -0.760710
0.429822 0.059693 0.772936 0.003593 0.616842 0.787079
0.247390 0.196641 0.581179 0.177705 0.266411 0.947336
0.302147 0.069445 0.869127 0.973634 0.000000 0.228115
0.390649 0.099899 0.805760 0.138349 -0.867338 -0.478105
0.135884 0.177499 0.152809 -0.031515 -0.999397 0.014574
0.136868 0.085016 0.803765 0.182140 0.075003 -0.980408
0.341301 0.113636 0.496796 0.000929 0.999883 0.015276
0.195160 0.050412 0.565795 0.999998 0.001843 0.001107
0.323680 0.050343 0.924785 0.008315 0.998015 0.062430
0.344962 0.113806 0.401615 0.000586 1.000000 0.000544
0.355749 0.034967 0.453248 -0.000976 -0.999993 0.003659
0.315686 0.147880 0.528753 0.957378 0.287631 0.026377
0.267365 0.209540 0.619201 0.258106 0.612605 -0.747058
0.123322 0.134609 0.270065 -0.000704 0.889934 0.456090
0.068996 0.035097 0.421965 -0.002501 -0.999997 -0.000145
0.325611 0.106851 0.103075 0.922088 -0.386981 -0.000002
0.324624 0.045895 0.950916 0.004496 0.854593 0.519280
0.408060 0.039203 0.227217 0.003809 -0.789240 0.614074
0.112829 0.050483 0.923281 -0.011386 0.997687 0.067008
0.197688 0.046582 0.780052 -0.990523 -0.036840 0.132311
0.025596 0.109310 0.136982 -0.125727 -0.264613 0.956124
0.308586 0.118847 0.318151 0.330033 -0.766031 0.551611
0.311308 0.193241 0.080253 0.004050 -0.917462 -0.397804
0.324967 0.102278 0.154769 0.997197 0.074821 0.000002
0.025000 0.120707 0.132256 -0.936276 0.178201 -0.302708
0.428149 0.035054 0.349734 0.002120 -0.999998 0.000269
0.359790 0.036504 0.572875 -0.000493 -0.999590 0.028641
0.316442 0.090837 0.376769 0.991239 -0.003861 -0.132027
0.258993 0.201691 0.065686 0.000700 0.992482 0.122387
0.073513 0.120069 0.794981 -0.021127 -0.988521 0.149602
0.418581 0.035721 0.524613 -0.000479 -0.999871 0.016078
0.107928 0.196751 0.079625 0.999746 0.007509 -0.021257
0.380141 0.076316 0.854447 -0.626483 -0.228931 0.745057
0.195776 0.088624 0.656614 -0.999997 0.000000 -0.002343
0.330624 0.179330 0.131650 0.022750 -0.992688 -0.118544
0.344314 0.110028 0.138306 0.806086 0.591799 -0.000002
0.236492 0.031548 0.214948 -0.113438 -0.991137 -0.069132
0.144050 0.205140 0.052190 -0.000220 0.994265 -0.106943
0.307054 0.092446 0.296777 0.963367 0.000000 -0.268187
0.163607 0.064989 0.227863 0.136159 0.494600 -0.858389
0.386062 0.137710 0.208293 -0.016629 0.925512 0.378354
0.180589 0.035403 0.511836 0.045390 -0.998860 0.014749
0.422775 0.061591 0.856273 0.007880 -0.383987 0.923305
0.281343 0.031543 0.464559 0.000000 -0.998999 -0.044739
0.098059 0.058811 0.185022 0.461129 -0.409478 -0.787203
0.319584 0.112553 0.730994 0.999995 0.000000 -0.003099
0.397942 0.082884 0.138228 -0.010439 0.140154 0.990075
0.388057 0.140651 0.200986 -0.015112 0.927569 0.373346
0.342567 0.107005 0.179165 0.978968 -0.204016 -0.000001
0.196386 0.043145 0.513166 -0.997905 -0.009602 -0.063973
0.181570 0.190192 0.156793 -0.024304 0.927213 0.373746
0.069176 0.049396 0.829310 -0.023546 -0.786891 0.616642
0.238051 0.039223 0.622260 0.238489 0.796572 0.555514
0.252249 0.050577 0.922266 0.002144 0.997663 0.068291
0.474230 0.035315 0.221080 0.109500 -0.855690 0.505770
0.037006 0.074464 0.319741 -0.999999 0.001721 0.000245
0.303787 0.100059 0.268940 0.954336 0.000620 -0.298733
0.478112 0.101265 0.276526 0.999987 0.003990 0.003114
0.113574 0.192536 0.147059 -0.038528 0.976556 0.211789
0.212085 0.169567 0.168624 0.023050 -0.999734 -0.000015
0.310658 0.120536 0.725966 -0.986715 -0.160610 -0.024452
0.217249 0.031548 0.239547 -0.319744 -0.946518 -0.043209
0.211647 0.084019 0.266832 -0.948368 0.000000 -0.317171
0.236400 0.192140 0.149170 -0.007195 0.975859 0.218281
0.138617 0.150795 0.220592 0.069755 0.869150 0.489604
0.362794 0.041625 0.274837 -0.000317 -0.631660 -0.775245
0.078375 0.131764 0.246477 0.000067 -0.566481 -0.824075
0.339442 0.094405 0.158234 -0.477870 0.878430 0.000012
0.092557 0.039536 0.632865 0.000505 -0.972854 0.231418
0.488036 0.026884 0.188145 0.153077 -0.988159 0.010478
0.477368 0.104284 0.435982 0.999908 0.004708 0.012733
0.477381 0.056450 0.339056 0.999937 -0.006126 0.009433
0.342819 0.036225 0.555542 -0.013015 -0.999675 0.021913
0.411690 0.114065 0.249678 -0.006307 0.269284 0.963040
0.478132 0.051503 0.482276 0.999965 -0.007077 0.004452
0.223127 0.154547 0.117532 0.904988 -0.425436 -0.000003
0.380137 0.047027 0.171015 -0.019561 0.928917 0.369770
0.348585 0.076039 0.128017 -0.989968 -0.037659 -0.136182
0.027911 0.063258 0.226843 -0.127004 0.523479 -0.842520
0.063720 0.113744 0.456796 0.000979 0.999990 0.004265
0.333807 0.163861 0.212204 -0.284822 -0.696622 -0.658478
0.342530 0.108917 0.201388 0.965497 0.260413 0.000010
0.319700 0.065103 0.651674 -0.821977 0.038999 0.568184
0.470204 0.028741 0.791486 0.149576 -0.957563 -0.246373
0.061336 0.045785 0.164944 -0.061847 0.900304 0.430844
0.318387 0.031543 0.495631 0.505421 -0.862127 -0.035865
0.307187 0.137418 0.736272 -0.973460 -0.222363 -0.054127
0.140855 0.035185 0.499961 0.000437 -0.999924 0.012315
0.186802 0.062179 0.661915 0.313911 -0.061979 0.947427
0.224948 0.183148 0.111194 -0.010485 -0.959595 -0.281191
0.357737 0.182343 0.114503 0.027708 -0.968675 -0.246782
