0.298287 0.044802 0.370944 -0.050340 0.995248 0.083346
0.026540 0.228065 0.468848 0.905647 -0.422045 0.041003
0.055426 0.048303 0.216516 -0.998041 0.056055 0.027793
0.055008 0.044802 0.455392 0.066048 0.995148 -0.072928
0.040845 0.195647 0.418863 0.290352 -0.956554 0.026441
0.272558 0.060007 0.307335 -0.012895 0.739294 0.673259
0.079550 0.078652 0.152212 0.227546 0.292733 -0.928725
0.353812 0.195647 0.416080 -0.312595 -0.949656 0.020908
0.393479 0.269465 0.591995 -0.209331 -0.977774 0.011761
0.156561 0.195647 0.392732 0.091624 -0.995588 0.020249
0.046213 0.203467 0.877407 0.120226 -0.978035 -0.170276
0.398342 0.049151 0.815129 0.107731 0.539174 -0.835275
0.102263 0.125039 0.041178 0.057879 -0.853195 0.518371
0.243762 0.084203 0.296407 -0.084572 0.478012 0.874273
0.132078 0.044802 0.443990 0.046208 0.998421 -0.031941
0.152987 0.044802 0.098638 0.005184 0.999973 0.005294
0.227906 0.048216 0.025854 -0.071644 0.908231 0.412290
0.411676 0.117406 0.826255 -0.592688 0.742320 0.312541
0.411676 0.215542 0.723330 -0.950567 0.298218 0.086535
0.196852 0.195647 0.644370 0.018525 -0.999630 0.019895
0.247405 0.083019 0.153304 -0.054182 0.305084 -0.950783
0.027892 0.132609 0.803404 0.589223 0.672779 0.447420
0.242857 0.198746 0.301496 -0.001518 -0.984556 0.175062
0.053885 0.103026 0.768261 -0.998188 -0.053636 -0.027261
0.127415 0.218444 0.829446 0.009238 -0.964740 -0.263044
0.404130 0.134667 0.776180 -0.432505 0.901131 -0.030036
0.411676 0.166521 0.725834 -0.733554 -0.675630 -0.073637
0.260922 0.088571 0.836311 0.085722 0.515426 0.852636
0.411676 0.149423 0.400382 -0.998979 0.041957 0.016776
0.411676 0.177371 0.353034 -0.941410 -0.335884 0.030490
0.153340 0.044802 0.127937 0.026687 0.987226 -0.157076
0.041585 0.044802 0.099573 0.069978 0.993336 -0.091575
0.026540 0.151298 0.165922 0.980434 -0.134090 0.144117
0.152035 0.044802 0.039042 -0.017182 0.965327 0.260477
0.188566 0.044802 0.423133 0.019372 0.999799 0.005134
0.284583 0.195647 0.623251 -0.109408 -0.993986 0.004722
0.383176 0.032518 0.794190 0.601159 0.653634 -0.459750
0.026540 0.087572 0.663637 0.871801 0.208010 -0.443502
0.220442 0.197784 0.779151 0.027294 -0.999531 -0.013909
0.026540 0.207880 0.552617 0.968764 -0.247436 0.016494
0.251700 0.180133 0.142247 -0.000519 -0.962882 0.269924
0.181020 0.097467 0.975000 -0.021162 0.140441 -0.989863
0.292610 0.210870 0.345410 -0.064896 -0.932527 0.355220
0.411676 0.079310 0.068693 -0.630350 0.330702 0.702349
0.408279 0.195647 0.667477 -0.324199 -0.945987 -0.001587
0.239869 0.139810 0.939696 -0.021079 -0.058625 -0.998058
0.328020 0.269465 0.481738 -0.002060 -0.999977 -0.006506
0.297582 0.044802 0.410733 -0.044521 0.997474 0.055355
0.412061 0.070064 0.238134 -0.999722 0.022809 -0.005968
0.049754 0.044802 0.138121 0.091275 0.951752 -0.292979
0.087580 0.137369 0.939696 0.151918 -0.122124 -0.980819
0.227965 0.195647 0.533556 -0.008629 -0.999931 0.007966
0.221653 0.057817 0.848214 -0.003623 0.955739 0.294194
0.390594 0.183633 0.172196 -0.134327 -0.928612 0.345883
0.284747 0.109822 0.706235 -0.082650 0.478087 -0.874415
0.411676 0.083606 0.957162 -0.445081 0.451326 -0.773438
0.029691 0.044802 0.688602 0.035162 0.966650 -0.253678
0.411676 0.047671 0.649942 -0.142145 0.977077 -0.158481
0.298370 0.225569 0.806683 -0.010666 -0.963710 -0.266737
0.343269 0.195647 0.499485 -0.261182 -0.965203 0.012972
0.286910 0.195647 0.353143 -0.202068 -0.979014 0.026463
0.026540 0.191087 0.834188 0.997044 -0.056547 0.052025
0.087825 0.084120 0.296445 0.178974 0.496097 0.849621
0.119689 0.259928 0.697009 0.000414 -0.977919 -0.208983
0.231268 0.115410 0.959170 0.136682 -0.820701 -0.554768
0.386488 0.111824 0.031419 -0.406427 -0.031821 0.913129
0.288781 0.176659 0.112523 -0.002713 -0.959436 0.281913
0.189377 0.044802 0.319145 0.004711 0.996948 0.077925
0.093451 0.205171 0.872090 0.008435 -0.978477 -0.206184
0.240360 0.202066 0.895736 -0.002872 -0.985018 -0.172425
0.179539 0.044802 0.558371 0.014606 0.995226 -0.096500
0.073626 0.140603 0.219156 0.117009 0.993125 -0.003319
0.026540 0.073969 0.354855 0.996701 0.036354 0.072561
0.334113 0.138315 0.251696 -0.140247 0.966530 0.214826
0.400099 0.094578 0.702079 -0.331812 0.407137 -0.850964
0.404718 0.085149 0.837452 -0.127996 0.527024 0.840157
0.060767 0.105485 0.826008 0.433238 0.547876 0.715637
0.242093 0.195647 0.542038 -0.035414 -0.999345 0.007403
0.026540 0.046674 0.666686 0.076076 0.952502 -0.294876
0.332138 0.076417 0.151654 -0.215067 0.321544 -0.922147
0.076635 0.061358 0.694088 0.239355 0.620417 -0.746855
0.190200 0.044802 0.461833 0.023688 0.999496 -0.021151
0.026540 0.065337 0.129591 0.376844 0.587267 -0.716314
0.388520 0.263324 0.686284 -0.171481 -0.963298 -0.206519
0.081127 0.242391 0.752939 0.011483 -0.965010 -0.261962
0.228106 0.134839 0.185057 0.016273 0.950525 -0.310220
0.411676 0.130764 0.487320 -0.998136 0.060219 0.009876
0.026540 0.094139 0.096516 0.918272 0.362448 -0.159399
0.132724 0.105457 0.826031 0.335513 0.592377 0.732476
0.269444 0.195647 0.685428 -0.099306 -0.994989 0.011618
0.411312 0.134667 0.754203 -0.310152 0.918448 -0.245479
0.342411 0.046330 0.150169 -0.079387 0.980704 -0.178654
0.258174 0.196195 0.946389 0.002415 -0.720608 -0.693339
0.334489 0.232076 0.382774 -0.098380 -0.936005 0.337958
0.078751 0.131170 0.266141 0.148152 0.805175 0.574234
0.026540 0.268485 0.604053 0.542815 -0.832507 0.110835
0.409031 0.087569 0.031419 -0.324754 0.085395 0.941935
0.403260 0.195647 0.477438 -0.381915 -0.924067 0.015539
0.212060 0.198522 0.299580 -0.000524 -0.984215 0.176974
0.037897 0.196597 0.283108 0.179719 -0.928670 0.324457
0.323252 0.044802 0.615980 -0.034674 0.996335 -0.078189
0.223146 0.134667 0.731620 0.095264 0.950769 -0.294894
0.135662 0.044802 0.563287 0.026090 0.992587 -0.118700
0.284206 0.196170 0.740425 -0.114458 -0.993422 0.003527
0.411676 0.085798 0.965208 -0.274727 0.411466 -0.869034
0.026540 0.156668 0.128026 0.987285 -0.121721 0.102234
0.411676 0.181739 0.442994 -0.983193 -0.181534 0.019415
0.132207 0.195647 0.424381 0.152704 -0.988133 0.016548
0.411676 0.046111 0.440238 -0.136234 0.989792 0.041851
0.359054 0.079228 0.839426 -0.075964 0.464247 0.882442
0.123321 0.112534 0.708948 0.173780 0.603191 -0.778435
0.254587 0.044802 0.594940 -0.012233 0.995709 -0.091732
0.250979 0.044802 0.335178 -0.028229 0.995520 0.090244
0.080443 0.200038 0.833265 0.164298 -0.983528 -0.075358
0.235475 0.066100 0.919357 -0.017989 0.975041 -0.221295
0.225826 0.195647 0.722258 -0.041430 -0.998919 0.021064
0.374487 0.112595 0.160518 -0.203693 0.357610 -0.911386
0.140844 0.122507 0.939696 0.086178 -0.122748 -0.988689
0.217022 0.073109 0.301527 0.002257 0.512568 0.858644
0.084776 0.240544 0.758841 0.011303 -0.964988 -0.262049
0.089633 0.248165 0.734491 0.010378 -0.964859 -0.262562
0.283049 0.233793 0.780409 -0.007195 -0.963235 -0.268562
0.409925 0.070228 0.842426 -0.110851 0.631062 0.767771
0.315060 0.082800 0.031419 -0.190180 0.103945 0.976231
0.214112 0.189589 0.223150 -0.001089 -0.975804 0.218643
0.411676 0.215571 0.403286 -0.738302 -0.673409 0.037819
0.049840 0.025088 0.207015 -0.440053 0.817465 0.371624
0.350477 0.269465 0.546145 -0.040347 -0.999030 0.017627
0.028228 0.208171 0.862441 0.182975 -0.973360 -0.138171
0.411676 0.073378 0.599461 -0.999459 0.018456 -0.027231
0.140105 0.044802 0.328038 0.033968 0.998022 0.052906
0.264566 0.195647 0.574843 -0.070708 -0.997486 0.004656
0.305622 0.195647 0.520798 -0.176939 -0.984166 0.010462
0.047356 0.110131 0.706544 0.270126 0.569784 -0.776131
0.098709 0.140307 0.231774 0.100337 0.990772 0.091123
0.142983 0.167428 0.939696 0.020667 0.044230 -0.998808
0.241152 0.084484 0.153670 -0.040121 0.301556 -0.952604
0.411676 0.051305 0.363213 -0.234048 0.956968 0.171565
0.411676 0.203583 0.867461 -0.249236 -0.960805 -0.121388
0.048323 0.269465 0.603125 0.154006 -0.986611 -0.053675
0.139203 0.202066 0.892332 0.007996 -0.986588 -0.163032
0.288139 0.176923 0.114786 -0.002803 -0.959919 0.280263
0.044614 0.244809 0.745453 0.117387 -0.978757 -0.168093
0.405035 0.084464 0.837681 -0.129478 0.520987 0.843687
0.053885 0.077180 0.755497 -0.999057 0.012944 0.041443
0.346525 0.195647 0.561772 -0.244462 -0.969632 0.007171
0.026540 0.207124 0.453118 0.779770 -0.625526 0.026015
0.084522 0.195647 0.656032 0.181421 -0.982697 0.037322
0.356998 0.243669 0.748855 -0.014652 -0.962279 -0.271671
0.347778 0.138887 0.939696 -0.252908 -0.298543 -0.920277
0.169161 0.065011 0.911376 0.026141 0.987731 -0.153959
0.238320 0.125725 0.164551 -0.012318 0.747608 -0.664026
0.411676 0.219426 0.778379 -0.996451 -0.076408 -0.035312
0.326544 0.080991 0.838838 -0.025035 0.469743 0.882448
0.405482 0.200471 0.843637 -0.166398 -0.982359 -0.085338
0.211439 0.269465 0.527749 0.005304 -0.999806 -0.018980
0.026540 0.165290 0.311536 0.997271 -0.056155 0.047923
0.398441 0.044802 0.535050 -0.084954 0.996360 0.006993
0.338109 0.200049 0.833519 -0.081403 -0.994280 -0.069142
0.406937 0.191003 0.235247 -0.172429 -0.917943 0.357280
0.239789 0.056502 0.692701 -0.290006 0.772729 -0.564612
0.326490 0.269465 0.457074 -0.000826 -0.999993 0.003610
0.035015 0.195647 0.444850 0.292770 -0.955740 0.029082
0.061543 0.257029 0.426738 0.194996 -0.908741 0.369007
0.341118 0.092245 0.292695 -0.174517 0.479594 0.859961
0.026540 0.113069 0.605818 0.995321 0.061099 -0.074856
0.386271 0.258447 0.701824 -0.147957 -0.964088 -0.220550
0.312698 0.137977 0.255077 -0.107753 0.958880 0.262562
0.204669 0.269465 0.480586 0.007786 -0.999965 -0.002993
0.159628 0.063476 0.694693 0.047546 0.583859 -0.810462
0.215671 0.268270 0.670665 -0.001952 -0.995838 -0.091124
0.117907 0.234966 0.776662 0.008910 -0.964679 -0.263279
0.248863 0.195647 0.499305 -0.065707 -0.997771 0.011638
0.124273 0.222709 0.366270 0.109643 -0.931097 0.347903
0.130084 0.269465 0.515147 0.012226 -0.999829 -0.013873
0.051651 0.028662 0.791481 -0.366701 0.865497 -0.341241
0.222088 0.174888 0.097372 0.006247 -0.948464 0.316823
0.026540 0.095253 0.429482 0.997473 0.040088 0.058660
0.200191 0.269465 0.512929 0.006802 -0.999881 -0.013860
0.180527 0.195647 0.614323 0.049492 -0.998570 0.020210
0.335864 0.093965 0.156040 -0.186071 0.288641 -0.939183
0.294247 0.202066 0.938643 -0.005290 -0.928727 -0.370726
0.383176 0.073302 0.722155 0.878211 0.036189 0.476901
0.039794 0.195366 0.272580 0.182600 -0.927406 0.326458
0.077611 0.236793 0.391084 0.165018 -0.920681 0.353717
0.407130 0.125039 0.044068 -0.649059 -0.374547 0.662146
0.145665 0.139109 0.243761 0.070595 0.975706 0.207401
0.181902 0.228221 0.798211 0.004012 -0.964018 -0.265808
0.026540 0.132976 0.424869 0.995621 0.081225 0.046272
0.411676 0.225632 0.457343 -0.893015 -0.448364 0.038638
0.386394 0.195647 0.572386 -0.317529 -0.948225 0.006723
0.319844 0.123176 0.031419 -0.600205 -0.196329 0.775377
0.396502 0.195647 0.371817 -0.406620 -0.913253 0.025092
0.383176 0.087545 0.788810 0.999393 -0.014251 -0.031797
0.214201 0.092138 0.292745 -0.043492 0.472148 0.880446
0.259204 0.184857 0.182664 -0.002828 -0.970926 0.239364
0.298118 0.204810 0.873350 -0.005921 -0.984296 -0.176428
0.411676 0.161140 0.844018 -0.946161 0.321176 0.040318
0.410456 0.046500 0.268659 -0.156618 0.649675 -0.743904
0.043820 0.025000 0.213252 -0.281510 0.934744 0.216811
0.090834 0.112930 0.160585 0.260562 0.402717 -0.877455
0.174450 0.195647 0.448440 0.073675 -0.997167 0.015169
0.027152 0.125261 0.275005 0.124174 0.658455 0.742306
0.403907 0.132945 0.803124 -0.524060 0.819967 0.230249
0.390912 0.269465 0.616199 -0.217284 -0.975640 -0.030234
0.406798 0.255797 0.424567 -0.167351 -0.946758 0.275034
0.289839 0.181396 0.153054 -0.004021 -0.967062 0.254509
0.057286 0.269465 0.635062 0.129220 -0.989426 -0.065870
0.411676 0.180813 0.311446 -0.987649 -0.151280 0.040792
0.026540 0.084470 0.405015 0.997463 0.037113 0.060745
0.025000 0.053284 0.795535 0.993627 0.063906 -0.092856
0.411676 0.081274 0.398599 -0.997354 0.037799 0.062095
0.363250 0.068949 0.696165 -0.411696 0.444467 -0.795585
0.411676 0.111398 0.486625 -0.998320 0.057886 -0.002650
0.308078 0.084181 0.699680 -0.172266 0.433286 -0.884640
0.361840 0.193075 0.252978 -0.069340 -0.960339 0.270075
0.106983 0.044802 0.343624 0.054844 0.998062 0.029415
0.411676 0.114702 0.593427 -0.996605 0.048291 -0.066677
0.088354 0.254941 0.423059 0.168065 -0.913050 0.371611
0.400531 0.125039 0.045041 -0.571798 -0.463806 0.676706
0.411676 0.233947 0.602780 -0.992467 -0.121674 0.014299
0.263120 0.044802 0.408063 -0.025205 0.998710 0.044078
0.170947 0.044802 0.448092 0.032741 0.999285 -0.018897
0.411676 0.214177 0.662171 -0.977171 -0.212452 -0.000088
0.040584 0.181347 0.152632 0.365413 -0.867929 0.336410
0.391730 0.085448 0.837353 -0.109527 0.526883 0.842851
0.384137 0.198907 0.806110 -0.180600 -0.981912 -0.056862
0.026540 0.194400 0.644521 0.998094 0.055983 0.025965
0.351419 0.190419 0.230254 -0.044718 -0.965816 0.255342
0.400745 0.051832 0.691366 -0.233463 0.912306 -0.336440
0.026540 0.222557 0.561867 0.991731 -0.125761 0.025565
0.101187 0.269465 0.622300 0.016024 -0.998602 -0.050368
0.026540 0.055371 0.381808 0.290498 0.950968 0.106165
0.104341 0.230474 0.791012 0.010351 -0.964874 -0.262509
0.026540 0.239852 0.643672 0.999079 -0.032227 0.028340
0.222323 0.085706 0.837266 0.131031 0.479504 0.867702
0.334156 0.233591 0.781055 -0.013667 -0.963037 -0.269021
0.315895 0.068965 0.940372 -0.079760 0.904979 -0.417913
0.026540 0.097906 0.586874 0.997720 0.039504 -0.054723
0.186622 0.204077 0.875641 0.004532 -0.986336 -0.164684
0.410683 0.088115 0.718684 -0.526427 -0.264479 0.808038
0.412061 0.050029 0.737659 -0.993242 0.062706 0.097662
0.100465 0.269465 0.521548 0.022063 -0.999620 -0.016539
0.128634 0.068737 0.030984 0.087928 0.212006 0.973305
0.303659 0.132845 0.180570 -0.021854 0.911385 -0.410975
0.411676 0.200000 0.518105 -0.916902 -0.398819 0.015321
0.053885 0.057067 0.754636 -0.998605 0.039244 0.035338
0.064421 0.178117 0.124998 0.238160 -0.904470 0.353856
0.211150 0.174473 0.093827 0.007794 -0.946241 0.323368
0.291141 0.058250 0.852107 -0.019500 0.947123 0.320277
0.256515 0.044802 0.315478 -0.034057 0.993782 0.106010
0.029505 0.202066 0.882060 0.182022 -0.973735 -0.136780
0.235099 0.044802 0.660743 -0.017389 0.988782 -0.148351
0.411676 0.169209 0.218642 -0.993347 -0.101148 0.055046
0.040450 0.185145 0.185130 0.315690 -0.887771 0.334966
0.161944 0.078313 0.152128 0.088007 0.303743 -0.948681
0.411676 0.212819 0.701710 -0.690027 -0.723771 -0.004217
0.106278 0.264277 0.439509 0.153562 -0.919559 0.361704
0.241693 0.044802 0.638659 -0.015680 0.991471 -0.129380
0.026540 0.214763 0.428490 0.752142 -0.658097 0.034504
0.143314 0.195647 0.431561 0.132466 -0.991057 0.016115
0.068109 0.202066 0.915017 0.072707 -0.979742 -0.186600
0.026540 0.181958 0.330137 0.753586 -0.656491 0.033593
0.026540 0.263057 0.456579 0.969300 -0.237448 0.063836
0.261580 0.044802 0.355347 -0.031531 0.996276 0.080250
0.133406 0.125398 0.163815 0.087642 0.781127 -0.618190
0.203082 0.134667 0.788695 0.032260 0.963037 0.267430
0.156208 0.202844 0.331269 0.063678 -0.940519 0.333719
0.034721 0.183824 0.173825 0.373488 -0.866561 0.331026
0.035779 0.044802 0.593312 0.049100 0.981936 -0.182734
0.330968 0.269465 0.544706 -0.005133 -0.999466 -0.032279
0.211227 0.090086 0.031419 -0.043781 0.068253 0.996707
0.195473 0.200959 0.948770 0.020985 -0.862801 -0.505108
0.215729 0.093560 0.292088 -0.042001 0.472246 0.880466
0.238284 0.066911 0.304376 -0.009356 0.535463 0.844507
0.284912 0.134667 0.787389 -0.258333 0.948410 0.183800
0.209088 0.195647 0.573084 0.015136 -0.999804 0.012798
0.411676 0.140893 0.376120 -0.996371 0.071710 0.045853
0.396737 0.044802 0.386977 -0.104000 0.988551 0.109317
0.115246 0.096091 0.031419 0.188728 0.034757 0.981414
0.299251 0.044802 0.606331 -0.026476 0.996344 -0.081230
0.040974 0.195647 0.677236 0.237501 -0.970356 0.044740
0.385148 0.140854 0.226307 -0.121792 0.992451 -0.014428
0.026540 0.093232 0.084371 0.922191 0.285093 0.261315
0.112319 0.044802 0.421299 0.055332 0.998191 -0.023509
0.374346 0.073131 0.031419 -0.256401 0.145838 0.955505
0.026540 0.183995 0.856836 0.996191 -0.080921 0.032491
0.053198 0.044802 0.517551 0.056577 0.991192 -0.119743
0.026540 0.232465 0.700653 0.843649 -0.530350 0.083572
0.075208 0.177664 0.121129 0.165406 -0.918788 0.358425
0.134969 0.081662 0.031419 0.076642 0.100483 0.991982
0.095185 0.185797 0.190704 0.033666 -0.954326 0.296865
0.186027 0.195647 0.434754 0.044358 -0.998875 0.016757
0.242387 0.044802 0.146024 -0.009873 0.983126 -0.182666
0.236912 0.269465 0.584123 0.000814 -0.999150 -0.041218
0.378601 0.134667 0.776665 -0.403164 0.915122 -0.003327
0.248461 0.252152 0.721753 -0.003188 -0.962956 -0.269639
0.036041 0.043541 0.727244 0.215867 0.646276 0.731935
0.267032 0.269465 0.469157 0.003353 -0.999994 0.000208
0.029479 0.201296 0.863454 0.193815 -0.974284 -0.114917
0.042956 0.112586 0.263129 -0.141968 -0.655525 -0.741709
0.283231 0.050602 0.691015 -0.166826 0.923124 -0.346426
0.391114 0.033047 0.196069 0.098319 0.877243 0.469871
0.389062 0.182699 0.164201 -0.130672 -0.929473 0.344971
0.411676 0.239213 0.743741 -0.493924 -0.858411 -0.138456
0.383176 0.124449 0.748516 0.468328 -0.731892 0.494977
0.206975 0.183557 0.171547 0.002613 -0.965382 0.260828
0.217645 0.087093 0.154323 0.006816 0.293683 -0.955878
0.097658 0.192399 0.247193 0.023557 -0.969247 0.244961
0.026540 0.197745 0.808568 0.996472 -0.013002 0.082910
0.026540 0.068103 0.357980 0.997224 0.033640 0.066428
0.178587 0.089859 0.155014 0.079189 0.291492 -0.953290
0.338298 0.241460 0.755912 -0.012712 -0.962508 -0.270956
0.137496 0.195647 0.723101 0.090477 -0.995300 0.034510
0.045682 0.127479 0.788253 -0.294147 -0.885971 -0.358515
0.046111 0.049725 0.311741 0.149107 0.966205 0.210272
0.325453 0.269465 0.489631 -0.002204 -0.999952 -0.009515
0.026540 0.157319 0.770314 0.852787 0.193899 0.484930
0.120536 0.269465 0.630946 0.008185 -0.998570 -0.052836
0.387531 0.125039 0.046247 -0.403420 -0.615304 0.677239
0.046625 0.269465 0.634575 0.156691 -0.985283 -0.068303
0.085928 0.216431 0.835877 0.012847 -0.965213 -0.261149
0.159382 0.201834 0.876369 0.082014 -0.988973 -0.123311
0.225734 0.269465 0.552952 0.003132 -0.999610 -0.027734
0.128563 0.211668 0.346816 0.097273 -0.935983 0.338340
0.383176 0.030203 0.205858 0.313851 0.922819 0.223391
0.147310 0.239119 0.395183 0.099332 -0.925244 0.366137
0.118314 0.201052 0.857586 0.123563 -0.986986 -0.102907
0.154492 0.099813 0.157502 0.135214 0.293208 -0.946439
0.328448 0.137950 0.192625 -0.053474 0.972155 -0.228154
0.383176 0.081267 0.242446 0.999611 0.002679 -0.027749
0.363474 0.070745 0.842254 -0.070900 0.625135 0.777290
0.411676 0.100421 0.636750 -0.995086 0.032373 -0.093576
0.277742 0.195647 0.647237 -0.104009 -0.994548 0.007544
0.183054 0.045972 0.025292 -0.036195 0.940728 0.337225
0.244984 0.195647 0.360287 -0.110292 -0.993579 0.025246
0.306233 0.128979 0.171873 -0.054924 0.815660 -0.575918
0.352461 0.195647 0.431585 -0.304293 -0.952380 0.019444
0.339872 0.089291 0.294059 -0.179645 0.479246 0.859099
0.026540 0.189931 0.869313 0.754522 -0.652203 -0.072995
0.026540 0.110085 0.558283 0.997298 0.054081 -0.049721
0.231150 0.197858 0.780938 0.013530 -0.999767 -0.016803
0.295208 0.195647 0.333891 -0.226688 -0.973553 0.028419
0.150625 0.056599 0.692729 -0.071442 0.788087 -0.611404
0.047958 0.178377 0.939696 0.235133 -0.024381 -0.971657
0.026540 0.244669 0.735932 0.302866 -0.948551 -0.092324
0.100589 0.246181 0.407624 0.149913 -0.918572 0.365722
0.073403 0.195647 0.473981 0.235069 -0.971635 0.025849
0.085109 0.121264 0.812858 0.478510 0.662003 0.576871
0.411676 0.158959 0.759309 -0.952934 0.303135 -0.005049
0.396368 0.202066 0.927881 -0.117053 -0.940281 -0.319641
0.041820 0.065761 0.916873 0.124524 0.967533 -0.219941
0.377825 0.195647 0.605613 -0.289306 -0.957230 0.003558
0.216105 0.044802 0.073968 -0.038124 0.986649 0.158338
0.133253 0.044802 0.027582 -0.011048 0.956105 0.292815
0.350792 0.044802 0.622799 -0.045539 0.996370 -0.071920
0.237426 0.044802 0.670930 -0.019669 0.987748 -0.154815
0.064388 0.222707 0.366267 0.167262 -0.925788 0.339027
0.283090 0.269465 0.609479 -0.004114 -0.998480 -0.054961
0.122137 0.269465 0.644513 0.007497 -0.998322 -0.057423
0.412061 0.037031 0.222944 -0.996883 0.075955 0.021350
0.026540 0.083299 0.491914 0.999254 0.030176 0.024101
0.074613 0.200167 0.836350 0.167866 -0.982601 -0.079476
0.411676 0.202963 0.655183 -0.982587 -0.185805 -0.000283
0.256616 0.195082 0.270144 -0.002173 -0.981426 0.191828
0.103568 0.142902 0.060233 0.036911 -0.887448 0.459427
0.104550 0.044802 0.595547 0.029563 0.987382 -0.155571
0.233383 0.113084 0.975000 -0.004073 -0.526240 -0.850326
0.236557 0.223156 0.367057 -0.000597 -0.932215 0.361903
0.069371 0.138409 0.250757 0.177039 0.932721 0.314149
0.409111 0.192918 0.251628 -0.177691 -0.916651 0.358018
0.138892 0.242176 0.753625 0.006663 -0.964368 -0.264479
0.411676 0.131331 0.838890 -0.759096 0.636615 0.135994
0.411676 0.200666 0.933634 -0.163834 -0.900193 -0.403499
0.246961 0.176632 0.112297 0.002228 -0.955110 0.296244
0.110121 0.044802 0.658359 0.017814 0.979836 -0.199006
0.123427 0.082713 0.699341 0.258514 0.426103 -0.866952
0.354412 0.112884 0.975000 -0.041474 -0.670030 -0.741174
0.199803 0.195647 0.614974 0.020298 -0.999644 0.017300
0.403068 0.058526 0.721011 0.012078 0.316200 0.948616
0.386970 0.059075 0.150169 -0.266833 0.727984 -0.631537
0.261757 0.245981 0.407273 -0.017264 -0.939393 0.342409
0.411676 0.084235 0.606405 -0.998532 0.024548 -0.048292
0.077611 0.195647 0.718619 0.178089 -0.983086 0.042729
0.053885 0.088513 0.770953 -0.999906 -0.009925 0.009510
0.026540 0.229679 0.570767 0.992156 -0.121687 0.028605
0.045252 0.044802 0.417838 0.074733 0.995988 -0.049219
0.408549 0.137989 0.193013 -0.087139 0.965446 -0.245603
0.089682 0.067299 0.928151 0.098420 0.941530 -0.322234
0.411676 0.125955 0.383701 -0.991682 0.106997 0.071541
0.305046 0.044802 0.668845 -0.038122 0.991456 -0.124743
0.026635 0.114993 0.281365 0.162719 0.525062 0.835364
0.055426 0.088743 0.259706 -0.996133 -0.029194 -0.082866
0.274427 0.059662 0.028715 -0.203663 0.579158 0.789365
0.229328 0.199659 0.824149 0.043575 -0.997552 -0.054702
0.283175 0.191204 0.236966 -0.003259 -0.977868 0.209197
0.411676 0.075378 0.590626 -0.999508 0.020190 -0.024016
0.244881 0.158880 0.067515 -0.000683 -0.914995 0.403465
0.170806 0.044802 0.130206 0.018493 0.987704 -0.155240
0.412061 0.051614 0.180595 -0.367072 0.382716 0.847813
0.389337 0.202066 0.915768 -0.104245 -0.958844 -0.264103
0.326473 0.090613 0.293449 -0.163228 0.479024 0.862492
0.181443 0.100039 0.975000 -0.024016 0.047757 -0.998570
0.383176 0.106208 0.233896 0.997240 -0.071538 -0.019846
0.284030 0.044802 0.613998 -0.023488 0.995359 -0.093320
0.269197 0.104770 0.158742 -0.054677 0.284998 -0.956968
0.411676 0.141857 0.831905 -0.755455 0.641594 0.132839
0.212661 0.195647 0.540712 0.016599 -0.999814 0.009860
0.367999 0.107008 0.824738 -0.120823 0.714560 0.689062
0.064524 0.269465 0.646791 0.110005 -0.991599 -0.068045
0.389412 0.269465 0.580020 -0.181710 -0.982687 0.036162
0.123403 0.068880 0.939744 0.086413 0.900723 -0.425713
0.371184 0.098731 0.831636 -0.052422 0.635798 0.770074
0.041066 0.269465 0.463495 0.196841 -0.939875 0.279085
0.362599 0.189140 0.219311 -0.071281 -0.954339 0.290096
0.033456 0.188170 0.211014 0.324720 -0.886856 0.328700
0.229909 0.150224 0.058283 -0.002140 -0.889557 0.456819
0.084428 0.251520 0.417033 0.169308 -0.914307 0.367937
0.245565 0.205071 0.872534 0.000226 -0.982372 -0.186938
0.112672 0.097644 0.290204 0.086567 0.463846 0.881676
0.110804 0.187160 0.202371 0.011730 -0.963352 0.267983
0.183713 0.212659 0.847929 0.001349 -0.964940 -0.262467
0.034674 0.080679 0.298033 0.276317 0.501080 0.820102
0.333302 0.214739 0.352227 -0.101918 -0.926637 0.361879
0.148333 0.044802 0.489073 0.034478 0.997696 -0.058422
0.059545 0.202352 0.330403 0.156894 -0.934345 0.319973
0.026540 0.138601 0.371076 0.995683 0.068012 0.063163
0.231790 0.121671 0.939696 -0.011464 -0.056425 -0.998341
0.026540 0.202808 0.694256 0.712123 -0.700290 0.049743
0.373770 0.269465 0.618870 -0.143965 -0.989303 -0.023516
0.327625 0.044802 0.031062 -0.069498 0.957199 0.280963
0.089313 0.269465 0.558820 0.049398 -0.998267 -0.031976
0.026540 0.060155 0.098327 0.371479 0.898537 0.233741
0.250558 0.137197 0.939696 -0.026734 -0.061490 -0.997750
0.350792 0.195647 0.594083 -0.240928 -0.970534 0.004220
0.392846 0.117381 0.031419 -0.593747 -0.082905 0.800370
0.241035 0.091218 0.835429 0.119529 0.531496 0.838585
0.205891 0.060362 0.871121 -0.034845 0.996314 0.078381
0.129844 0.097086 0.156821 0.172567 0.293519 -0.940248
0.310617 0.201271 0.862843 -0.039626 -0.994534 -0.096605
0.412061 0.111910 0.234746 -0.997030 -0.065791 -0.040025
0.099990 0.044802 0.502561 0.045877 0.994987 -0.088865
0.297594 0.115410 0.940368 -0.193855 -0.722402 -0.663743
0.026540 0.097290 0.423909 0.997331 0.041942 0.059759
0.369327 0.114681 0.818344 -0.225925 0.781091 0.582112
0.101220 0.202066 0.882796 0.015910 -0.992889 -0.117974
0.296595 0.269465 0.636480 -0.006433 -0.997738 -0.066909
0.026540 0.083527 0.055392 0.475989 0.171776 0.862512
0.411676 0.110752 0.145626 -0.394042 0.253045 -0.883572
0.397924 0.062119 0.029329 -0.263643 0.476382 0.838780
0.288506 0.269465 0.566725 -0.002638 -0.999273 -0.038029
0.026540 0.082750 0.681049 0.653588 0.338401 -0.676984
0.411676 0.108057 0.667358 -0.835370 0.216519 -0.505250
0.053885 0.039458 0.775870 -0.996918 0.076935 0.015324
0.123051 0.134667 0.738692 0.200778 0.968709 -0.145915
0.050800 0.195647 0.707259 0.217881 -0.974912 0.045557
0.366929 0.044802 0.121347 -0.085272 0.996239 0.015406
0.388404 0.195647 0.465788 -0.359322 -0.933068 0.016507
0.059745 0.200459 0.843364 0.177246 -0.980143 -0.088897
0.290930 0.065339 0.305050 -0.089306 0.574032 0.813948
0.117179 0.193790 0.259095 0.006807 -0.975847 0.218350
0.271971 0.241018 0.398528 -0.029503 -0.937583 0.346507
0.081078 0.044802 0.605460 0.034501 0.984374 -0.172675
0.026540 0.198106 0.598929 0.989518 -0.144335 0.004523
0.043125 0.067677 0.930925 0.154666 0.926611 -0.342740
0.026540 0.181425 0.859115 0.997103 -0.064077 0.040983
0.411676 0.154067 0.859623 -0.945188 0.324716 0.034338
0.278741 0.137912 0.192247 -0.032260 0.975411 -0.218021
0.053974 0.140820 0.226648 0.141646 0.988541 0.052185
0.362604 0.266386 0.443224 -0.119100 -0.953940 0.275344
0.265890 0.199021 0.303849 -0.002255 -0.984897 0.173127
0.353178 0.195647 0.527279 -0.270360 -0.962702 0.010482
0.158911 0.269150 0.448095 0.099163 -0.935382 0.339451
0.026540 0.198210 0.940040 0.204546 -0.883060 -0.422334
0.175754 0.059821 0.866252 -0.023373 0.995164 0.095411
0.411676 0.166525 0.777526 -0.762726 0.628540 0.152271
0.026540 0.193833 0.425004 0.681473 -0.731592 0.019168
0.287448 0.124885 0.939696 -0.106657 -0.171384 -0.979414
0.093222 0.175724 0.104529 0.061162 -0.929482 0.363763
0.304634 0.195647 0.365853 -0.233829 -0.971946 0.025375
0.068313 0.064270 0.905937 0.087465 0.988937 -0.119810
0.035321 0.195647 0.499353 0.281355 -0.959039 0.032907
0.383176 0.118381 0.755195 0.986651 -0.158373 0.037926
0.334277 0.044802 0.471287 -0.057168 0.997998 0.027059
0.026540 0.177028 0.607211 0.999920 0.012440 -0.002114
0.148403 0.044802 0.029336 -0.015665 0.957561 0.287805
0.044233 0.059777 0.174995 0.089836 0.302395 0.948940
0.026540 0.128806 0.888425 0.891664 0.191080 0.410395
0.303111 0.188772 0.216158 -0.004047 -0.975498 0.219973
0.314684 0.131719 0.265318 -0.057861 0.876271 0.478331
0.411676 0.238731 0.713972 -0.999199 0.035076 0.019262
0.412061 0.082145 0.811569 -0.996880 -0.009953 -0.078296
0.336663 0.106213 0.031419 -0.230257 0.002955 0.973125
0.224563 0.175594 0.103413 0.005516 -0.950373 0.311064
0.189083 0.044802 0.069285 -0.029710 0.984567 0.172469
0.026529 0.104563 0.724035 0.163345 -0.427174 0.889292
0.026540 0.046744 0.633828 0.083276 0.958353 -0.273175
0.380282 0.243988 0.403761 -0.143210 -0.942189 0.302936
0.395155 0.269465 0.485841 -0.135926 -0.972981 0.186632
0.026540 0.187225 0.770418 0.916251 0.304414 0.260415
0.112637 0.044802 0.412475 0.056626 0.998253 -0.016868
0.105608 0.195647 0.673899 0.147476 -0.988424 0.035616
0.411676 0.161686 0.550879 -0.999931 0.010396 0.005485
0.412061 0.040847 0.188834 -0.380453 0.556447 0.738663
0.209970 0.044802 0.495250 0.016240 0.999185 -0.036965
0.259306 0.229116 0.795351 -0.005082 -0.963628 -0.267198
0.305622 0.199503 0.820421 -0.049444 -0.997238 -0.055418
0.058203 0.176188 0.108496 0.309670 -0.883443 0.351614
0.298934 0.051518 0.150169 -0.117548 0.901871 -0.415705
0.294279 0.114962 0.711375 -0.077282 0.592037 -0.802197
0.404894 0.044802 0.594527 -0.080329 0.996256 -0.031945
0.326485 0.130658 0.266910 -0.063286 0.859772 0.506741
0.026540 0.137745 0.775176 0.591348 0.756974 0.278025
0.094642 0.195647 0.558507 0.187569 -0.981826 0.028906
0.393035 0.190306 0.229281 -0.141421 -0.928530 0.343266
0.196883 0.264747 0.681790 -0.002745 -0.989760 -0.142717
0.207391 0.222305 0.817110 0.000177 -0.964240 -0.265031
0.294578 0.147096 0.054947 -0.010992 -0.891033 0.453806
0.349933 0.070150 0.949056 -0.105050 0.862889 -0.494354
0.317540 0.184726 0.181548 -0.004744 -0.971166 0.238356
0.136991 0.195647 0.372636 0.125485 -0.991857 0.021759
0.133229 0.195647 0.711632 0.099194 -0.994476 0.034315
0.026540 0.141316 0.747914 0.573558 0.812069 0.107583
0.275756 0.130969 0.037744 -0.010091 -0.846252 0.532687
0.297745 0.175117 0.099333 -0.002804 -0.957100 0.289745
0.234946 0.106194 0.975000 -0.024956 -0.291392 -0.956278
0.172581 0.044802 0.502561 0.025526 0.997981 -0.058153
0.156657 0.200434 0.315939 0.001392 -0.985517 0.169571
0.085298 0.044802 0.082338 0.031580 0.998631 0.041697
0.107665 0.269465 0.539384 0.012989 -0.999678 -0.021818
0.226566 0.197044 0.761398 -0.003077 -0.999992 -0.002408
0.169147 0.269465 0.618990 0.004806 -0.998724 -0.050275
0.242857 0.044802 0.465638 -0.005740 0.999976 -0.003827
0.336170 0.195647 0.335530 -0.308285 -0.950868 0.028452
0.167962 0.079163 0.031419 0.030062 0.113311 0.993105
0.026540 0.182059 0.463154 0.987705 -0.155175 0.018977
0.074143 0.195647 0.471451 0.234572 -0.971763 0.025563
0.278576 0.067332 0.030632 -0.154344 0.274030 0.949255
0.322633 0.229286 0.794807 -0.013023 -0.963367 -0.267872
0.285946 0.044802 0.085829 -0.059839 0.990688 0.122293
0.211733 0.080976 0.297896 -0.018377 0.492967 0.869854
0.376650 0.044802 0.330560 -0.100042 0.984998 0.140605
0.122028 0.044802 0.127219 0.043847 0.982946 -0.178592
0.026540 0.184824 0.569533 0.999627 -0.026707 0.005671
0.392071 0.198620 0.799227 -0.199961 -0.978358 -0.053216
0.248651 0.044802 0.036422 -0.046142 0.962623 0.266884
0.026540 0.147097 0.464283 0.999494 0.031536 -0.004109
0.193012 0.144264 0.051925 0.007488 -0.878181 0.478270
0.251748 0.242142 0.753733 -0.002782 -0.963027 -0.269390
0.404179 0.118845 0.800128 -0.315212 -0.740653 -0.593358
0.275426 0.218067 0.358091 -0.042766 -0.931698 0.360708
0.213014 0.258039 0.428517 0.038300 -0.939670 0.339932
0.180609 0.079230 0.031419 0.011386 0.113772 0.993442
0.343845 0.083662 0.837948 -0.044218 0.498379 0.865831
0.034886 0.044802 0.436082 0.074768 0.994940 -0.067116
0.026540 0.092859 0.675932 0.727805 0.328628 -0.601917
0.392647 0.044802 0.622042 -0.069480 0.996031 -0.055636
0.026540 0.081036 0.859141 0.546325 0.449046 0.707027
0.332185 0.094005 0.156050 -0.179748 0.288476 -0.940464
0.026540 0.134371 0.104783 0.936659 -0.197411 0.289307
0.410360 0.047418 0.312730 -0.145420 0.956864 0.251523
0.372136 0.223396 0.813655 -0.042190 -0.965172 -0.258193
0.246841 0.044802 0.553363 -0.003376 0.997924 -0.064314
0.253823 0.134667 0.768556 -0.177395 0.983727 0.028506
0.183371 0.044802 0.495651 0.023612 0.998545 -0.048483
0.334649 0.128999 0.064674 -0.008912 -0.818064 0.575058
0.411676 0.238468 0.430316 -0.886233 -0.460598 0.049402
0.281668 0.045604 0.025200 -0.062882 0.943954 0.324033
0.215435 0.075533 0.300409 -0.004208 0.506541 0.862206
0.026540 0.116249 0.515960 0.996806 0.078406 -0.015169
0.411676 0.118654 0.858881 -0.846968 0.520411 0.108712
0.026540 0.088951 0.230621 0.999906 -0.012741 -0.005085
0.392515 0.260370 0.695746 -0.197126 -0.959896 -0.199350
0.091715 0.096501 0.702523 0.251094 0.489524 -0.835056
0.412061 0.088871 0.743845 -0.998342 -0.007698 0.057046
0.086978 0.134667 0.748382 0.260231 0.965072 -0.030282
0.387710 0.044802 0.331350 -0.106136 0.983849 0.144142
0.083610 0.175930 0.106294 0.127657 -0.923132 0.362672
0.142475 0.194507 0.265226 0.003366 -0.978859 0.204508
0.272422 0.130241 0.939696 -0.067646 -0.116117 -0.990929
0.384854 0.097500 0.031419 -0.308385 0.042850 0.950296
0.026540 0.052664 0.619086 0.214132 0.868164 -0.447704
0.339179 0.269465 0.450441 -0.011082 -0.999734 0.020208
0.186319 0.194634 0.266312 0.000101 -0.980627 0.195887
0.398335 0.044802 0.531887 -0.085332 0.996310 0.009158
0.250802 0.130583 0.175481 0.012901 0.878594 -0.477394
0.364073 0.060943 0.876347 -0.066640 0.983141 0.170273
0.182219 0.138915 0.202275 -0.007589 0.992012 -0.125917
0.138723 0.199614 0.308917 0.001933 -0.984758 0.173918
0.411676 0.254796 0.710983 -0.329299 -0.935123 -0.130798
0.181020 0.195647 0.460475 0.064133 -0.997841 0.014133
0.238061 0.044802 0.584213 -0.005901 0.995851 -0.090813
0.325227 0.195647 0.496353 -0.226267 -0.973978 0.013054
0.184828 0.138469 0.197814 -0.001784 0.987656 -0.156629
0.025000 0.093116 0.817717 0.373871 -0.434400 -0.819461
0.026540 0.241813 0.508069 0.980441 -0.191730 0.044431
0.237894 0.240996 0.757396 -0.001544 -0.963210 -0.268744
0.299099 0.269465 0.565227 -0.003439 -0.999264 -0.038216
0.034227 0.025000 0.209835 -0.029012 0.978536 0.204022
0.235375 0.186011 0.192537 -0.001984 -0.972072 0.234676
0.309912 0.065294 0.913447 -0.059439 0.987420 -0.146520
0.399786 0.192794 0.250572 -0.157053 -0.924074 0.348455
0.390308 0.025000 0.215497 0.000747 0.996030 0.089016
0.121346 0.195647 0.711343 0.116683 -0.992516 0.036026
0.162390 0.208490 0.341217 0.061795 -0.938484 0.339749
0.410330 0.231074 0.789370 -0.218625 -0.967588 -0.126395
0.338697 0.139635 0.238502 -0.118740 0.988151 0.097255
0.055426 0.077784 0.195808 -0.998592 0.003987 0.052902
0.026540 0.213866 0.361288 0.517885 -0.852126 0.075344
0.411676 0.191455 0.751053 -0.877367 0.464755 0.119291
0.075260 0.195647 0.607721 0.204593 -0.978215 0.035167
0.107524 0.044802 0.631887 0.022832 0.983240 -0.180883
0.341001 0.128872 0.269589 -0.065667 0.829264 0.554986
0.135429 0.234411 0.778435 0.007481 -0.964487 -0.264023
0.237462 0.044802 0.575641 -0.004353 0.996394 -0.084737
0.206947 0.169831 0.079197 0.007863 -0.935552 0.353102
0.206925 0.139266 0.205784 -0.023320 0.993804 -0.108671
0.027832 0.244788 0.745616 0.194378 -0.974980 -0.107843
0.170877 0.044802 0.374451 0.022807 0.999217 0.032318
0.148343 0.151793 0.939696 0.057112 -0.029788 -0.997923
0.112002 0.195647 0.368299 0.175092 -0.984317 0.021519
0.026540 0.058258 0.455591 0.383981 0.907636 -0.169578
0.412061 0.043013 0.251796 -0.952752 0.279390 -0.119185
0.059721 0.195647 0.560555 0.235945 -0.971173 0.033948
0.135275 0.044802 0.618421 0.017275 0.987060 -0.159417
0.372160 0.195647 0.719186 -0.254209 -0.967148 -0.001731
0.204528 0.130555 0.175417 0.057966 0.890964 -0.450359
0.145289 0.058813 0.857176 -0.005722 0.988772 0.149323
0.055426 0.089859 0.198575 -0.998359 -0.009241 0.056517
0.411676 0.226403 0.670913 -0.966595 -0.256308 0.000025
0.062284 0.060782 0.874898 0.048002 0.998579 0.023135
0.305770 0.189359 0.221181 -0.004101 -0.976126 0.217166
0.351732 0.200808 0.851738 -0.079489 -0.993337 -0.083441
0.159382 0.044802 0.478060 0.033139 0.998410 -0.045606
0.383176 0.075259 0.246708 0.999273 0.013363 -0.035694
0.026540 0.166887 0.227557 0.939771 -0.307638 0.148960
0.192280 0.091634 0.292977 -0.021529 0.470013 0.882397
0.225708 0.093989 0.156047 0.004365 0.288358 -0.957513
0.166363 0.066006 0.918670 0.024449 0.973385 -0.227867
0.360723 0.074746 0.300772 -0.231696 0.477427 0.847574
0.246409 0.153390 0.939696 -0.028437 -0.054786 -0.998093
0.411676 0.137093 0.834311 -0.739168 0.659078 0.138737
0.404165 0.075923 0.697774 -0.456520 0.424877 -0.781709
0.202894 0.195647 0.684549 0.000948 -0.999760 0.021880
0.401511 0.054186 0.271159 -0.039415 0.489887 -0.870895
0.026540 0.086011 0.033347 0.324310 0.076283 0.942870
0.053885 0.093283 0.772693 -0.999689 -0.024135 -0.006291
0.101435 0.195647 0.661538 0.156102 -0.987109 0.035327
0.411676 0.125624 0.926728 -0.998694 0.002565 -0.051030
0.282660 0.202066 0.936964 -0.003490 -0.930802 -0.365508
0.237003 0.105487 0.286584 -0.038411 0.473838 0.879774
0.173263 0.105628 0.158956 0.112021 0.292946 -0.949544
0.026540 0.141807 0.920361 0.992419 -0.016944 0.121727
0.205691 0.195647 0.601649 0.014220 -0.999780 0.015418
0.094536 0.195647 0.600167 0.178936 -0.983343 0.031914
0.301426 0.126596 0.166510 -0.068019 0.744666 -0.663963
0.195868 0.185962 0.192122 0.002419 -0.968890 0.247479
0.321370 0.257320 0.705243 -0.000031 -0.965176 -0.261600
0.074277 0.180817 0.148099 0.129481 -0.926258 0.353951
0.352926 0.269465 0.481572 -0.042769 -0.997734 0.051937
0.153047 0.180286 0.143559 0.011030 -0.953160 0.302266
0.350666 0.212342 0.848943 -0.019729 -0.964305 -0.264060
0.410888 0.044802 0.397508 -0.110581 0.988054 0.107333
0.411676 0.147535 0.661433 -0.999717 -0.003944 -0.023455
0.039611 0.106691 0.286028 0.172592 0.446998 0.877727
0.191175 0.195647 0.435404 0.033657 -0.999292 0.016801
0.405686 0.202066 0.939377 -0.132692 -0.919030 -0.371182
0.195868 0.200545 0.316889 0.000118 -0.985795 0.167950
0.355152 0.090108 0.155076 -0.226153 0.296063 -0.928009
0.108347 0.195647 0.433392 0.194493 -0.980741 0.017866
0.149555 0.063572 0.900013 0.034143 0.996946 -0.070236
0.173321 0.044802 0.446820 0.031226 0.999366 -0.017117
0.323123 0.195647 0.623745 -0.174179 -0.984713 0.001015
0.123674 0.185520 0.188336 0.011234 -0.961305 0.275258
0.381821 0.176051 0.107327 -0.112809 -0.932780 0.342339
0.187680 0.199087 0.304415 0.000304 -0.984567 0.175011
0.065890 0.269465 0.655829 0.106083 -0.991836 -0.070761
0.240776 0.136856 0.257613 -0.010133 0.940286 0.340236
0.287909 0.195667 0.728347 -0.134583 -0.990836 0.011480
0.411676 0.113088 0.397835 -0.995747 0.070940 0.058780
0.079973 0.195647 0.641105 0.190984 -0.980900 0.036892
0.026540 0.140524 0.381399 0.996756 0.060375 0.053214
0.339249 0.129687 0.939696 -0.249504 -0.363600 -0.897520
0.067138 0.074111 0.031419 0.181550 0.127129 0.975130
0.030586 0.269465 0.587080 0.210964 -0.975275 0.065825
0.149555 0.044802 0.504670 0.031639 0.997083 -0.069452
0.289952 0.180528 0.939696 -0.033354 0.037721 -0.998731
0.043440 0.243222 0.750538 0.123489 -0.978947 -0.162521
0.108864 0.053487 0.691839 -0.014821 0.855348 -0.517842
0.243534 0.269465 0.453844 0.005834 -0.999967 0.005619
0.368011 0.071460 0.958662 -0.119464 0.808513 -0.576225
0.336852 0.134667 0.734253 -0.082376 0.927969 -0.363438
0.293682 0.269465 0.476483 0.000954 -0.999996 -0.002543
0.145790 0.269465 0.520735 0.010760 -0.999815 -0.015924
0.055426 0.064565 0.225621 -0.999234 0.034501 0.018445
0.234030 0.085430 0.837359 0.116677 0.478911 0.870075
0.239641 0.202048 0.329748 -0.001228 -0.987169 0.159676
0.353460 0.052224 0.691478 -0.228156 0.899756 -0.372000
0.379823 0.060990 0.876774 -0.069703 0.981124 0.180380
0.115869 0.115410 0.952927 0.227749 -0.793042 -0.564992
0.025000 0.128519 0.779255 0.573536 -0.814514 -0.087317
0.264557 0.192115 0.244765 -0.002599 -0.978661 0.205464
0.137602 0.195647 0.370022 0.123323 -0.992122 0.022034
0.167621 0.249190 0.412926 0.084744 -0.926202 0.367380
0.273687 0.044802 0.510469 -0.017167 0.999581 -0.023319
0.412061 0.043471 0.764632 -0.997602 0.064443 0.025242
0.118960 0.251352 0.416735 0.135996 -0.917738 0.373179
0.362686 0.139762 0.237225 -0.134211 0.987582 0.081661
0.411676 0.152838 0.670799 -0.999622 -0.017992 -0.020803
0.148406 0.186614 0.197695 0.007620 -0.965835 0.259046
0.206491 0.195647 0.543507 0.025371 -0.999617 0.011025
0.225438 0.195647 0.640876 -0.023921 -0.999598 0.015224
0.026540 0.229830 0.760501 0.560075 -0.825415 -0.070753
0.324416 0.134667 0.790411 -0.367991 0.912999 0.176113
0.411676 0.076710 0.405955 -0.997839 0.035154 0.055504
0.214084 0.195647 0.434440 -0.015642 -0.999727 0.017351
0.067456 0.269465 0.494480 0.116137 -0.989535 0.085635
0.329317 0.044802 0.484248 -0.052550 0.998488 0.016119
0.063781 0.202066 0.893638 0.095195 -0.984712 -0.145874
0.279658 0.060827 0.875302 -0.052060 0.993076 0.105313
0.045488 0.044802 0.546751 0.053996 0.988024 -0.144543
0.383176 0.038272 0.235919 0.991868 0.103468 -0.074103
0.332338 0.044802 0.518239 -0.049575 0.998750 -0.006445
0.067620 0.195647 0.351866 0.256598 -0.966272 0.021828
0.411676 0.146335 0.086084 -0.942190 -0.128101 0.309627
0.212849 0.110802 0.283880 -0.012871 0.496075 0.868184
0.069289 0.044802 0.498562 0.055131 0.993570 -0.098889
0.357221 0.197285 0.767177 -0.188538 -0.981717 -0.026164
0.230191 0.167667 0.939696 -0.015337 0.044781 -0.998879
0.345218 0.179760 0.139056 -0.030533 -0.957066 0.288256
0.411676 0.186001 0.759477 -0.864050 0.488397 0.122008
0.026540 0.097374 0.841148 0.493356 0.445901 0.746841
0.349122 0.245730 0.406831 -0.110326 -0.943696 0.311876
0.052140 0.199220 0.813632 0.194914 -0.979390 -0.052949
0.362251 0.197004 0.760444 -0.203687 -0.978784 -0.022220
0.349240 0.195647 0.516918 -0.266474 -0.963775 0.011404
0.115493 0.134667 0.784364 0.321435 0.905092 0.278366
0.388300 0.141683 0.939696 -0.321759 -0.279911 -0.904500
0.411676 0.077081 0.068384 -0.618504 0.344706 0.706138
0.244126 0.044802 0.127154 -0.024814 0.996572 -0.078914
0.383176 0.026613 0.760762 0.292389 0.953745 0.069847
0.366988 0.195647 0.594469 -0.272522 -0.962140 0.004425
0.410066 0.044802 0.147885 -0.098121 0.993180 -0.062969
0.332761 0.195647 0.631853 -0.190753 -0.981638 0.000418
0.049729 0.128794 0.766298 -0.174324 -0.984681 0.003716
0.118055 0.044802 0.459335 0.047712 0.997649 -0.049203
0.190259 0.203570 0.332548 0.030713 -0.940493 0.338422
0.201766 0.044802 0.414148 0.010639 0.999809 0.016420
0.402167 0.060095 0.868711 -0.060985 0.960328 0.272124
0.076000 0.195647 0.390876 0.248766 -0.968367 0.019499
0.026540 0.098046 0.498016 0.999121 0.041311 0.007053
0.400375 0.025359 0.241330 -0.100305 0.946320 -0.307274
0.150536 0.261812 0.691060 -0.000876 -0.983068 -0.183240
0.411676 0.194875 0.453596 -0.789409 -0.613553 0.019643
0.275890 0.269465 0.498549 0.001441 -0.999951 -0.009802
0.380047 0.136048 0.187778 -0.071332 0.946376 -0.315093
0.055426 0.070603 0.220169 -0.999381 0.023940 0.025763
0.252354 0.097042 0.031419 -0.098078 0.039457 0.994396
0.026540 0.190738 0.662479 0.998211 -0.003583 0.059681
0.060779 0.044802 0.485887 0.059554 0.993875 -0.093096
0.137508 0.195647 0.512485 0.135341 -0.990611 0.019293
0.399974 0.140643 0.939696 -0.345911 -0.297362 -0.889900
0.411676 0.121801 0.388158 -0.992001 0.110836 0.060418
0.375232 0.202066 0.906520 -0.080916 -0.972194 -0.219754
0.271981 0.211378 0.852023 -0.010005 -0.964729 -0.263056
0.411676 0.228150 0.795829 -0.247113 -0.961128 -0.123157
0.407084 0.034191 0.253477 -0.188041 0.837195 -0.513561
0.320761 0.199803 0.827605 -0.063088 -0.996044 -0.062575
0.120256 0.225882 0.805684 0.009331 -0.964744 -0.263024
0.167609 0.157648 0.066202 0.009586 -0.902653 0.430263
0.298436 0.269465 0.637426 -0.006627 -0.997702 -0.067430
0.411676 0.180593 0.356983 -0.896459 -0.442070 0.030593
0.026540 0.242190 0.659170 0.996805 -0.070687 0.037193
0.025000 0.054494 0.751702 0.998803 0.043035 0.023229
0.389654 0.269465 0.637473 -0.228245 -0.971256 -0.067570
0.307695 0.177847 0.122690 -0.004800 -0.962756 0.270331
0.026540 0.155277 0.274798 0.969193 0.234977 0.073831
0.107729 0.269465 0.495685 0.014789 -0.999866 -0.007070
0.082371 0.064717 0.909217 0.078361 0.985693 -0.149225
0.090117 0.175913 0.106143 0.080859 -0.928123 0.363385
0.045957 0.095668 0.721141 -0.366858 -0.387010 0.845954
0.093890 0.195647 0.560615 0.188194 -0.981699 0.029166
0.205068 0.044802 0.555495 0.007933 0.996471 -0.083564
0.249956 0.257432 0.427448 -0.001639 -0.944392 0.328818
0.370456 0.044802 0.125618 -0.086371 0.996259 0.002706
0.026540 0.079265 0.351231 0.996162 0.038862 0.078425
0.170889 0.192002 0.243792 0.001583 -0.977102 0.212766
0.360322 0.202066 0.915784 -0.057013 -0.963395 -0.261953
0.049094 0.197309 0.289202 0.137418 -0.942213 0.305533
0.190426 0.244629 0.745789 0.002182 -0.963743 -0.266822
0.026540 0.161496 0.070996 0.645568 -0.681673 0.344331
0.112907 0.196349 0.744732 0.144761 -0.989113 0.026452
0.192807 0.202066 0.916103 0.006987 -0.959924 -0.280172
0.075612 0.067540 0.150169 0.206286 0.391447 -0.896780
0.136673 0.134667 0.753558 0.120624 0.992510 -0.019326
0.411676 0.091217 0.077611 -0.796605 0.308713 0.519727
0.095557 0.211356 0.852092 0.012203 -0.965201 -0.261226
0.328918 0.066870 0.925005 -0.078797 0.962408 -0.259926
0.412061 0.100131 0.205544 -0.998975 -0.034050 0.029833
0.165466 0.269465 0.636314 0.004329 -0.998364 -0.057019
0.348421 0.267285 0.673776 -0.044284 -0.991483 -0.122479
0.053833 0.115410 0.954692 0.237287 -0.708814 -0.664287
0.106019 0.068361 0.150169 0.158189 0.373766 -0.913934
0.160451 0.128611 0.806735 0.307187 0.806086 0.505827
0.401970 0.176295 0.109409 -0.157809 -0.918093 0.363594
0.411676 0.132411 0.596846 -0.998872 0.023259 -0.041390
0.169936 0.075449 0.697665 0.146146 0.431407 -0.890241
0.114470 0.208998 0.342112 0.109004 -0.936262 0.333963
0.069113 0.111178 0.821263 0.451731 0.590616 0.668664
0.093325 0.063533 0.899653 0.066461 0.994613 -0.079544
0.065293 0.202066 0.919734 0.078655 -0.975794 -0.204058
0.411676 0.104623 0.872282 -0.890104 0.445512 0.096091
0.283513 0.198400 0.298532 -0.002866 -0.984467 0.175544
0.153257 0.238223 0.766255 0.005729 -0.964245 -0.264951
0.411676 0.076737 0.369224 -0.996794 0.038040 0.070388
0.161732 0.063175 0.694607 0.035104 0.594633 -0.803230
0.228460 0.209632 0.857601 -0.004853 -0.965002 -0.262197
0.331151 0.054118 0.150169 -0.170688 0.853778 -0.491863
0.370479 0.195647 0.683127 -0.246834 -0.969051 -0.003668
0.257643 0.197900 0.781939 -0.024659 -0.999463 -0.021567
0.411676 0.120291 0.503295 -0.997277 0.073702 -0.002678
0.314573 0.218803 0.828300 -0.013974 -0.964074 -0.265267
0.345744 0.217957 0.831004 -0.018057 -0.963978 -0.265367
0.240976 0.134667 0.748843 -0.032311 0.987030 -0.157250
0.081995 0.044802 0.084714 0.035306 0.999046 0.025686
0.053885 0.081149 0.716840 -0.584420 -0.115030 0.803257
0.052552 0.069679 0.945601 0.175282 0.865995 -0.468326
0.025000 0.072549 0.743109 0.999250 0.012814 0.036533
0.064282 0.060347 0.870984 0.040976 0.998329 0.040748
0.026540 0.092642 0.088459 0.940408 0.320273 0.114267
0.026540 0.223744 0.379932 0.659266 -0.750554 0.045141
0.182194 0.165115 0.074167 0.009043 -0.921481 0.388317
0.026540 0.067799 0.035631 0.240536 0.241132 0.940212
0.161892 0.230302 0.791560 0.005545 -0.964228 -0.265017
0.339684 0.269179 0.448145 -0.094370 -0.955526 0.279402
0.310441 0.212621 0.848051 -0.014613 -0.964484 -0.263736
0.315906 0.201344 0.864596 -0.044702 -0.994147 -0.098353
0.143502 0.228615 0.376675 0.095261 -0.929630 0.355967
0.340433 0.217092 0.833766 -0.017550 -0.964059 -0.265107
0.411676 0.088982 0.863970 -0.572595 0.570955 0.588342
0.386899 0.269465 0.493567 -0.118413 -0.980442 0.157202
0.411676 0.108522 0.303439 -0.752256 0.320885 0.575451
0.029855 0.044802 0.600337 0.049596 0.980470 -0.190314
0.272328 0.173686 0.087092 0.001080 -0.951274 0.308346
0.411676 0.170360 0.405245 -0.999684 0.013393 0.021259
0.056480 0.182140 0.159420 0.241017 -0.906578 0.346450
0.226072 0.062233 0.694338 -0.173073 0.628517 -0.758296
0.031277 0.199758 0.826542 0.206765 -0.975886 -0.069955
0.412061 0.069759 0.736544 -0.998616 0.010087 0.051613
