0.258751 0.274462 0.426070 0.052277 0.778754 -0.625147
0.320987 0.118731 0.189584 0.952057 -0.280016 0.123199
0.057194 0.104853 0.683408 -0.271857 -0.954949 0.119022
0.372118 0.116810 0.268472 0.541022 -0.592008 -0.597346
0.068427 0.231628 0.636944 -0.904853 0.420373 0.067286
0.141333 0.124583 0.054255 0.004570 -0.996017 0.089050
0.348144 0.135055 0.670671 0.039390 0.621605 -0.782340
0.367374 0.195718 0.635476 0.376602 0.926292 0.012439
0.199023 0.092725 0.887908 -0.003402 -0.994793 0.101863
0.076346 0.093911 0.741265 0.998056 -0.008357 -0.061757
0.301351 0.160594 0.053222 -0.441528 -0.667660 -0.599402
0.215542 0.238163 0.726370 0.007905 0.657130 0.753736
0.336290 0.230421 0.557156 0.946618 0.322346 -0.002758
0.088667 0.087250 0.767608 -0.443238 -0.884887 -0.143231
0.361361 0.146370 0.231445 0.756625 0.567727 0.324354
0.352840 0.102587 0.127330 0.762055 -0.435984 0.478739
0.255359 0.077093 0.695452 0.072746 -0.995460 0.061379
0.185879 0.286210 0.587712 -0.013606 0.999300 0.034849
0.136392 0.197805 0.829811 -0.012619 0.995913 0.089432
0.366541 0.093962 0.843890 0.819687 -0.566230 0.086580
0.115717 0.222308 0.361769 -0.139966 0.835569 -0.531256
0.049504 0.118343 0.132305 -0.555832 -0.231595 0.798382
0.275982 0.084321 0.108370 0.032488 -0.997458 -0.063417
0.042285 0.195999 0.575188 -0.364708 0.931104 -0.005705
0.371374 0.132058 0.957637 0.860960 -0.388670 0.328151
0.058429 0.199615 0.348474 -0.176602 0.983702 -0.033806
0.245466 0.203665 0.102487 0.174332 0.978273 -0.112204
0.134037 0.072640 0.372770 -0.053793 -0.998542 0.004469
0.056989 0.095933 0.921324 -0.093506 -0.980764 0.171344
0.217210 0.183089 0.934102 -0.026347 0.972452 0.231608
0.174611 0.119213 0.959277 0.010113 -0.267958 0.963378
0.192356 0.227347 0.735422 -0.008909 0.665553 0.746298
0.376485 0.157052 0.955413 0.918499 0.371265 0.136093
0.076190 0.231132 0.726736 0.145540 0.624003 0.767749
0.348295 0.128831 0.141073 0.044684 0.530131 -0.846738
0.109202 0.075327 0.669785 -0.183985 -0.974050 0.131821
0.347986 0.090209 0.861900 0.096375 -0.990362 0.099474
0.323485 0.197451 0.164706 0.089641 0.994767 -0.049016
0.328694 0.136074 0.184922 -0.982664 -0.174528 0.062542
0.260277 0.282355 0.643821 0.042574 0.996919 0.065882
0.367609 0.146340 0.961396 -0.146072 0.049663 0.988027
0.240968 0.143539 0.037198 0.007443 -0.976506 0.215363
0.320987 0.099306 0.704107 0.584169 -0.799818 0.137973
0.124452 0.094893 0.910456 -0.044639 -0.988359 0.145443
0.322911 0.212573 0.739412 0.018308 0.694322 0.719431
0.028975 0.148403 0.414468 -0.963963 -0.266035 0.000654
0.283508 0.081973 0.766394 0.115166 -0.993105 0.021877
0.046739 0.032406 0.728092 -0.897748 -0.440215 0.016111
0.188940 0.109934 0.958192 0.004431 -0.287071 0.957899
0.045920 0.127507 0.172348 -0.952557 -0.238860 0.188628
0.035977 0.119555 0.070916 -0.700420 -0.700333 -0.137640
0.088667 0.143689 0.207412 -0.845486 -0.495242 -0.199721
0.028829 0.148984 0.358677 -0.979640 -0.200760 -0.000478
0.207817 0.094590 0.062350 0.015258 -0.324551 -0.945745
0.262108 0.225550 0.359718 0.068256 0.845023 -0.530356
0.030230 0.137328 0.655018 -0.992364 -0.123207 -0.005740
0.063608 0.122504 0.662633 0.028593 0.437980 -0.898530
0.120547 0.075720 0.248767 -0.061095 -0.996250 -0.061259
0.195651 0.211496 0.234491 -0.015251 0.999531 -0.026558
0.267139 0.082173 0.154994 0.042640 -0.997964 -0.047441
0.360494 0.114632 0.713626 0.961736 0.252157 -0.107149
0.376509 0.128998 0.849467 0.991013 -0.130540 0.029185
0.334906 0.169046 0.964365 -0.017281 -0.643596 -0.765171
0.307786 0.072905 0.407699 0.126193 -0.991984 0.006521
0.036559 0.131989 0.053751 -0.536600 0.266456 -0.800663
0.130240 0.199222 0.140041 -0.151714 0.985163 -0.080230
0.030581 0.164728 0.484886 -0.950536 0.310612 -0.001381
0.329328 0.077098 0.763693 -0.946475 0.111626 -0.302862
0.210161 0.266339 0.699878 -0.003459 0.544330 0.838864
0.138683 0.199248 0.806853 -0.015472 0.995308 0.095508
0.179162 0.194744 0.855701 0.022153 0.994842 0.098990
0.046239 0.124876 0.261748 -0.436638 -0.607981 -0.663104
0.320987 0.159267 0.198143 0.328794 -0.934212 -0.138359
0.340960 0.121428 0.062478 0.013078 -0.991390 -0.130288
0.065520 0.134479 0.061881 -0.152556 0.864367 -0.479162
0.296178 0.090941 0.075318 0.078253 -0.570591 -0.817498
0.079827 0.060777 0.750745 0.941081 0.260479 -0.215681
0.299890 0.158019 0.043777 -0.844027 -0.367684 -0.390419
0.095941 0.205135 0.336962 -0.133793 0.970171 -0.202156
0.060630 0.184379 0.928350 -0.103601 0.984382 0.142335
0.081807 0.267604 0.448548 -0.638943 -0.673129 0.372357
0.097818 0.136600 0.068344 0.212506 -0.514653 -0.830646
0.034048 0.173135 0.851224 -0.970404 0.240891 0.016938
0.383386 0.154132 0.308561 0.840652 -0.540976 -0.025479
0.035779 0.098645 0.369225 -0.928947 -0.369893 -0.015418
0.101507 0.077956 0.214071 -0.077745 -0.995171 -0.059927
0.232339 0.072144 0.317859 0.040342 -0.998643 -0.032940
0.361324 0.150634 0.961396 -0.026184 -0.002449 0.999654
0.217217 0.095478 0.916694 0.014390 -0.987511 0.156894
0.057606 0.200228 0.450480 -0.117386 0.993078 -0.004013
0.377453 0.111593 0.376997 0.965008 -0.260963 -0.025659
0.334451 0.126880 0.259879 0.779080 -0.462045 -0.423732
0.101979 0.072801 0.393969 -0.091860 -0.995754 0.006029
0.077886 0.159613 0.059887 -0.009785 -0.155924 -0.987721
0.034169 0.172282 0.873421 -0.967642 0.251265 0.023130
0.076062 0.211486 0.364113 -0.269422 0.810314 -0.520387
0.222616 0.245549 0.719475 0.012976 0.664303 0.747351
0.262903 0.285459 0.552459 0.051294 0.998653 0.007865
0.080612 0.061003 0.245849 0.955113 -0.146024 0.257753
0.078124 0.030151 0.205886 0.761714 -0.639760 0.102460
0.134326 0.127095 0.969971 0.021691 -0.939841 0.340923
0.304261 0.077940 0.707771 0.143909 -0.985864 0.085800
0.081623 0.264442 0.692669 -0.844604 0.522166 0.118268
0.162904 0.194191 0.873548 0.026171 0.993248 0.113021
0.076109 0.127424 0.051411 0.079302 -0.891605 -0.445816
0.220375 0.072336 0.337293 0.026101 -0.999575 -0.012986
0.206735 0.100324 0.061462 0.006514 -0.322496 -0.946548
0.378545 0.166138 0.349554 0.959380 0.282114 -0.001206
0.041060 0.211111 0.450662 0.417821 0.042446 0.907537
0.052054 0.158846 0.717096 -0.364780 0.928508 -0.069347
0.377111 0.110894 0.444725 0.962440 -0.271494 0.001089
0.365021 0.090116 0.741437 0.959754 -0.024126 0.279803
0.048471 0.119684 0.172088 -0.918440 -0.284678 0.274637
0.343949 0.118288 0.070311 -0.115174 -0.130317 -0.984760
0.035341 0.100890 0.406538 -0.938191 -0.346105 -0.002932
0.079844 0.157734 0.060271 0.011817 -0.177238 -0.984097
0.320987 0.081051 0.660536 0.505635 -0.830422 0.233950
0.063105 0.219833 0.706670 -0.954055 -0.276475 -0.115504
0.203168 0.100559 0.951605 0.001386 -0.891846 0.452337
0.361948 0.087841 0.837053 0.099863 -0.990478 0.094763
0.335119 0.105226 0.735678 0.287719 -0.957597 -0.015043
0.289492 0.074733 0.266984 0.103934 -0.992994 -0.056216
0.054366 0.111762 0.787201 -0.289178 0.257073 0.922112
0.128511 0.072925 0.410326 -0.072904 -0.997315 0.006886
0.269827 0.209139 0.748888 0.047036 0.798657 0.599945
0.378828 0.122083 0.122430 0.778945 -0.627077 0.004341
0.198090 0.170300 0.961396 -0.001272 -0.138725 0.990330
0.375999 0.140540 0.110466 0.947485 -0.317419 -0.038943
0.170203 0.190284 0.894553 0.041625 0.989094 0.141279
0.296922 0.073928 0.542508 0.087124 -0.996164 0.008117
0.106477 0.081392 0.160766 -0.077412 -0.995959 -0.045538
0.076638 0.242600 0.417289 -0.712613 -0.431319 0.553305
0.378749 0.132282 0.426608 0.995853 -0.090969 0.001129
0.274183 0.196598 0.848596 0.011942 0.996295 0.085169
0.250138 0.072452 0.349053 0.062726 -0.998029 -0.001650
0.231904 0.081649 0.761694 0.036792 -0.997905 0.053210
0.204815 0.279447 0.682717 -0.002615 0.978942 0.204121
0.351638 0.200121 0.449242 0.099189 0.995058 -0.004549
0.054649 0.199807 0.608082 -0.252308 0.967627 0.006155
0.195307 0.204131 0.086226 -0.020952 0.968465 -0.248266
0.064706 0.208262 0.633513 -0.623047 -0.331427 -0.708498
0.025369 0.155119 0.584260 -0.968879 0.247534 0.000490
0.031555 0.168855 0.552320 -0.970276 0.241997 -0.001703
0.050457 0.100438 0.263262 -0.460567 0.079305 0.884075
0.298362 0.201038 0.214706 0.105889 0.993825 -0.033168
0.123886 0.080502 0.745019 -0.127039 -0.988153 0.086105
0.275867 0.235252 0.374765 0.094669 0.828579 -0.551811
0.299486 0.223174 0.733112 0.078724 0.678350 0.730509
0.340104 0.122372 0.138261 -0.211357 0.444613 -0.870429
0.339820 0.226805 0.398063 0.636011 -0.395655 0.662531
0.324245 0.268750 0.511541 0.842140 -0.539249 -0.003170
0.375788 0.180749 0.638074 0.996599 0.082379 0.002144
0.081310 0.039253 0.185825 0.981260 -0.190958 -0.025774
0.206934 0.193352 0.865843 -0.001849 0.994396 0.105707
0.084472 0.199537 0.244357 -0.096068 0.994833 -0.032853
0.304276 0.074076 0.561899 0.077093 -0.996991 0.008123
0.268197 0.283143 0.619503 0.054455 0.997070 0.053726
0.075561 0.237418 0.508153 -0.957109 0.289726 0.000957
0.296728 0.075697 0.675160 0.132002 -0.984991 0.111210
0.106347 0.199205 0.795240 -0.052488 0.995410 0.080026
0.082939 0.192853 0.869542 -0.071906 0.993225 0.091284
0.081193 0.077123 0.241451 0.991088 0.054166 -0.121701
0.045115 0.099989 0.152737 -0.991771 -0.009309 0.127687
0.180313 0.073274 0.456276 -0.028270 -0.999569 0.007857
0.028971 0.151815 0.845831 -0.934194 -0.356354 0.017150
0.361794 0.134360 0.244722 0.804533 0.415827 0.424045
0.077047 0.246289 0.711212 -0.729988 0.567932 0.380226
0.053820 0.143130 0.244071 -0.461789 -0.670400 -0.580788
0.044985 0.096783 0.245533 -0.997500 -0.018329 -0.068246
0.089237 0.279310 0.515843 -0.357858 0.933766 -0.004382
0.336850 0.228532 0.543632 0.945339 0.326083 -0.001947
0.148634 0.080120 0.183020 -0.043156 -0.998044 -0.045236
0.044969 0.086377 0.150764 -0.998285 0.024022 0.053386
0.217182 0.240102 0.376288 0.042975 0.833036 -0.551547
0.118921 0.133889 0.961390 0.032248 0.057115 0.997847
0.348382 0.176161 0.968605 0.077178 0.982880 0.167301
0.341642 0.212637 0.622184 0.951393 0.300770 -0.066246
0.167133 0.245340 0.718744 -0.029850 0.664735 0.746483
0.096400 0.073579 0.496536 -0.131296 -0.991311 0.008040
0.302979 0.202241 0.286165 0.090747 0.995150 -0.037975
0.151267 0.285388 0.580193 -0.042172 0.998514 0.034526
0.081769 0.256744 0.567713 -0.960387 0.278658 -0.002421
0.062265 0.178038 0.962959 -0.052789 0.890250 0.452403
0.380370 0.120422 0.790283 0.955470 -0.295020 0.006380
0.290344 0.282707 0.460446 0.088512 0.994228 -0.060631
0.269574 0.149392 0.033158 -0.021171 -0.911575 -0.410588
0.042963 0.174706 0.963545 -0.252375 0.672726 0.695518
0.035044 0.182084 0.884004 -0.832357 0.550513 0.064166
0.145651 0.196909 0.845976 -0.000582 0.996394 0.084849
0.208845 0.212081 0.254597 0.009085 0.999648 -0.024941
0.091108 0.276953 0.624780 -0.373174 0.925933 0.058222
0.091742 0.072557 0.361842 -0.088619 -0.996057 0.004083
0.094209 0.279486 0.600711 -0.282828 0.957990 0.047581
0.334045 0.144181 0.764621 -0.402915 0.699540 0.590172
0.070193 0.040361 0.239561 0.231186 -0.754758 0.613916
0.113893 0.193139 0.086347 -0.051165 0.983530 -0.173354
0.302950 0.192135 0.885616 0.033061 0.993169 0.111903
0.339006 0.084209 0.083979 0.089788 -0.978694 -0.184652
0.032940 0.174842 0.336161 -0.978830 0.204665 -0.001820
0.313266 0.075015 0.260619 0.115784 -0.991837 -0.053420
0.300198 0.073755 0.519654 0.103157 -0.994632 0.008153
0.120892 0.074658 0.638610 -0.092340 -0.995397 0.025633
0.372816 0.119001 0.105569 0.957189 -0.030318 0.287873
0.328243 0.107701 0.151415 -0.999691 0.016280 0.018803
0.081120 0.079921 0.242105 0.988755 0.054441 -0.139285
0.226336 0.179138 0.949340 -0.049847 0.939093 0.340028
0.088667 0.093348 0.256072 -0.927210 -0.285276 -0.242693
0.142982 0.196938 0.845025 -0.003163 0.996402 0.084695
0.125264 0.083910 0.125729 -0.064045 -0.996890 -0.045916
0.255109 0.162890 0.967739 0.724119 -0.561382 0.400626
0.162833 0.080991 0.752119 -0.084231 -0.991383 0.100326
0.038290 0.188792 0.234974 -0.703366 0.710522 -0.020871
0.027159 0.153424 0.643457 -0.889824 -0.456285 -0.004288
0.082824 0.198109 0.789046 -0.090482 0.991291 0.095679
0.043708 0.109061 0.930582 -0.897946 -0.422262 0.124048
0.365114 0.184393 0.896994 0.291996 0.952818 0.082919
0.375034 0.170880 0.913188 0.948637 0.313416 0.043108
0.045593 0.082811 0.680009 -0.972180 0.060170 0.226377
0.044990 0.130398 0.683669 -0.982209 0.140129 -0.125020
0.035551 0.105241 0.759210 -0.422330 -0.903793 -0.069256
0.045692 0.088728 0.666584 -0.956472 0.003134 -0.291808
0.053475 0.110317 0.222289 -0.963167 0.176370 0.202983
0.294828 0.072078 0.311237 0.112724 -0.992468 -0.047958
0.320444 0.094864 0.910680 0.108052 -0.986982 0.119132
0.153492 0.282973 0.637194 -0.038634 0.996139 0.078829
0.081540 0.121206 0.767702 0.994700 0.070551 0.074802
0.100310 0.271538 0.430624 -0.217412 0.759048 -0.613659
0.156735 0.164498 0.033309 -0.020003 -0.873092 -0.487144
0.329733 0.141673 0.062974 0.235485 -0.511441 -0.826423
0.372973 0.125177 0.925963 0.939830 -0.319753 0.120325
0.128825 0.077414 0.222482 -0.056516 -0.997044 -0.052056
0.033906 0.177453 0.328052 -0.979602 0.200939 -0.001816
0.320987 0.091805 0.690277 0.854861 -0.483218 0.188977
0.330060 0.054237 0.183113 -0.939134 0.321150 0.122024
0.192944 0.152528 0.961396 -0.000854 -0.098846 0.995102
0.159789 0.081807 0.159880 -0.035129 -0.998259 -0.047372
0.070428 0.245734 0.418577 -0.688214 -0.460364 0.560737
0.031179 0.127482 0.724734 -0.999986 -0.001095 0.005083
0.328804 0.062976 0.771381 -0.965224 -0.155846 0.209891
0.328124 0.046502 0.698827 -0.995474 -0.073219 -0.060587
0.373368 0.097084 0.333268 0.906466 -0.397741 -0.141852
0.197489 0.207629 0.118288 -0.040078 0.995432 -0.086658
0.055483 0.026098 0.718157 -0.250215 -0.963821 -0.091877
0.029544 0.148145 0.275499 -0.483095 0.873585 0.058887
0.048466 0.063803 0.174309 -0.918478 0.304134 0.252787
0.291947 0.193618 0.088100 0.056196 0.985280 -0.161448
0.098961 0.081416 0.758297 -0.140568 -0.988280 0.059521
0.233801 0.237632 0.726002 0.022634 0.656097 0.754337
0.136518 0.283380 0.610624 -0.062998 0.996774 0.049720
0.051609 0.197199 0.720793 -0.307212 0.951155 0.030399
0.328690 0.267210 0.663157 0.867564 0.494789 0.050160
0.067920 0.121847 0.133782 -0.256540 -0.319393 0.912236
0.379554 0.139937 0.509330 0.983835 -0.179076 0.000588
0.160499 0.282603 0.437148 -0.041435 0.982126 -0.183605
0.243005 0.123173 0.063960 0.029089 0.037509 -0.998873
0.380206 0.150457 0.844368 0.946198 -0.323092 0.017927
0.244617 0.149225 0.035387 0.005328 -0.989562 -0.144007
0.148849 0.192235 0.890397 0.017341 0.991801 0.126613
0.039075 0.087309 0.369276 -0.893565 -0.448789 -0.011403
0.188549 0.210913 0.230301 -0.031514 0.999135 -0.027122
0.308649 0.274149 0.431407 0.182146 0.740370 -0.647051
0.037367 0.187087 0.192669 -0.778178 0.627699 -0.020828
0.031300 0.128742 0.409442 -0.995741 -0.092186 0.000960
0.036976 0.189753 0.322424 -0.733374 0.679606 -0.017234
0.273503 0.072576 0.364371 0.089786 -0.995958 0.002501
0.292409 0.193329 0.086365 0.051024 0.984604 -0.167190
0.269258 0.184924 0.055609 0.033247 0.898815 -0.437065
0.379970 0.142653 0.433713 0.985934 -0.167127 0.001333
0.344443 0.158731 0.061036 -0.234174 -0.206447 -0.950022
0.347008 0.072404 0.344191 0.179932 -0.983633 -0.009547
0.332179 0.198473 0.228688 0.092884 0.995275 -0.028293
0.082900 0.096657 0.928689 -0.046191 -0.981508 0.185762
0.272673 0.143590 0.037424 0.015789 -0.973678 -0.227382
0.232449 0.173705 0.037021 0.031604 0.716820 -0.696542
0.067847 0.073017 0.422492 -0.152743 -0.988236 0.007741
0.027520 0.165038 0.204293 -0.969431 0.244568 0.019767
0.086360 0.188872 0.907311 -0.049065 0.989831 0.133521
0.124148 0.197434 0.833644 -0.021966 0.996346 0.082531
0.129361 0.163971 0.052713 0.074979 -0.867209 -0.492266
0.359916 0.106784 0.755653 0.920913 -0.159557 -0.355613
0.110399 0.282631 0.566123 -0.110668 0.993719 0.016591
0.235538 0.154176 0.026916 0.037251 -0.403268 -0.914324
0.182518 0.116650 0.061202 -0.019771 0.547434 -0.836615
0.351400 0.200064 0.439728 0.102147 0.994761 -0.004142
0.329769 0.251056 0.493921 0.969646 0.244307 0.009991
0.210718 0.114301 0.057413 0.013678 0.494117 -0.869288
0.381084 0.119830 0.738878 0.957574 -0.287960 0.011409
0.082053 0.074571 0.627057 -0.145320 -0.989016 0.027015
0.082900 0.196757 0.814723 -0.086663 0.992633 0.084672
0.059102 0.190858 0.084434 -0.927448 0.371214 -0.045175
0.145428 0.164236 0.035993 0.007000 -0.971339 -0.237596
0.093428 0.191942 0.086055 -0.063133 0.983235 -0.171065
0.333257 0.083747 0.231253 -0.992810 0.039277 -0.113077
0.315449 0.084240 0.092708 0.025335 -0.992742 -0.117567
0.158576 0.147952 0.064630 0.018921 -0.310648 -0.950337
0.262180 0.164251 0.065402 -0.048927 -0.733462 -0.677967
0.079414 0.188303 0.908957 -0.063175 0.989497 0.130018
0.063542 0.216354 0.664237 -0.917282 0.393910 0.058557
0.274851 0.282042 0.443731 0.072559 0.986098 -0.149486
0.108684 0.148426 0.034991 -0.513438 0.152286 -0.844506
0.363087 0.171453 0.961396 -0.032716 -0.067801 0.997162
0.088667 0.107923 0.180757 -0.977283 -0.190055 0.093789
0.253991 0.182534 0.950134 -0.054973 0.955545 0.289675
0.073889 0.042815 0.767317 0.340071 -0.693472 0.635176
0.296996 0.073358 0.467331 0.104934 -0.994446 0.008123
0.320987 0.086444 0.181664 0.963785 -0.266604 -0.006399
0.320987 0.082771 0.212613 0.941724 -0.326928 -0.079213
0.120717 0.074571 0.627162 -0.111120 -0.993675 0.016220
0.031548 0.126202 0.374348 -0.998449 -0.055653 0.001268
0.329532 0.151221 0.191259 -0.929530 0.367872 -0.025372
0.361097 0.055449 0.724300 0.918883 0.394419 -0.009314
0.322652 0.130932 0.068953 -0.169056 -0.459662 -0.871855
0.376793 0.171647 0.794260 0.967066 0.254307 0.010577
0.173227 0.073916 0.540898 -0.041753 -0.999098 0.007727
0.320987 0.121551 0.170693 0.904493 -0.271432 0.328962
0.359791 0.093423 0.895668 0.135517 -0.985354 0.103497
0.066960 0.172304 0.963805 -0.071007 0.554074 0.829434
0.031537 0.126211 0.334787 -0.998969 -0.045249 0.003664
0.199321 0.076311 0.684087 -0.012781 -0.997717 0.066317
0.312972 0.210339 0.743496 0.001798 -0.499502 -0.866311
0.192891 0.198203 0.088313 -0.044776 -0.996720 -0.067412
0.227902 0.197883 0.812522 -0.018117 0.995076 0.097442
0.106535 0.281843 0.593335 -0.129227 0.991128 0.031071
0.322298 0.085260 0.081057 0.048958 -0.856213 -0.514298
0.082429 0.259239 0.532888 -0.981799 0.189920 -0.000949
0.045599 0.095796 0.663214 -0.328119 -0.587055 0.740071
0.188390 0.211286 0.267188 -0.041532 0.998804 -0.025783
0.364354 0.048695 0.163959 0.972288 -0.198426 -0.123626
0.238689 0.164262 0.964101 0.155154 -0.741001 -0.653333
0.056219 0.133188 0.059659 -0.137683 0.620204 -0.772263
0.065516 0.074230 0.582275 -0.200307 -0.979703 0.007639
0.054101 0.101391 0.132352 -0.298107 0.141932 -0.943921
0.109686 0.074634 0.635369 -0.107513 -0.993861 0.026116
0.288219 0.193874 0.872927 0.019042 0.994278 0.105113
0.353555 0.141421 0.246193 0.487066 -0.654789 -0.577943
0.084296 0.189079 0.905436 -0.052481 0.990157 0.129746
0.079909 0.152066 0.728407 0.917210 0.398114 0.015186
0.232740 0.090966 0.869621 0.024007 -0.994794 0.099041
0.216289 0.116139 0.059179 0.006952 0.689088 -0.724645
0.302061 0.196166 0.845832 0.043841 0.995863 0.079594
0.174420 0.073808 0.526689 -0.039717 -0.999180 0.007808
0.245917 0.213219 0.746994 -0.050958 -0.464932 -0.883879
0.363829 0.074635 0.414176 0.287822 -0.957663 0.006268
0.360170 0.152624 0.747133 0.602237 0.755392 0.258252
0.368167 0.083284 0.417799 0.769444 -0.638695 0.005017
0.037781 0.092106 0.385355 -0.910834 -0.412702 -0.007645
0.272585 0.107390 0.956045 0.024942 -0.485984 0.873611
0.318282 0.083674 0.125677 0.049364 -0.998155 -0.035360
0.328233 0.122284 0.158336 -0.999928 0.006869 0.009815
0.095708 0.072924 0.410221 -0.111241 -0.993769 0.006974
0.086720 0.216114 0.364441 -0.242605 0.827147 -0.506922
0.049989 0.102261 0.756265 -0.912914 -0.114163 -0.391860
0.257634 0.073419 0.475377 0.058022 -0.998283 0.008003
0.093006 0.079240 0.194151 -0.085451 -0.994636 -0.058281
0.037556 0.184650 0.129355 -0.727829 0.684912 -0.034071
0.364177 0.079069 0.155564 0.977955 0.047033 0.203452
0.031201 0.144013 0.876617 -0.952260 -0.303656 0.031524
0.277628 0.177991 0.964486 -0.014023 0.697505 -0.716443
0.293475 0.202964 0.289233 0.097324 0.994446 -0.040067
0.379084 0.166887 0.171264 0.941254 0.334046 -0.049540
0.044745 0.103832 0.145383 -0.989859 0.042006 -0.135703
0.242485 0.172084 0.964001 -0.116444 0.580474 -0.805910
0.185576 0.084929 0.074584 -0.003706 -0.984854 -0.173344
0.131319 0.185448 0.936215 0.012801 0.983724 0.179229
0.078163 0.273729 0.528218 -0.512147 0.856187 0.068182
0.052546 0.094977 0.911528 -0.122660 -0.980954 0.150609
0.338284 0.165379 0.970003 -0.012345 -0.313179 0.949614
0.141909 0.084551 0.097124 -0.005220 -0.993065 -0.117453
0.248070 0.210445 0.306280 0.107697 0.993128 -0.045809
0.348944 0.199866 0.460821 0.343409 0.939184 -0.001874
0.179379 0.079842 0.190415 -0.018279 -0.998698 -0.047635
0.314682 0.197178 0.142808 0.087456 0.993860 -0.067778
0.320987 0.105492 0.220585 0.942998 -0.285107 -0.171665
0.351774 0.200283 0.482818 0.087215 0.996181 -0.004203
0.032233 0.165527 0.101305 -0.972081 0.230976 -0.041328
0.322073 0.278634 0.535341 0.431656 0.901970 0.011141
0.244155 0.198454 0.824505 -0.013641 0.995539 0.093363
0.182494 0.097313 0.935728 -0.002213 -0.978355 0.206920
0.333819 0.117888 0.258957 -0.436986 0.322477 0.839674
0.291151 0.076033 0.680048 0.124136 -0.986957 0.102495
0.085945 0.278113 0.515410 -0.453301 0.891347 -0.004373
0.132036 0.148552 0.961390 -0.000041 -0.015202 0.999884
0.341623 0.213816 0.503150 0.919983 0.391883 0.007636
0.088667 0.092168 0.748439 -0.478150 -0.868965 -0.127566
0.111912 0.073191 0.445306 -0.108002 -0.994118 0.008075
0.190903 0.210872 0.207065 -0.019930 0.999407 -0.028067
0.068130 0.130860 0.256168 -0.576696 -0.573222 -0.582098
0.028472 0.119383 0.724436 -0.953055 -0.302067 0.021002
0.329107 0.273439 0.519923 0.465328 0.885053 0.012322
0.151229 0.190610 0.903491 0.025736 0.989514 0.142129
0.379919 0.144085 0.792935 0.980641 -0.195172 0.015863
0.335815 0.231930 0.534237 0.946104 0.323859 -0.001442
0.071267 0.223823 0.514897 -0.941752 0.336309 0.000240
0.088667 0.085506 0.189411 -0.960443 -0.274588 -0.046372
0.331221 0.272863 0.571107 0.674521 0.732098 0.095150
0.046362 0.061507 0.248493 -0.921452 -0.228133 0.314456
0.320987 0.152012 0.208525 0.724398 -0.677951 -0.125019
0.357499 0.199002 0.524595 0.304064 0.952636 -0.005501
0.328087 0.127941 0.158291 -0.992091 0.093267 -0.084010
0.104275 0.080663 0.747350 -0.143589 -0.986967 0.072647
0.166593 0.141233 0.039003 -0.001091 0.997713 0.067583
0.080483 0.081814 0.666815 0.948740 -0.077234 -0.306476
0.359334 0.068734 0.259112 0.480266 -0.299312 0.824474
0.031200 0.144608 0.886256 -0.946925 -0.319624 0.034251
0.134246 0.247493 0.714817 -0.060769 0.666905 0.742661
0.332510 0.090656 0.866585 0.092896 -0.990724 0.099174
0.090769 0.080686 0.171724 -0.088581 -0.994616 -0.053788
0.238177 0.205906 0.127576 0.128619 0.988473 -0.079867
0.371767 0.105310 0.726477 0.318513 -0.947401 -0.031322
0.066691 0.128503 0.973245 -0.017579 -0.787680 0.615833
0.141459 0.205048 0.281939 -0.154386 0.987320 -0.036935
0.149599 0.073325 0.463013 -0.064623 -0.997878 0.007952
0.191322 0.137828 0.062745 -0.003610 -0.234859 -0.972023
0.249871 0.174078 0.974308 -0.023905 0.449013 0.893206
0.334581 0.200305 0.325285 0.125901 0.986593 -0.103839
0.058521 0.072269 0.330505 -0.176512 -0.983474 -0.040269
0.031450 0.161658 0.137283 -0.983333 0.177729 -0.038311
0.328507 0.255187 0.531320 0.966567 0.256410 -0.001288
0.032835 0.170630 0.810468 -0.962658 0.270437 0.012359
0.256038 0.283639 0.624409 0.038268 0.998042 0.049484
0.141832 0.144370 0.037555 -0.016994 0.995148 -0.096914
0.374981 0.173083 0.892132 0.958105 0.285113 0.027304
0.026273 0.154151 0.314770 -0.819442 -0.571997 -0.036517
0.031173 0.131024 0.519619 -0.999268 -0.038247 0.000160
0.374522 0.189028 0.779058 0.747213 0.663511 0.037772
0.104172 0.084697 0.805996 -0.100966 -0.994714 0.018717
0.028768 0.156460 0.642876 -0.933440 0.358729 0.001780
0.301984 0.085940 0.817101 0.084153 -0.992583 0.087730
0.116697 0.192576 0.082432 -0.046751 0.978041 -0.203103
0.309715 0.073092 0.432263 0.126484 -0.991936 0.008090
0.368732 0.086324 0.524780 0.853862 -0.520500 -0.000063
0.101769 0.072508 0.298609 -0.072085 -0.994202 -0.079788
0.350208 0.064480 0.662151 0.111376 -0.422221 -0.899625
0.044845 0.197372 0.594433 -0.320586 0.947214 0.003305
0.142057 0.082054 0.154375 -0.049522 -0.997711 -0.046041
0.152072 0.072411 0.344851 -0.035632 -0.999299 -0.011473
0.181368 0.086012 0.817835 -0.020469 -0.995481 0.092733
0.088667 0.121352 0.193469 -0.965138 -0.257781 -0.045362
0.192510 0.205822 0.097121 -0.045852 0.988218 -0.146025
0.326224 0.262019 0.567747 0.978947 0.204090 -0.003229
0.339685 0.070944 0.261282 -0.224401 -0.332057 0.916178
0.088667 0.078561 0.237565 -0.896866 -0.403420 -0.181339
0.088667 0.126993 0.147230 -0.970668 -0.192994 0.143381
0.049299 0.197352 0.396273 -0.362008 0.932110 -0.011009
0.329431 0.084069 0.240365 -0.944395 0.060658 -0.323171
0.378454 0.111718 0.610613 0.951570 -0.306907 0.017978
0.027423 0.153148 0.676313 -0.894082 -0.447880 -0.004605
0.117282 0.194069 0.091366 -0.067952 0.984958 -0.158872
0.197774 0.223885 0.353827 -0.046605 0.839898 -0.540740
0.352982 0.102244 0.132041 0.209302 0.125202 -0.969803
0.216979 0.094836 0.909995 0.013400 -0.989952 0.140769
0.192686 0.285452 0.608380 -0.009917 0.998637 0.051232
0.340950 0.074232 0.582520 0.098326 -0.995120 0.008251
0.381062 0.151107 0.676593 0.942949 -0.332911 -0.004248
0.303978 0.072231 0.326700 0.126590 -0.991555 -0.028173
0.291817 0.074476 0.614660 0.084334 -0.996054 0.027639
0.269914 0.284642 0.483754 0.059096 0.997351 -0.042401
0.051669 0.127553 0.254399 -0.378487 0.469522 0.797682
0.205126 0.077509 0.226904 0.003821 -0.998833 -0.048148
0.049650 0.119248 0.132686 -0.514333 -0.243406 0.822323
0.202172 0.184070 0.928884 0.004510 0.976371 0.216052
0.161505 0.079736 0.189975 -0.032592 -0.998407 -0.046055
0.223841 0.212650 0.328648 0.054307 0.996408 -0.064976
0.331496 0.060601 0.177721 -0.943535 0.276042 0.183146
0.371437 0.193502 0.668786 0.423201 0.905865 0.017611
0.210616 0.228352 0.359783 0.042659 0.848517 -0.527446
0.378296 0.167454 0.701213 0.964454 0.264218 0.004243
0.050593 0.065619 0.215549 -0.907242 0.362493 -0.213332
0.031230 0.166172 0.739387 -0.949230 0.314518 0.006352
0.304499 0.175218 0.961396 -0.001307 -0.134080 0.990970
0.046975 0.197689 0.618869 -0.306940 0.951697 0.007804
0.032771 0.187792 0.792766 -0.904443 0.425217 0.034252
0.359112 0.064354 0.182928 0.903039 0.379712 0.200848
0.311237 0.072517 0.356650 0.136847 -0.990592 0.000897
0.129510 0.105845 0.057945 0.978828 -0.092903 -0.182388
0.036218 0.101619 0.630505 -0.910660 -0.408314 0.063075
0.154347 0.163989 0.961393 -0.022276 -0.100597 0.994678
0.301090 0.132280 0.970622 0.000539 0.942870 0.333160
0.066421 0.073779 0.522884 -0.170942 -0.985248 0.008042
0.327464 0.102533 0.767654 0.366068 -0.924883 -0.102891
0.279112 0.081848 0.764576 0.108552 -0.993791 0.024416
0.049426 0.196646 0.719281 -0.305916 0.951624 0.028776
0.144074 0.206031 0.274788 -0.149689 0.988098 -0.035446
0.320987 0.088853 0.789462 0.448595 -0.890110 -0.080420
0.059549 0.112643 0.787759 -0.108143 0.285979 0.952114
0.333824 0.244550 0.709651 0.787453 0.529251 0.315930
0.237892 0.084596 0.110864 0.015804 -0.997723 -0.065572
0.136686 0.076857 0.692023 -0.132603 -0.984599 0.113937
0.076066 0.083958 0.111432 -0.106714 -0.993797 -0.031303
0.314308 0.078871 0.200668 0.085809 -0.995267 -0.045613
0.061902 0.211418 0.701338 -0.923150 0.382725 0.036271
0.339769 0.157389 0.157514 0.428683 -0.837390 0.339129
0.351663 0.074710 0.645473 0.160704 -0.985478 0.054845
0.364710 0.130151 0.229289 0.999269 -0.016186 -0.034626
0.375955 0.182186 0.722810 0.980889 0.194224 0.011577
0.362984 0.096307 0.891823 0.656314 -0.748313 0.096326
0.164853 0.072984 0.418061 -0.036007 -0.999325 0.007214
0.381904 0.152159 0.862380 0.855319 -0.517798 0.017719
0.080369 0.270964 0.471614 -0.599447 -0.799363 0.041019
0.283646 0.174566 0.041925 0.071439 0.733355 -0.676082
0.147748 0.090323 0.862896 -0.030289 -0.994569 0.099570
0.060246 0.073677 0.509345 -0.176668 -0.984237 0.008075
0.043938 0.195913 0.434259 -0.425388 0.904972 -0.008432
0.345316 0.074151 0.571880 0.113086 -0.993551 0.008280
0.345124 0.219923 0.705611 -0.730877 -0.674991 -0.101020
0.246542 0.149246 0.035187 0.004346 -0.986989 -0.160728
0.322608 0.173760 0.045911 0.333803 0.005177 -0.942629
0.318917 0.275724 0.438278 0.297892 0.906174 -0.300181
0.071878 0.120905 0.069823 0.075458 -0.036259 -0.996490
0.108855 0.130944 0.961390 0.037965 0.069980 0.996826
0.273836 0.079532 0.195188 0.065933 -0.996493 -0.051520
0.345118 0.027988 0.703647 -0.056841 -0.953632 -0.295558
0.206664 0.210184 0.750751 0.005363 0.780509 0.625121
0.330409 0.104926 0.663007 -0.872009 0.113750 -0.476089
0.364633 0.102716 0.769167 0.994779 -0.012369 -0.101299
0.235081 0.075369 0.670391 0.042548 -0.996630 0.070127
0.076349 0.076744 0.207759 0.997874 0.053614 -0.037044
0.313670 0.084616 0.804821 0.159609 -0.987156 0.006990
0.364867 0.088381 0.144240 0.987481 -0.026242 -0.155539
0.374929 0.125431 0.896866 0.966803 -0.247199 0.064691
0.135002 0.075413 0.671034 -0.135277 -0.984325 0.113154
0.125150 0.240328 0.720409 -0.071488 0.658951 0.748781
0.320987 0.079115 0.234922 0.912138 -0.388485 -0.130706
0.294146 0.201545 0.225651 0.107071 0.993651 -0.034558
0.223326 0.128463 0.046916 0.006949 0.976172 -0.216887
0.073374 0.093967 0.662141 -0.194171 -0.578053 0.792560
0.135676 0.074011 0.553406 -0.087951 -0.996095 0.007731
0.116414 0.148029 0.961390 0.001071 0.001216 0.999999
0.195023 0.211512 0.241237 -0.018478 0.999484 -0.026281
0.030941 0.160555 0.213745 -0.250809 -0.922605 -0.293077
0.368863 0.111299 0.910088 0.904621 -0.414809 0.097951
0.050275 0.173220 0.062808 0.103523 0.438097 -0.892947
0.275133 0.137613 0.043516 -0.015879 0.032946 0.999331
0.344761 0.076359 0.657937 -0.067842 -0.237409 -0.969038
0.047239 0.043247 0.760283 -0.861966 -0.417583 0.287471
0.379265 0.137700 0.526830 0.986357 -0.164619 0.000254
0.382161 0.153520 0.919085 0.774068 0.630548 0.056807
0.033443 0.185526 0.803172 -0.929003 0.368736 0.031422
0.273973 0.279729 0.666500 0.059951 0.990223 0.125954
0.283333 0.072490 0.353055 0.103296 -0.994650 0.001034
0.271065 0.281468 0.650227 0.056774 0.994977 0.082453
0.144497 0.088533 0.844212 -0.032095 -0.994760 0.097065
0.297812 0.150420 0.033329 0.419625 0.049103 -0.906368
0.281529 0.074101 0.565238 0.053349 -0.998544 0.007990
0.324988 0.143755 0.243294 0.648065 -0.590405 -0.481076
0.306740 0.193326 0.091352 0.071223 0.986771 -0.145640
0.069164 0.194768 0.820481 -0.135509 0.987646 0.078696
0.083986 0.163172 0.184955 -0.156078 -0.984039 0.085477
0.033646 0.106297 0.387511 -0.950417 -0.310780 -0.011124
0.080605 0.048627 0.161758 0.954792 -0.242308 -0.172218
0.381839 0.163906 0.190370 0.568152 -0.821824 -0.042530
0.162259 0.084973 0.809087 -0.044731 -0.997566 0.053492
0.364592 0.083319 0.777830 0.980094 -0.013154 0.198096
0.380022 0.118673 0.769593 0.927086 -0.374841 0.002230
0.068761 0.216134 0.497436 -0.925825 0.377780 0.011440
0.140718 0.193848 0.082059 -0.032196 0.976954 -0.211006
0.144255 0.095287 0.914472 -0.016211 -0.988027 0.153429
0.088667 0.090273 0.187011 -0.968619 -0.247183 -0.026020
0.329074 0.128990 0.223024 -0.963214 -0.229955 -0.139065
0.064545 0.087507 0.265515 0.057299 -0.073927 0.995616
0.070509 0.110778 0.129783 -0.515660 -0.386499 0.764665
0.330697 0.056760 0.740587 -0.933277 0.323736 -0.155530
0.098936 0.083981 0.121636 -0.084741 -0.995422 -0.044201
0.218569 0.164909 0.038877 -0.001720 -0.914727 -0.404069
0.080031 0.072925 0.410328 -0.129610 -0.991540 0.007021
0.184192 0.137852 0.961396 0.011732 -0.066746 0.997701
0.193040 0.073252 0.453352 -0.013230 -0.999882 0.007814
0.050035 0.118941 0.702136 -0.904585 -0.330413 0.269356
0.044718 0.213743 0.448525 0.463079 0.093443 0.881378
0.343526 0.197409 0.246898 0.091501 0.995272 -0.032587
0.366253 0.099725 0.091382 0.807649 -0.583108 0.087685
0.300222 0.178221 0.963751 0.024140 0.514595 0.857093
0.333293 0.114514 0.204444 -0.996852 -0.074595 -0.026858
0.035457 0.100187 0.324284 -0.898373 -0.401381 -0.178379
0.328294 0.136139 0.743599 -0.998255 -0.057949 -0.011362
0.225243 0.229275 0.733557 0.017451 0.658930 0.752002
0.376144 0.181631 0.576385 0.999295 0.036959 -0.006542
0.269483 0.282817 0.446443 0.061819 0.990167 -0.125490
0.339227 0.147492 0.160235 -0.238362 0.806410 -0.541189
0.230462 0.160881 0.961396 0.001416 -0.097246 0.995259
0.077347 0.083930 0.233680 0.971726 0.047327 -0.231320
0.341575 0.087682 0.835391 0.084221 -0.991818 0.095935
0.328274 0.069805 0.766073 -0.998991 0.002191 -0.044861
0.062574 0.128452 0.140637 -0.002673 0.528061 -0.849202
0.128587 0.075179 0.257167 -0.054459 -0.996691 -0.060339
0.350001 0.025452 0.195154 0.104406 -0.993805 -0.038094
0.220666 0.074626 0.634342 0.017164 -0.999735 0.015325
0.360072 0.083507 0.164182 0.921006 0.104537 0.375260
0.268034 0.204514 0.267404 0.152175 0.987656 -0.037137
0.081002 0.190220 0.894802 -0.068071 0.991418 0.111606
0.106532 0.205928 0.751563 -0.064488 0.572962 0.817041
0.364556 0.121345 0.234453 0.992221 -0.070276 -0.102757
0.328106 0.078423 0.672701 -0.993986 -0.012405 -0.108798
0.051065 0.103289 0.762204 -0.350691 -0.931632 -0.095278
0.305727 0.108103 0.954680 0.046425 -0.567376 0.822149
0.119500 0.282106 0.609029 -0.099287 0.994212 0.041054
0.299075 0.196242 0.117683 0.089573 0.991118 -0.098297
0.337985 0.104052 0.076246 0.005830 -0.630280 -0.776346
0.330348 0.098223 0.786754 0.507916 -0.833500 -0.217483
0.051146 0.066133 0.199852 -0.962650 -0.269320 0.027798
0.262860 0.077995 0.219882 0.071039 -0.995933 -0.055418
0.227963 0.073728 0.516119 0.023244 -0.999699 0.007837
0.111599 0.141331 0.961886 0.000143 -0.588528 0.808477
0.333268 0.110710 0.223394 -0.994129 -0.056732 -0.092131
0.214550 0.201050 0.762839 -0.003853 0.945536 0.325493
0.379791 0.151630 0.272443 0.252619 0.965377 0.065050
0.210119 0.074671 0.652685 0.007964 -0.999508 0.030327
0.156928 0.139985 0.961389 -0.005189 0.015799 0.999862
0.324257 0.272063 0.664811 0.464954 0.880365 0.093677
0.255185 0.084074 0.126917 0.023300 -0.998681 -0.045759
0.300172 0.245978 0.394459 0.169025 0.805039 -0.568633
0.333315 0.078353 0.192710 -0.998542 0.048910 0.022832
0.215342 0.239565 0.375435 0.042651 0.834093 -0.549972
0.029902 0.121030 0.285597 -0.995549 -0.085786 -0.039032
0.342078 0.223590 0.717028 0.894522 0.429786 0.122939
0.346697 0.073819 0.528122 0.153940 -0.988045 0.008324
0.301481 0.189135 0.070102 0.047248 0.952005 -0.302415
0.377258 0.184376 0.585052 0.984952 0.172740 -0.005435
0.082675 0.275882 0.526343 -0.547527 0.836781 0.003442
0.094925 0.192500 0.878595 -0.047903 0.993658 0.101735
0.362285 0.110649 0.664318 0.850934 0.133443 -0.508039
0.235309 0.074112 0.566746 0.019014 -0.999790 0.007664
0.353431 0.193690 0.813300 0.187996 0.979825 0.067822
0.269120 0.093832 0.899690 0.058817 -0.992279 0.109190
0.381342 0.152753 0.695203 0.912174 -0.409786 -0.003860
0.286566 0.113617 0.063238 0.054576 0.573197 0.817598
0.048397 0.044119 0.763820 -0.745050 -0.531694 0.402742
0.109595 0.273208 0.430454 -0.178313 0.767220 -0.616100
0.050217 0.105319 0.689632 -0.274500 -0.959191 0.067844
0.165921 0.076041 0.680158 -0.076464 -0.992907 0.091048
0.373083 0.152112 0.961396 -0.238170 0.057443 0.969523
0.078706 0.258853 0.682333 -0.901863 0.425377 0.075479
0.029461 0.163190 0.182812 -0.196755 -0.980329 0.015579
0.377669 0.111572 0.314118 0.862749 -0.405131 -0.302543
0.317545 0.073574 0.282473 0.128626 -0.990140 -0.055486
0.365617 0.196587 0.528523 0.407609 0.913119 -0.008267
0.299832 0.231334 0.726545 0.081128 0.651857 0.753990
0.079495 0.267161 0.611022 -0.865177 0.497829 0.060290
0.088667 0.156068 0.171313 -0.629618 -0.755559 0.180862
0.059819 0.074422 0.607453 -0.196285 -0.980399 0.017024
0.079011 0.153036 0.736854 0.853506 0.512684 0.093180
0.078216 0.113577 0.782651 0.773160 0.237055 0.588242
0.207059 0.076053 0.247919 0.006888 -0.998854 -0.047355
0.034492 0.111252 0.811755 -0.909993 -0.414187 0.019044
0.380154 0.159754 0.535665 0.941104 0.338117 -0.000708
0.072203 0.127807 0.254638 0.291741 0.519980 0.802813
0.308106 0.074379 0.601802 0.082861 -0.996425 0.016483
0.097263 0.198305 0.160619 -0.096341 0.994182 -0.048170
0.275708 0.226019 0.362498 0.096374 0.840341 -0.533422
0.094125 0.280127 0.585215 -0.280585 0.959040 0.038925
0.340968 0.193930 0.139561 0.092763 0.994028 -0.057482
0.172770 0.212792 0.746221 -0.019790 0.717271 0.696513
0.273502 0.201762 0.764237 0.021671 0.985286 0.169536
0.328742 0.254183 0.475572 0.976560 0.214588 0.016814
0.323096 0.217138 0.735617 0.006936 0.675698 0.737146
0.353428 0.197669 0.745866 0.320335 0.945587 0.057011
0.244269 0.083325 0.139815 0.025233 -0.998470 -0.049195
0.310592 0.281202 0.570143 0.216811 0.975988 0.020997
0.343954 0.206452 0.550142 0.910658 0.413153 -0.002458
0.362510 0.194236 0.263539 0.377618 0.925685 -0.022625
0.253776 0.144984 0.966844 0.932910 0.166363 0.319377
0.369485 0.101686 0.846799 0.860734 -0.502826 0.079384
0.280141 0.211787 0.747082 -0.006461 0.542794 -0.839841
0.107931 0.200941 0.222735 -0.103545 0.994133 -0.031278
0.143474 0.207227 0.308246 -0.151530 0.984915 -0.083555
0.295826 0.210896 0.747006 0.090379 0.911149 -0.402044
0.320987 0.132445 0.143806 0.868806 -0.260149 0.421306
0.345568 0.152722 0.062741 0.682010 -0.422902 -0.596670
0.064113 0.056433 0.141229 0.044058 -0.538737 -0.841321
0.028829 0.157130 0.409871 -0.930372 0.366617 -0.000633
0.224774 0.073947 0.544923 0.011561 -0.999903 0.007746
0.335355 0.157002 0.182707 -0.352905 0.914229 -0.199106
0.345372 0.073516 0.488235 0.158519 -0.987321 0.008267
0.078832 0.264743 0.617128 -0.873637 0.483065 0.058369
0.044866 0.044050 0.184077 -0.999250 -0.029692 -0.024866
0.339863 0.058893 0.140730 -0.218954 -0.481992 -0.848376
0.034489 0.180734 0.207734 -0.972239 0.233889 -0.006840
0.348577 0.208979 0.657692 0.914325 0.396906 0.080472
0.312237 0.193135 0.092498 0.071344 0.987680 -0.139275
0.194538 0.072699 0.380563 -0.003341 -0.999984 0.004476
0.277673 0.073603 0.499689 0.079129 -0.996832 0.008073
0.353194 0.193501 0.817493 0.184691 0.980460 0.067724
0.366196 0.191801 0.785795 0.326010 0.943819 0.054071
0.228012 0.083947 0.795090 0.029994 -0.997817 0.058832
0.233959 0.210284 0.254777 0.059900 0.997865 -0.026010
0.217831 0.263066 0.702777 0.004286 0.576755 0.816906
0.365152 0.194175 0.299713 0.409126 0.912267 -0.019626
0.030227 0.139285 0.541773 -0.993061 -0.117603 0.000122
0.181794 0.072866 0.402628 -0.015726 -0.999858 0.006092
0.080717 0.056439 0.172732 0.971173 0.185736 0.149418
0.380114 0.121262 0.375448 0.978836 -0.201952 -0.033110
0.073414 0.103680 0.756987 -0.392657 -0.915335 -0.089341
0.164635 0.198912 0.087945 -0.004154 0.926311 -0.376737
0.361676 0.071890 0.755855 0.917481 0.214359 -0.335081
0.104828 0.084783 0.807253 -0.099440 -0.994882 0.017940
0.110837 0.073184 0.444448 -0.109221 -0.993985 0.008079
0.372784 0.190423 0.333568 0.675803 0.736932 -0.014895
0.072203 0.186040 0.921821 -0.075522 0.986763 0.143510
0.183293 0.085895 0.816612 -0.018988 -0.995477 0.093082
0.053478 0.088756 0.227921 -0.971202 -0.006989 0.238156
0.360963 0.190474 0.144204 0.319912 0.945975 -0.052795
0.100502 0.199094 0.175504 -0.098976 0.994249 -0.040910
0.358607 0.134808 0.147367 0.398194 0.567754 -0.720484
0.202043 0.168117 0.961396 -0.001150 -0.137365 0.990520
0.135754 0.202903 0.227111 -0.116821 0.992561 -0.034301
0.034036 0.177353 0.290605 -0.976890 0.213718 -0.003362
0.079446 0.151802 0.212770 0.887214 0.452055 0.092181
0.286093 0.142418 0.964152 0.010799 -0.447764 0.894086
0.332451 0.055221 0.146106 -0.641454 -0.430152 -0.635221
0.312957 0.251725 0.406344 0.218596 0.790060 -0.572731
0.249134 0.077069 0.695099 0.063687 -0.996336 0.057087
0.071716 0.073857 0.533070 -0.165479 -0.986181 0.007998
0.256675 0.073282 0.457324 0.058596 -0.998250 0.007998
0.277030 0.284816 0.532547 0.069856 0.997556 0.001731
0.334472 0.141126 0.678301 -0.376806 0.691819 -0.615958
0.375883 0.127755 0.862640 0.989450 -0.140818 0.034036
0.362230 0.150833 0.745151 0.845713 0.506259 0.168734
0.360629 0.073837 0.530528 0.168359 -0.985690 0.008371
0.050785 0.221761 0.444151 0.382544 0.583595 0.716294
0.376682 0.173948 0.715551 0.979940 0.199213 0.005663
0.053015 0.094140 0.167925 -0.989455 -0.036868 -0.140073
0.233102 0.135912 0.964001 -0.047514 -0.182131 -0.982126
0.345691 0.200697 0.525574 0.905597 0.424139 -0.000979
0.364338 0.091901 0.726560 0.910930 0.063952 -0.407575
0.175384 0.282876 0.648270 -0.023567 0.995830 0.088130
0.379451 0.136135 0.679672 0.992896 -0.118855 -0.005629
0.184432 0.097748 0.940267 -0.001114 -0.975974 0.217883
0.321669 0.156886 0.223787 0.400280 -0.850419 -0.341413
0.080105 0.251627 0.591682 -0.959874 0.266500 -0.087288
0.379226 0.158437 0.861387 0.922936 0.384396 0.020719
0.228685 0.083957 0.795242 0.031015 -0.997809 0.058435
0.060098 0.195903 0.787042 -0.170632 0.982428 0.075637
0.342874 0.208418 0.399900 0.959294 0.280897 0.029203
0.138317 0.194860 0.865585 -0.003388 0.995114 0.098671
0.029404 0.121379 0.457784 -0.979891 -0.199531 -0.001306
0.328790 0.104239 0.142825 -0.965647 0.067105 -0.251042
0.118891 0.080622 0.746763 -0.130429 -0.988092 0.081620
0.084541 0.181472 0.055646 -0.082496 0.826297 -0.557161
0.038197 0.092886 0.481308 -0.912020 -0.410144 0.000837
0.176345 0.085707 0.814653 -0.024706 -0.995456 0.091960
0.076117 0.194162 0.847098 -0.105891 0.991834 0.071081
0.247944 0.283823 0.625793 0.031126 0.998241 0.050463
0.072054 0.168458 0.057178 -0.056080 -0.306961 -0.950069
0.260603 0.073096 0.432869 0.067757 -0.997670 0.007966
0.375776 0.180597 0.613068 0.998548 0.053868 0.000328
0.295903 0.188686 0.913960 0.016249 0.988601 0.149678
0.377547 0.171351 0.541164 0.980032 0.198815 -0.003221
0.156422 0.277322 0.691702 -0.029702 0.975868 0.216331
0.376364 0.174218 0.777312 0.975002 0.222001 0.009333
0.325234 0.106100 0.277325 0.844154 -0.362084 -0.395347
0.306188 0.146765 0.964215 0.045348 -0.045214 0.997948
0.046949 0.043599 0.162096 -0.883872 -0.365561 -0.291780
0.330127 0.123353 0.146005 -0.892838 0.245217 -0.377767
0.377373 0.171492 0.689674 0.976872 0.213784 0.004281
0.340726 0.072764 0.389075 0.168306 -0.985727 0.003974
0.107317 0.073088 0.431760 -0.112759 -0.993589 0.008098
0.378250 0.149784 0.933021 0.907105 -0.412807 0.082161
0.033096 0.175780 0.499403 -0.981823 0.189764 -0.003517
0.345768 0.200738 0.615703 0.839968 0.539684 -0.056534
0.379906 0.151567 0.945350 0.829077 -0.549829 0.101580
0.125493 0.092254 0.883163 -0.072094 -0.991966 0.103951
0.115556 0.072776 0.390670 -0.073514 -0.997277 0.005802
0.035647 0.099116 0.370680 -0.930399 -0.366242 -0.014964
0.271050 0.076823 0.236810 0.081262 -0.995144 -0.055550
0.232132 0.275888 0.426235 0.042709 0.782996 -0.620558
0.079214 0.031219 0.199856 0.870546 -0.491179 0.029899
0.037176 0.099027 0.640081 -0.900619 -0.427773 0.076781
0.314516 0.211433 0.354286 0.212403 0.844246 -0.492070
0.330172 0.258562 0.697531 0.893078 0.433800 0.119285
0.303767 0.196538 0.838806 0.046363 0.995744 0.079649
0.328173 0.067885 0.678981 -0.998557 -0.004565 -0.053506
0.196007 0.155242 0.967554 0.035472 -0.172180 0.984427
0.314014 0.072422 0.345957 0.140697 -0.990034 -0.006035
0.372544 0.179667 0.922770 0.686606 0.721142 0.092342
0.109032 0.201094 0.226983 -0.103978 0.994077 -0.031614
0.282948 0.156804 0.961396 0.006967 -0.020990 0.999755
0.271247 0.245917 0.716520 0.057515 0.663266 0.746170
0.378118 0.163406 0.145823 0.980964 0.190729 -0.036508
0.342476 0.211566 0.588621 0.898157 0.439553 0.010317
0.352651 0.098605 0.664862 0.308097 -0.705970 0.637717
0.105687 0.233313 0.724285 -0.079314 0.650230 0.755586
0.380861 0.151331 0.542937 0.959507 -0.281684 -0.000240
0.266704 0.278903 0.675277 0.049754 0.987107 0.152130
0.363662 0.140242 0.066379 0.123694 -0.649940 -0.749852
0.313904 0.281172 0.523572 0.247149 0.968972 -0.003331
0.042299 0.179701 0.060546 -0.402826 0.722903 -0.561375
0.054828 0.073827 0.529091 -0.185654 -0.982582 0.008046
0.217684 0.149148 0.030064 -0.007620 -0.902510 -0.430601
0.080505 0.254143 0.453225 -0.966284 0.254521 0.038906
0.112253 0.197547 0.826113 -0.038603 0.996170 0.078453
0.263458 0.088550 0.844395 0.031974 -0.994722 0.097502
0.164631 0.206640 0.147353 -0.112822 0.992059 -0.055596
0.338507 0.223897 0.585080 0.943091 0.332510 0.003973
0.120324 0.076826 0.231602 -0.062371 -0.996408 -0.057284
0.266355 0.203733 0.229304 0.143498 0.989007 -0.035673
0.329294 0.273242 0.532150 0.490689 0.870727 0.032533
0.182930 0.091545 0.875613 -0.011806 -0.994860 0.100571
0.334145 0.251669 0.674241 0.906833 0.419038 0.045401
0.329602 0.052528 0.184297 -0.943020 0.315834 0.104703
0.096545 0.074579 0.655279 -0.153898 -0.982994 0.100188
0.221451 0.074168 0.574030 0.008612 -0.999935 0.007516
0.156943 0.282065 0.656481 -0.035523 0.994905 0.094347
0.318910 0.213626 0.358846 0.228389 0.838878 -0.494086
0.174347 0.072181 0.321635 -0.016285 -0.999084 -0.039570
0.151870 0.146859 0.036890 0.003867 -0.852554 0.522624
0.192154 0.200570 0.773216 0.016321 0.995269 0.095781
0.031390 0.128864 0.628499 -0.999550 -0.029884 -0.002648
0.165656 0.210268 0.290419 -0.108014 0.993668 -0.030933
0.256042 0.094754 0.909317 0.051045 -0.991289 0.121411
0.151546 0.210436 0.326700 -0.086229 0.993835 -0.069686
0.131277 0.177989 0.964712 0.020576 0.814780 -0.579406
0.287223 0.122629 0.963288 -0.021422 -0.269970 0.962630
0.170408 0.072168 0.320266 -0.019301 -0.998915 -0.042384
0.361825 0.034935 0.700000 0.807516 -0.554927 -0.199937
0.346169 0.201174 0.381509 0.849077 0.281269 0.447164
0.254279 0.158653 0.064913 -0.041587 -0.433074 -0.900399
0.155349 0.077649 0.219447 -0.036377 -0.998366 -0.044061
0.309418 0.074586 0.629070 0.112534 -0.992828 0.040364
0.233432 0.208761 0.175495 0.096698 0.994476 -0.040821
0.202315 0.233019 0.365995 -0.044640 0.830284 -0.555550
0.264688 0.199608 0.802162 0.004863 0.995869 0.090670
0.318294 0.073079 0.430582 0.136980 -0.990541 0.008105
0.336150 0.198010 0.228534 0.092279 0.995341 -0.027954
0.051200 0.195728 0.760974 -0.275598 0.960249 0.044355
0.280408 0.203505 0.272035 0.124945 0.991420 -0.038405
0.314969 0.280393 0.573714 0.282056 0.959134 0.022487
0.257701 0.208829 0.256130 0.120653 0.992194 -0.031540
0.226297 0.072977 0.417249 0.028170 -0.999579 0.006955
0.229688 0.145120 0.970839 -0.043270 0.113611 0.992583
0.326033 0.139901 0.050166 0.278634 0.820025 -0.499922
0.059765 0.200410 0.378575 -0.253563 0.966769 0.032624
0.320987 0.107657 0.164460 0.976201 -0.207089 0.064388
0.338364 0.239901 0.644644 0.902137 0.425685 0.070288
0.120674 0.262605 0.413997 -0.125252 0.789558 -0.600758
0.049006 0.177697 0.959698 -0.156878 0.929869 0.332766
0.231419 0.190996 0.068618 0.014268 0.954954 -0.296411
0.320987 0.087349 0.157482 0.963178 -0.263439 0.053734
0.280810 0.279638 0.664429 0.069096 0.989457 0.127285
0.100009 0.142007 0.963767 0.007729 -0.620057 0.784518
0.355013 0.152713 0.227045 0.279662 0.873145 0.399257
0.208429 0.080537 0.183174 0.005983 -0.998697 -0.050688
0.376138 0.176805 0.678544 0.988979 0.147988 0.004466
0.109185 0.076831 0.231523 -0.070811 -0.995605 -0.061283
0.213504 0.163730 0.961622 0.016154 0.994699 0.101548
0.334236 0.239887 0.717551 0.658726 0.601895 0.451445
0.076328 0.099788 0.188868 0.999155 -0.022360 0.034493
0.091250 0.199347 0.197853 -0.095592 0.994978 -0.029687
0.104186 0.203922 0.751714 -0.077442 0.751597 0.655061
0.343913 0.222936 0.665169 0.912954 0.403008 0.064026
0.359051 0.188254 0.870079 0.235319 0.969133 0.073527
