0.365202 0.295386 0.466695 0.929551 0.368643 0.006095
0.351083 0.217052 0.516812 -0.002799 -0.997045 -0.076763
0.401759 0.097172 0.567400 0.951652 -0.307174 -0.001418
0.367147 0.224523 0.341138 -0.008857 -0.988978 0.147795
0.404195 0.067705 0.854581 0.998167 0.042595 -0.042994
0.245753 0.093439 0.779259 0.014278 -0.999823 -0.012276
0.404205 0.085185 0.872997 0.970798 -0.018303 0.239200
0.053469 0.175533 0.270415 0.505556 -0.843014 -0.183687
0.072113 0.215593 0.135576 -0.871923 0.461405 -0.163875
0.351977 0.219339 0.597296 0.000571 -0.999186 -0.040342
0.403601 0.211580 0.521323 0.822750 0.568344 0.008172
0.411167 0.150767 0.450434 0.999972 -0.007444 0.000158
0.367822 0.075804 0.352630 0.284293 -0.934831 -0.212763
0.229587 0.211858 0.865802 -0.003800 0.986797 0.161916
0.333095 0.317384 0.521049 0.043343 0.998174 0.042066
0.203222 0.223153 0.772830 -0.056759 0.994417 0.088956
0.338098 0.220712 0.390325 -0.012967 -0.996412 0.083631
0.169516 0.094335 0.424329 0.041964 -0.998431 0.037067
0.344419 0.144362 0.212556 0.767185 -0.641404 0.005226
0.054880 0.124599 0.370827 -0.985349 -0.170043 -0.013159
0.280940 0.238153 0.201965 -0.011925 -0.845788 0.533386
0.402201 0.098019 0.581308 0.953299 -0.302025 -0.001481
0.342047 0.090656 0.358104 0.020440 -0.999737 -0.010397
0.119573 0.093736 0.231002 0.066736 -0.994358 0.082453
0.206810 0.221978 0.712013 -0.021817 0.996673 0.078532
0.261297 0.221598 0.680672 -0.003041 0.116168 0.993225
0.173801 0.237123 0.091369 -0.048891 0.954853 -0.293027
0.361926 0.303221 0.376590 0.931391 0.364017 -0.001661
0.164844 0.216696 0.504275 -0.061388 0.979565 0.191532
0.406086 0.181736 0.255385 -0.307245 -0.945066 -0.111582
0.192403 0.224508 0.341334 -0.067815 -0.798197 0.598567
0.223609 0.101798 0.427425 0.001065 -0.998056 -0.062312
0.119472 0.141877 0.802857 -0.895253 -0.388320 0.218471
0.283320 0.241230 0.180190 -0.005375 -0.501471 0.865158
0.119473 0.158506 0.838171 -0.695874 -0.705560 -0.133958
0.054745 0.187046 0.703383 -0.982834 0.184072 0.012421
0.159307 0.251379 0.168095 -0.073330 0.872848 -0.482451
0.094585 0.279082 0.288357 -0.817487 0.560088 -0.134229
0.331764 0.292609 0.595965 0.122329 0.834049 0.537958
0.151991 0.095315 0.277420 0.047722 -0.998046 0.040342
0.353300 0.149208 0.265175 -0.964494 0.225780 0.137022
0.169553 0.216941 0.512904 -0.066134 0.975075 0.211792
0.201973 0.223943 0.043159 -0.025464 0.793826 -0.607612
0.111801 0.220824 0.388874 -0.077428 0.915576 0.394620
0.280546 0.237905 0.203468 -0.012454 -0.866385 0.499221
0.374626 0.075756 0.382904 0.148058 -0.976551 -0.156290
0.282316 0.313170 0.278257 0.020296 0.985475 -0.168603
0.289175 0.320070 0.498613 0.025344 0.998966 0.037734
0.301673 0.100096 0.146752 0.002024 -0.998104 -0.061516
0.255173 0.097636 0.559964 0.003945 -0.998263 -0.058777
0.196517 0.091593 0.831012 0.037519 -0.997814 0.054394
0.375212 0.183046 0.237315 -0.097181 -0.995186 -0.012690
0.191394 0.099064 0.352147 0.021709 -0.999608 -0.017661
0.211572 0.092624 0.749441 0.026771 -0.999358 0.023804
0.297937 0.221592 0.378966 -0.031985 -0.966931 0.253026
0.231898 0.218156 0.555671 -0.115383 -0.940362 0.320009
0.398040 0.169790 0.770664 -0.093178 -0.891207 0.443924
0.213207 0.107280 0.129789 -0.006402 -0.994747 -0.102165
0.388066 0.129593 0.317225 0.327339 -0.564127 -0.758030
0.198847 0.217987 0.549712 -0.149601 0.843037 0.516632
0.324376 0.199829 0.881110 0.329157 0.919048 0.216812
0.288390 0.273508 0.203731 0.056256 0.877504 -0.476258
0.090515 0.159624 0.794563 0.014989 0.966627 -0.255749
0.191827 0.217413 0.529520 -0.107021 0.936460 0.334049
0.064250 0.040189 0.770986 -0.558912 -0.649083 -0.516051
0.298809 0.100934 0.121769 0.000544 -0.997891 -0.064908
0.396359 0.118873 0.148585 0.961616 -0.246316 -0.120930
0.373876 0.031772 0.841162 -0.012485 -0.904447 0.426402
0.331705 0.085077 0.775921 0.023734 -0.999117 -0.034683
0.088121 0.216172 0.448916 -0.036525 0.988756 0.145012
0.363270 0.299000 0.539067 0.933797 0.357804 -0.000098
0.060392 0.100097 0.389206 -0.954230 -0.299070 -0.001462
0.395049 0.073727 0.232767 -0.952629 0.298901 0.056177
0.272355 0.217534 0.533790 -0.030174 -0.999535 0.004341
0.266384 0.179624 0.949285 0.186642 0.170173 0.967578
0.244261 0.220982 0.658502 -0.007764 0.217245 0.976086
0.060131 0.201878 0.194337 -0.977238 0.191028 -0.092277
0.291055 0.221211 0.664112 -0.005479 -0.922214 0.386641
0.056383 0.116345 0.528630 -0.973844 -0.227218 -0.000458
0.227540 0.219102 0.588962 -0.096888 -0.917985 0.384599
0.128210 0.219275 0.408866 -0.053617 0.959753 0.275680
0.276918 0.105875 0.069331 -0.005228 -0.993866 -0.110467
0.263460 0.196070 0.036760 0.000496 0.293430 -0.955980
0.216545 0.305562 0.258688 -0.031546 0.884398 -0.465666
0.160259 0.104461 0.075176 -0.073850 -0.990856 -0.112922
0.304090 0.231034 0.256436 -0.006515 -0.972005 0.234870
0.396733 0.191331 0.862153 0.932311 0.354166 0.073226
0.115572 0.148365 0.749472 -0.739700 -0.399966 0.541175
0.175136 0.121897 0.969399 -0.208284 -0.003981 0.978060
0.331111 0.231420 0.251006 -0.007134 -0.953024 0.302811
0.052772 0.145701 0.456684 -1.000000 0.000037 -0.000262
0.235968 0.298660 0.602047 0.012987 0.850729 0.525443
0.344435 0.140558 0.824196 0.927348 -0.366567 -0.075194
0.407888 0.143364 0.179840 0.578037 -0.567547 0.586313
0.110584 0.061910 0.861328 0.987121 -0.067985 0.144810
0.370375 0.282526 0.466496 0.925932 0.377630 0.006795
0.119844 0.092985 0.440856 0.070602 -0.991954 0.105081
0.114227 0.104983 0.141405 0.071625 -0.892192 0.445942
0.110608 0.056641 0.195970 0.999059 -0.041620 -0.012238
0.193685 0.203973 0.039070 -0.083922 0.341563 -0.936105
0.344433 0.110616 0.735009 0.839540 -0.314483 0.443027
0.162112 0.207739 0.861717 -0.120006 0.979150 0.163903
0.361332 0.304730 0.354255 0.932360 0.361519 0.003015
0.384249 0.248332 0.385185 0.920641 0.390286 0.009835
0.080824 0.217720 0.428935 -0.042405 0.984804 0.168416
0.291115 0.220705 0.645366 -0.007591 -0.999144 0.040659
0.118988 0.075387 0.620279 0.170394 -0.980255 0.100325
0.314454 0.220942 0.742982 0.107982 0.988994 0.101148
0.344434 0.136530 0.785010 0.942267 -0.317837 0.105415
0.072305 0.220541 0.392535 -0.071620 0.953383 0.293140
0.103340 0.306882 0.354738 -0.855183 0.517776 -0.023860
0.404155 0.129452 0.771197 0.997935 0.025638 -0.058891
0.398188 0.134656 0.758128 0.398879 0.544943 -0.737518
0.389986 0.233112 0.418826 0.922150 0.386765 0.007190
0.338576 0.093742 0.205712 0.016588 -0.999795 -0.011595
0.332467 0.091559 0.386859 0.017421 -0.999551 -0.024382
0.273061 0.294692 0.603622 0.059774 0.846554 0.528936
0.400192 0.210010 0.183636 0.939910 0.326196 -0.100827
0.124674 0.161724 0.926963 -0.856328 0.038026 -0.515031
0.259512 0.218853 0.814501 0.057396 0.991748 0.114634
0.377236 0.208296 0.760197 0.178027 0.974371 0.137507
0.153871 0.202685 0.884623 -0.139395 0.975694 0.169086
0.063618 0.208627 0.174621 -0.951617 0.288143 -0.106764
0.223785 0.097860 0.597616 0.009720 -0.999537 -0.028826
0.166707 0.094446 0.402783 0.042988 -0.998353 0.037985
0.153159 0.223331 0.356527 -0.132687 -0.347767 0.928144
0.231184 0.220227 0.630789 -0.018241 0.227233 0.973670
0.252037 0.102402 0.368193 -0.006270 -0.995384 -0.095769
0.123568 0.180821 0.042293 -0.008452 0.572628 -0.819772
0.086938 0.243232 0.196373 -0.796121 0.584853 -0.155365
0.378776 0.261345 0.475424 0.921448 0.388448 0.006390
0.291379 0.220909 0.652649 -0.006973 -0.996868 0.078774
0.134039 0.218846 0.709244 -0.063250 0.997543 0.030129
0.070323 0.221897 0.561086 -0.926557 0.376129 -0.004474
0.070708 0.174306 0.782975 -0.041606 -0.968785 0.244385
0.130408 0.309593 0.571234 -0.113460 0.830714 0.545015
0.404188 0.133080 0.839057 0.994584 -0.078333 -0.068318
0.175061 0.091314 0.908510 0.050390 -0.994748 0.089092
0.353279 0.035678 0.219765 -0.981319 -0.177986 -0.073031
0.106095 0.192305 0.911004 -0.120256 0.958514 0.258436
0.304851 0.215697 0.469118 -0.019019 -0.995444 -0.093436
0.304282 0.318894 0.517591 0.032509 0.998549 0.042940
0.114352 0.222002 0.696139 -0.933377 0.162427 0.320040
0.252728 0.221271 0.668869 -0.005465 0.159333 0.987210
0.106743 0.116466 0.032126 -0.110040 -0.868834 -0.482721
0.101670 0.167738 0.293421 -0.505603 -0.650344 -0.566938
0.215374 0.221093 0.795467 -0.031213 0.993887 0.105900
0.410311 0.174236 0.584344 0.999534 0.029749 0.006800
0.169715 0.315236 0.293302 -0.020700 0.987044 -0.159109
0.100922 0.300764 0.344773 -0.927226 0.374503 -0.000128
0.119472 0.117237 0.796537 -0.969845 -0.209474 0.124585
0.191044 0.315169 0.568181 -0.038039 0.966712 0.253024
0.107806 0.206824 0.043067 -0.163420 0.376415 -0.911924
0.407439 0.115299 0.464379 0.970044 -0.242918 -0.002301
0.264348 0.106456 0.967854 0.139873 -0.832087 0.536718
0.363229 0.194599 0.038646 0.053278 0.292467 -0.954790
0.344434 0.096697 0.764989 0.629447 -0.661673 0.407413
0.072953 0.199494 0.094448 -0.965732 0.204564 -0.159732
0.344434 0.079710 0.754242 0.046708 -0.992914 0.109274
0.075030 0.110827 0.213020 0.980898 -0.145249 0.129393
0.394379 0.170340 0.289812 0.222757 -0.770610 -0.597110
0.331144 0.211266 0.815156 0.134173 0.983427 0.121939
0.175519 0.320975 0.473958 -0.019103 0.999259 0.033420
0.154748 0.127811 0.965341 -0.206289 0.231459 0.950722
0.390401 0.156544 0.262190 0.070417 0.924742 0.374024
0.348805 0.094000 0.932854 0.058010 -0.908640 0.413532
0.335755 0.318787 0.476696 0.034198 0.999014 0.028309
0.290137 0.201521 0.039203 0.074165 0.274695 -0.958667
0.375871 0.217841 0.652078 0.001961 -0.802386 -0.596803
0.179678 0.094285 0.487293 0.037500 -0.998822 0.030783
0.279356 0.217687 0.539151 -0.023895 -0.999702 -0.005036
0.138535 0.091897 0.745131 0.066556 -0.991058 0.115650
0.093928 0.217534 0.431341 -0.041672 0.983639 0.175263
0.258977 0.217714 0.429018 -0.090520 -0.965051 0.245933
0.056584 0.172839 0.186177 0.331808 -0.776158 0.536173
0.092152 0.218544 0.619679 -0.660732 0.541666 0.519646
0.379020 0.117566 0.043721 0.804847 -0.516444 -0.292417
0.405904 0.208235 0.441657 0.910528 0.413252 0.012679
0.351556 0.240085 0.148237 0.105864 0.988028 -0.112221
0.205132 0.233981 0.215004 0.012500 0.912810 0.408193
0.119699 0.080398 0.730447 0.274870 -0.947644 0.162535
0.194087 0.220327 0.042456 -0.016633 0.274279 -0.961506
0.103439 0.220304 0.643630 -0.838928 0.410183 0.357700
0.392417 0.112645 0.151151 -0.540323 -0.270699 0.796727
0.273816 0.096023 0.552099 0.005445 -0.997788 -0.066256
0.126233 0.216466 0.445112 -0.043524 0.985359 0.164843
0.386714 0.206582 0.771666 0.175210 0.976272 0.127256
0.410446 0.177318 0.243572 -0.560320 -0.826197 -0.058647
0.176419 0.215463 0.460888 -0.066193 0.987983 0.139669
0.106930 0.110169 0.876300 0.609965 0.220968 0.760996
0.379322 0.265318 0.610549 0.896691 0.440139 0.047143
0.124415 0.231650 0.247777 -0.001130 -0.993219 0.116254
0.223955 0.323531 0.448414 -0.007728 0.999965 0.003265
0.053449 0.152289 0.606802 -0.999882 0.015152 -0.002418
0.375318 0.047111 0.761554 -0.005334 -0.676784 -0.736162
0.281236 0.099741 0.342688 -0.002180 -0.995516 -0.094570
0.110586 0.034929 0.245074 0.985624 -0.163756 0.041589
0.263868 0.103102 0.289188 -0.009126 -0.993314 -0.115082
0.248730 0.095226 0.690175 0.009999 -0.999473 -0.030888
0.184405 0.217226 0.522948 -0.087208 0.958092 0.272864
0.300445 0.086267 0.861027 0.024048 -0.999620 -0.013490
0.375515 0.122588 0.737576 0.470729 -0.349555 0.810077
0.218377 0.091377 0.891859 0.027088 -0.999042 0.034380
0.410426 0.193745 0.398825 0.984479 0.174979 -0.013579
0.290677 0.230926 0.257960 -0.006252 -0.976608 0.214934
0.061631 0.080720 0.298998 -0.840940 -0.132687 0.524608
0.374761 0.060342 0.295670 -0.007956 -0.488073 0.872767
0.278164 0.240174 0.188968 -0.008096 -0.663315 0.748296
0.295931 0.144413 0.952735 0.026449 0.630326 0.775880
0.081490 0.221318 0.087204 -0.583017 0.592634 -0.555766
0.438103 0.219220 0.613776 0.115673 -0.453442 -0.883748
0.057570 0.192344 0.729197 -0.917431 0.395196 0.046257
0.183991 0.319651 0.520206 -0.015937 0.998533 0.051749
0.087625 0.212615 0.720567 -0.217924 0.962516 0.161467
0.344421 0.166888 0.259966 0.782583 -0.532738 -0.322110
0.404222 0.183269 0.170113 0.981134 0.132159 -0.141102
0.208814 0.105568 0.177029 -0.000617 -0.996404 -0.084723
0.297115 0.216335 0.491575 -0.020179 -0.997424 -0.068838
0.400824 0.088643 0.194964 0.993220 0.015251 0.115245
0.054269 0.179780 0.658737 -0.994367 0.105859 0.005390
0.350078 0.234422 0.233857 -0.007786 -0.882330 0.470566
0.276888 0.217510 0.532949 -0.026671 -0.999627 -0.005878
0.234324 0.323421 0.410437 -0.002614 0.999773 -0.021148
0.145281 0.092679 0.526912 0.058824 -0.994765 0.083557
0.317075 0.220636 0.642925 -0.002325 -0.999983 0.005269
0.268793 0.094682 0.630524 0.008976 -0.998753 -0.049108
0.250604 0.229428 0.277843 -0.008997 -0.982332 0.186932
0.123506 0.093210 0.378136 0.067473 -0.993305 0.093770
0.255802 0.218538 0.418376 -0.102447 -0.909256 0.403433
0.253308 0.234183 0.221691 -0.014764 -0.949441 0.313598
0.119900 0.089279 0.601759 0.127699 -0.983251 0.130038
0.095192 0.086367 0.303852 0.038422 -0.095688 0.994670
0.296106 0.241893 0.170075 0.000434 0.006245 0.999980
0.118528 0.271771 0.209346 -0.293289 0.841957 -0.452869
0.397207 0.084500 0.455873 0.865605 -0.497313 -0.058380
0.344433 0.104971 0.742618 0.785073 -0.397500 0.475031
0.172438 0.091813 0.769243 0.049104 -0.995820 0.077015
0.058789 0.143382 0.878291 -0.990775 -0.023804 0.133412
0.206745 0.223682 0.698837 -0.065351 0.261170 0.963078
0.116515 0.207615 0.816881 -0.138547 0.984063 0.111465
0.211951 0.218872 0.580872 -0.230094 -0.285977 0.930201
0.055504 0.120753 0.587946 -0.976970 -0.213376 -0.000012
0.290458 0.217436 0.530323 -0.018732 -0.999400 -0.029124
0.275411 0.140931 0.958377 0.077013 0.519047 0.851269
0.348237 0.081623 0.900088 0.033720 -0.999368 -0.011270
0.251507 0.244362 0.155782 -0.003694 -0.264084 0.964493
0.225105 0.105479 0.278286 -0.007778 -0.995481 -0.094643
0.364427 0.231941 0.251824 -0.009484 -0.963837 0.266323
0.251815 0.095371 0.671162 0.009335 -0.999321 -0.035643
0.206783 0.255967 0.171322 -0.022648 0.875801 -0.482141
0.244063 0.105730 0.258247 -0.012750 -0.993290 -0.114949
0.278904 0.102708 0.187543 -0.005675 -0.995543 -0.094135
0.385301 0.216510 0.520266 0.000900 -0.981626 -0.190813
0.098983 0.133102 0.291744 0.057280 0.587396 0.807270
0.185136 0.095678 0.460126 0.031996 -0.999370 0.015350
0.156557 0.243131 0.154427 -0.023741 -0.920873 0.389139
0.240670 0.110461 0.057416 -0.021931 -0.989352 -0.143883
0.410650 0.155587 0.763280 0.027466 -0.754508 0.655716
0.228063 0.091653 0.889787 0.021477 -0.999546 0.021147
0.080902 0.132346 0.155161 0.212062 -0.444444 0.870345
0.137521 0.235484 0.081357 -0.060920 0.936428 -0.345530
0.308301 0.216836 0.509216 -0.013394 -0.997991 -0.061924
0.125531 0.262139 0.189589 -0.100232 0.871195 -0.480597
0.196523 0.095950 0.516569 0.026257 -0.999640 0.005498
0.378463 0.259941 0.630934 0.593856 0.729475 0.339413
0.344665 0.249621 0.657416 0.129571 0.834406 0.535703
0.148314 0.153033 0.935355 -0.569213 0.019656 0.821955
0.124091 0.220139 0.397714 -0.063993 0.940162 0.334666
0.179883 0.289664 0.233267 -0.056150 0.880395 -0.470906
0.380257 0.258369 0.290503 0.884723 0.465425 0.025379
0.061392 0.157294 0.817081 -0.865773 0.495177 0.072368
0.119471 0.105866 0.775277 -0.951661 -0.227554 0.206304
0.275583 0.315523 0.565076 0.031546 0.973446 0.226732
0.211755 0.239725 0.183008 -0.019989 -0.955299 0.294964
0.410490 0.173147 0.562072 0.999699 0.023851 0.005696
0.273552 0.092880 0.688211 0.012433 -0.999155 -0.039178
0.078445 0.216414 0.535236 -0.260732 0.887765 0.379331
0.405304 0.193867 0.193165 0.975601 0.197239 -0.096432
0.116569 0.217670 0.521609 -0.029629 0.916983 0.397824
0.110113 0.124989 0.269666 0.979117 -0.130475 -0.155902
0.204344 0.229449 0.277565 -0.007995 -0.988390 0.151730
0.059342 0.180387 0.847984 -0.876194 0.469649 0.108230
0.341950 0.218600 0.571277 -0.001759 -0.998929 -0.046228
0.341758 0.086709 0.593540 0.024322 -0.999570 -0.016388
0.239716 0.241998 0.172490 -0.011035 -0.662289 0.749167
0.354796 0.075833 0.335025 0.464649 -0.842199 -0.273499
0.112955 0.075897 0.418107 -0.262032 -0.962430 -0.071193
0.104138 0.308495 0.547737 -0.712335 0.701583 0.018968
0.371994 0.278992 0.364269 0.925196 0.379323 0.011245
0.383964 0.075978 0.461013 0.030842 -0.996725 -0.074752
0.315990 0.095966 0.267844 0.009352 -0.998967 -0.044468
0.167501 0.092337 0.622770 0.048899 -0.996556 0.066973
0.248980 0.146929 0.031339 0.015631 0.768378 -0.639806
0.054252 0.186608 0.638201 -0.986744 0.161983 0.009877
0.322404 0.229161 0.692659 0.108046 0.842743 0.527362
0.216707 0.218656 0.573261 -0.214383 -0.566335 0.795805
0.308114 0.218395 0.564064 -0.008945 -0.999640 -0.025290
0.272078 0.319542 0.318492 0.019792 0.996826 -0.077112
0.061104 0.148358 0.149367 -0.980944 -0.068191 -0.181932
0.397078 0.034582 0.778047 0.265078 -0.847426 -0.460004
0.177106 0.221364 0.773176 -0.098776 0.991903 0.079827
0.174869 0.221230 0.709520 -0.059745 0.981193 0.183552
0.411137 0.147498 0.407878 0.999805 -0.019664 -0.001664
0.267902 0.205670 0.896171 0.086736 0.977414 0.192716
0.106627 0.104783 0.169726 0.562508 0.118899 -0.818198
0.251046 0.318880 0.546835 0.012511 0.995762 0.091114
0.404563 0.103833 0.457356 0.970661 -0.240409 -0.004508
0.212494 0.094189 0.687730 0.022922 -0.999688 0.009910
0.089143 0.220418 0.394118 -0.068989 0.948489 0.309208
0.280196 0.225237 0.331924 -0.048246 -0.816915 0.574737
0.054119 0.122270 0.894756 -0.991919 -0.092523 0.086808
0.161106 0.092722 0.515190 0.050216 -0.996751 0.062980
0.194654 0.091773 0.780643 0.037536 -0.997986 0.051144
0.205748 0.218172 0.556239 -0.214959 0.629161 0.746960
0.275842 0.092500 0.695101 0.013021 -0.999172 -0.038540
0.255841 0.105663 0.952900 0.038267 -0.921374 0.386789
0.401364 0.147581 0.904194 0.982922 0.009811 0.183762
0.369214 0.178237 0.919367 0.041748 -0.179151 -0.982935
0.147035 0.092736 0.510825 0.057587 -0.995157 0.079658
0.363436 0.299681 0.474756 0.930818 0.365442 0.005396
0.279043 0.215468 0.461065 -0.040353 -0.994966 -0.091730
0.092678 0.135018 0.866120 0.025749 0.611805 0.790589
0.165443 0.224997 0.335029 -0.052206 -0.897674 0.437557
0.281980 0.099909 0.326389 -0.002183 -0.995650 -0.093151
0.217497 0.205756 0.899621 -0.023692 0.981676 0.189081
0.222730 0.092930 0.803026 0.021074 -0.999682 0.013837
0.090435 0.226905 0.310403 -0.019323 -0.990713 0.134590
0.072568 0.095040 0.153103 -0.894020 -0.444884 -0.052979
0.229371 0.091467 0.905608 0.021296 -0.999534 0.021861
0.104083 0.308369 0.536539 -0.846571 0.532199 0.009064
0.119457 0.087587 0.228738 -0.180800 -0.983440 -0.012544
0.228736 0.311323 0.583537 0.005397 0.851760 0.523904
0.277030 0.322959 0.437088 0.013215 0.999893 -0.006219
0.241968 0.229073 0.282418 -0.010236 -0.981136 0.193046
0.323936 0.218601 0.708142 0.073622 0.981364 0.177494
0.355713 0.060254 0.179456 -0.763201 -0.296719 -0.574005
0.377221 0.213054 0.707538 0.206321 0.965728 0.157482
0.074168 0.167901 0.179955 0.211190 -0.731006 0.648868
0.344420 0.097726 0.250801 0.495167 -0.853990 -0.159720
0.203986 0.222628 0.716239 -0.031384 0.978585 -0.203435
0.274628 0.091185 0.756584 0.016060 -0.999534 -0.025963
0.281052 0.098660 0.408066 -0.001138 -0.995345 -0.096371
0.274177 0.216687 0.503973 -0.034990 -0.998926 -0.030384
0.279180 0.123028 0.026389 0.071868 -0.315542 -0.946186
0.220530 0.224572 0.340510 -0.065203 -0.773537 0.630388
0.142863 0.233428 0.222782 0.037830 0.517256 0.854994
0.410787 0.145573 0.734662 0.999802 -0.017897 0.008737
0.212472 0.091860 0.787614 0.028036 -0.999166 0.029676
0.346622 0.153041 0.306671 0.628670 -0.491280 -0.602842
0.388924 0.075801 0.710800 0.230234 -0.899064 0.372393
0.094168 0.231806 0.115157 -0.391019 0.853533 -0.344362
0.237727 0.218108 0.553968 -0.087688 -0.971176 0.221648
0.064842 0.056696 0.755484 -0.498057 -0.459206 -0.735574
0.056223 0.117576 0.577557 -0.973620 -0.228177 0.000056
0.071884 0.159718 0.828545 -0.078446 0.963219 0.257014
0.148957 0.113498 0.962339 -0.201512 -0.369597 0.907078
0.370408 0.280631 0.543111 0.933288 0.359121 -0.002482
0.094427 0.273504 0.269014 -0.797136 0.583984 -0.153417
0.183995 0.317493 0.306725 -0.015209 0.992495 -0.121336
0.131197 0.215648 0.467393 -0.044450 0.989860 0.134912
0.360508 0.307477 0.417191 0.917004 0.398870 -0.002519
0.262596 0.102077 0.338465 -0.006720 -0.994453 -0.104970
0.393364 0.060574 0.224647 -0.718576 -0.655126 -0.233365
0.380867 0.131767 0.316552 0.398238 -0.540486 -0.741135
0.114786 0.218682 0.575479 -0.298540 0.801728 0.517789
0.407530 0.203078 0.307852 0.988186 0.151188 -0.025103
0.392092 0.088336 0.911162 0.688550 -0.722395 0.063602
0.352024 0.147160 0.872871 0.460055 -0.406448 -0.789398
0.404184 0.088006 0.287124 0.999806 0.019610 -0.001915
0.349251 0.215522 0.462975 -0.005789 -0.994316 -0.106316
0.212789 0.233668 0.219405 0.013963 0.757532 0.652649
0.188617 0.240741 0.173603 -0.021926 -0.960345 0.277950
0.159009 0.094782 0.342304 0.045721 -0.998144 0.040222
0.344420 0.143026 0.219662 0.776161 -0.630479 -0.008384
0.220628 0.232592 0.234533 -0.000604 -0.887613 0.460590
0.160605 0.095426 0.324180 0.043604 -0.998480 0.033710
0.127334 0.229299 0.046138 -0.039453 0.295565 -0.954508
0.319837 0.096636 0.195383 0.009537 -0.999255 -0.037394
0.126827 0.149403 0.039659 -0.109215 0.635842 -0.764053
0.195118 0.221434 0.381005 -0.088411 0.766554 0.636065
0.257837 0.103446 0.299359 -0.009221 -0.993757 -0.111182
0.396600 0.206634 0.145893 0.946736 0.292215 -0.135281
0.067790 0.187421 0.889898 -0.914566 0.392300 0.098336
0.357863 0.223660 0.352284 -0.010201 -0.989916 0.141286
0.385829 0.246331 0.617869 0.951667 0.297194 -0.077490
0.382636 0.162631 0.761079 -0.013614 -0.741278 0.671060
0.103162 0.076071 0.495625 -0.163097 -0.985806 -0.039816
0.195628 0.219223 0.595145 -0.026144 0.603585 0.796870
0.182106 0.099951 0.258483 0.023955 -0.999531 -0.019084
0.312073 0.269510 0.199318 0.086707 0.874548 -0.477125
0.389619 0.064586 0.795472 -0.780833 -0.530334 -0.330220
0.398223 0.094961 0.744170 0.403689 0.003522 -0.914890
0.186841 0.096694 0.426692 0.028995 -0.999564 0.005574
0.321509 0.091462 0.486421 0.015088 -0.999004 -0.041984
0.066442 0.085362 0.349432 -0.859133 -0.508412 -0.058371
0.054076 0.166976 0.670973 -0.999515 0.031072 -0.002205
0.156682 0.094474 0.341584 0.047433 -0.997889 0.044359
0.119467 0.162080 0.760527 -0.725714 -0.545731 0.418947
0.372479 0.235923 0.206425 0.007325 -0.247828 0.968776
0.200424 0.101884 0.285041 0.011368 -0.998795 -0.047743
0.159247 0.261973 0.187093 -0.078759 0.874436 -0.478705
0.286774 0.322239 0.450181 0.019668 0.999806 0.000869
0.373855 0.219565 0.405121 -0.004572 -0.999989 0.001316
0.068466 0.224120 0.347855 -0.700739 0.713335 0.010856
0.283737 0.102254 0.172983 -0.004141 -0.996193 -0.087080
0.210426 0.107250 0.114412 -0.005081 -0.994964 -0.100099
0.058835 0.182278 0.820824 -0.867760 0.491436 0.074053
0.399510 0.151677 0.910784 0.953514 0.060497 0.295215
0.378131 0.170715 0.183414 -0.127123 -0.798419 0.588529
0.404188 0.143600 0.840487 0.989660 0.133918 0.051364
0.310673 0.220456 0.393632 -0.023210 -0.989691 0.141323
0.409595 0.165735 0.774798 -0.449051 -0.826681 0.339046
0.054041 0.186452 0.612424 -0.988051 0.153883 0.008679
0.077454 0.140673 0.931753 -0.266930 0.665646 0.696896
0.201967 0.322094 0.380424 -0.011996 0.998963 -0.043930
0.356390 0.298617 0.281267 0.716426 0.674048 -0.179981
0.153572 0.092601 0.548747 0.054855 -0.995609 0.075846
0.114336 0.075391 0.706013 0.302910 -0.941699 0.146454
0.094455 0.219855 0.401388 -0.059968 0.960758 0.270828
0.254500 0.228375 0.044039 0.004118 0.800532 -0.599275
0.389863 0.222554 0.681317 0.518726 0.820554 0.240032
0.261362 0.105545 0.170344 -0.012424 -0.992933 -0.118027
0.388755 0.039233 0.853357 0.062031 -0.786313 0.614707
0.211778 0.199629 0.935258 -0.029145 0.978531 0.204029
0.401849 0.156379 0.251613 0.803627 0.583793 0.115626
0.093356 0.076122 0.649355 0.086602 -0.995027 0.049215
0.081402 0.080722 0.303070 -0.030694 -0.190576 0.981192
0.098928 0.216328 0.492006 -0.032548 0.964490 0.262106
0.385558 0.119916 0.874730 0.046132 0.392163 0.918738
0.373728 0.249731 0.200885 0.779639 0.598383 -0.184665
0.281227 0.219355 0.597878 -0.015151 -0.999323 0.033534
0.395916 0.125846 0.796270 -0.673214 0.665941 -0.321412
0.110602 0.037098 0.821217 0.993549 -0.108295 0.033656
0.053029 0.155650 0.318004 -0.999888 -0.014890 -0.001770
0.065077 0.122550 0.159290 -0.949553 -0.288564 -0.122799
0.373254 0.266222 0.261333 0.826591 0.545749 -0.137497
0.052787 0.171360 0.397949 -0.999768 0.021435 0.002253
0.099499 0.293206 0.309412 -0.829107 0.546718 -0.116970
0.232238 0.166884 0.957518 0.230521 0.911702 0.340088
0.120864 0.092418 0.599145 0.073074 -0.989943 0.121133
0.405303 0.201773 0.226678 0.969714 0.234816 -0.067198
0.354672 0.057100 0.262249 -0.960299 0.225526 -0.164204
0.255352 0.245350 0.152084 0.028742 0.882359 -0.469698
0.359442 0.218953 0.698481 0.127359 0.877694 0.461988
0.341812 0.094201 0.150908 0.016843 -0.999841 -0.005804
0.380046 0.030051 0.786473 0.018400 -0.929453 -0.368481
0.351817 0.124752 0.027007 0.179939 -0.252159 -0.950809
0.236686 0.216365 0.446415 -0.411421 -0.656037 0.632731
0.125456 0.209267 0.814827 -0.260461 0.954979 0.142037
0.066444 0.058521 0.801387 0.644281 -0.730326 -0.226994
0.059695 0.098411 0.289603 -0.998297 -0.015814 0.056150
0.069798 0.107095 0.302879 -0.088736 0.184114 0.978891
0.269295 0.104874 0.142037 -0.009987 -0.994275 -0.106383
0.148938 0.208338 0.849175 -0.128631 0.978510 0.161161
0.067461 0.084890 0.417238 -0.848784 -0.526464 -0.049014
0.061105 0.150013 0.149310 -0.982707 -0.037447 -0.181344
0.210315 0.322813 0.401233 -0.011169 0.999477 -0.030340
0.286650 0.216009 0.480107 -0.028679 -0.996941 -0.072709
0.068971 0.112589 0.226741 0.947147 -0.285070 0.147130
0.108347 0.102349 0.943928 -0.062585 -0.878309 0.473980
0.068579 0.218618 0.651281 -0.872777 0.486615 0.038289
0.388145 0.216069 0.509687 0.000697 -0.975314 -0.220823
0.360847 0.139737 0.186027 -0.253284 0.669692 -0.698112
0.070711 0.103971 0.744054 -0.084020 0.165355 -0.982649
0.317201 0.219122 0.589662 -0.005120 -0.999792 -0.019725
0.248248 0.224603 0.340113 -0.063750 -0.743901 0.665242
0.344436 0.089584 0.844150 0.336372 -0.925728 0.172860
0.110612 0.059800 0.186234 0.981460 -0.126584 -0.143917
0.061948 0.066692 0.202204 -0.993246 0.073503 0.089774
0.090920 0.221808 0.376181 -0.117977 0.817133 0.564248
0.204414 0.204407 0.904756 -0.050074 0.976952 0.207501
0.245041 0.176007 0.043949 -0.012785 -0.016348 -0.999785
0.086175 0.061441 0.175446 -0.006719 -0.469180 -0.883077
0.154277 0.221402 0.672579 -0.431124 0.387265 0.814959
0.119954 0.084740 0.779551 0.198460 -0.967248 0.158255
0.158708 0.229675 0.274649 -0.006309 -0.993662 0.112228
0.170410 0.091703 0.799717 0.050764 -0.995270 0.082832
0.283303 0.219080 0.411384 -0.042363 -0.983363 0.176645
0.368499 0.220124 0.695495 0.002813 -0.819759 0.572702
0.280955 0.174517 0.948356 0.136398 0.031818 0.990143
0.400140 0.227889 0.640556 0.574280 -0.028319 0.818169
0.225765 0.091360 0.896759 0.023263 -0.999394 0.025907
0.360672 0.087969 0.330110 0.469231 -0.784490 -0.405459
0.056304 0.180960 0.804041 -0.860902 0.504549 0.065411
0.301479 0.313498 0.283012 0.020288 0.987531 -0.156109
0.160773 0.098768 0.181656 0.036224 -0.999330 0.005168
0.313548 0.159483 0.942984 0.917572 -0.231535 0.323193
0.070872 0.034377 0.270119 -0.083384 -0.869049 0.487648
0.379184 0.133407 0.316045 0.416419 -0.526928 -0.740906
0.170516 0.093042 0.485842 0.044318 -0.997895 0.047338
0.266755 0.232558 0.235019 -0.003566 -0.848429 0.529297
0.353315 0.036533 0.837796 -0.965817 -0.241854 0.093293
0.358734 0.216008 0.480085 -0.003270 -0.995201 -0.097798
0.272652 0.099567 0.404687 -0.002277 -0.995468 -0.095067
0.211257 0.319487 0.539212 -0.005914 0.997220 0.074278
0.052785 0.171940 0.407407 -0.999747 0.022408 0.001955
0.107012 0.182348 0.217172 -0.110532 -0.988785 0.100433
0.313766 0.285782 0.611315 0.103295 0.839122 0.534046
0.246334 0.221369 0.381846 -0.115960 -0.508820 0.853027
0.092084 0.161647 0.240662 0.022872 0.997725 0.063421
0.210915 0.216817 0.440585 -0.137962 0.912901 0.384158
0.344423 0.084520 0.340865 0.139175 -0.988213 -0.063766
0.304375 0.089147 0.721057 0.017266 -0.998949 -0.042466
0.230163 0.099706 0.943089 0.057542 -0.942787 0.328392
0.073201 0.089368 0.838116 0.891615 0.082747 -0.445170
0.066716 0.170662 0.913479 -0.942580 0.095959 0.319898
0.100686 0.218700 0.416290 -0.048572 0.974812 0.217676
0.202016 0.105877 0.123070 0.001772 -0.996557 -0.082895
0.116436 0.207519 0.817767 -0.138409 0.984109 0.111229
0.247758 0.095351 0.688805 0.009830 -0.999476 -0.030851
0.361402 0.215569 0.456690 -0.003937 -0.994473 -0.104919
0.056302 0.202688 0.306344 -0.983264 0.182156 0.003444
0.239435 0.107257 0.211787 -0.015614 -0.992329 -0.122636
0.119455 0.115784 0.156353 -0.384909 -0.917488 0.100306
0.127997 0.221503 0.674013 -0.794033 0.321272 0.516039
0.377184 0.217724 0.582251 0.001612 -0.965303 -0.261126
0.203679 0.320081 0.527624 -0.006400 0.998698 0.050608
0.334430 0.085166 0.747320 0.024247 -0.999249 -0.030217
0.171150 0.216239 0.448051 -0.062308 0.980742 0.185100
0.363899 0.075595 0.482628 0.105863 -0.989353 -0.099870
0.119473 0.091507 0.840209 -0.895679 -0.431724 0.106647
0.141669 0.220479 0.639679 -0.387636 0.539695 0.747307
0.233490 0.322702 0.479172 0.000248 0.999848 0.017443
0.356682 0.145300 0.194248 -0.641198 0.615798 -0.457883
0.054560 0.190999 0.614581 -0.982788 0.184651 0.005703
0.237917 0.092798 0.839213 0.016554 -0.999861 0.002089
0.307783 0.158375 0.946069 0.520198 0.250048 0.816621
0.099061 0.243309 0.178697 -0.425785 0.801889 -0.419144
0.222116 0.110049 0.064136 -0.016541 -0.991191 -0.131401
0.257674 0.229906 0.271669 -0.007434 -0.984283 0.176442
0.077854 0.206783 0.078575 -0.918686 0.332777 -0.212779
0.341949 0.181265 0.919368 0.183431 -0.550919 -0.814151
0.052879 0.139260 0.741564 -0.997033 -0.060614 0.047436
0.238238 0.226805 0.311695 -0.024740 -0.947884 0.317654
0.119456 0.151164 0.199624 -0.922102 -0.386908 -0.005466
0.323048 0.234033 0.060716 0.063783 0.980164 -0.187643
0.100396 0.093770 0.167418 0.064302 -0.009709 -0.997883
0.385709 0.102317 0.937941 0.159892 -0.776828 0.609075
0.095670 0.088872 0.879897 0.040767 -0.058609 0.997448
0.315564 0.230904 0.258269 -0.006760 -0.972698 0.231975
0.118966 0.231196 0.254169 -0.002174 -0.995948 0.089906
0.209530 0.314990 0.287888 -0.009105 0.986954 -0.160744
0.401350 0.135606 0.234998 0.996199 -0.087006 -0.004191
0.344436 0.091480 0.873048 0.407518 -0.912375 -0.038745
0.314018 0.285351 0.611904 0.103494 0.839116 0.534016
0.410541 0.181772 0.323132 0.998357 0.057268 -0.001868
0.061139 0.069891 0.295109 -0.883868 -0.203323 0.421233
0.055801 0.201238 0.326215 -0.983189 0.182589 0.000730
0.391153 0.060033 0.230521 -0.755761 -0.643244 -0.122727
0.229287 0.105273 0.312167 -0.009206 -0.995375 -0.095623
0.183867 0.204168 0.897116 -0.094459 0.977329 0.189490
0.229008 0.216505 0.497579 -0.427124 -0.697718 0.575113
0.393516 0.076577 0.255629 -0.915722 0.266622 -0.300609
0.232020 0.108391 0.193765 -0.017302 -0.992150 -0.123852
0.101477 0.301919 0.376215 -0.905638 0.424046 -0.002297
0.106170 0.153865 0.042626 -0.163313 0.413971 -0.895520
0.137779 0.093066 0.418726 0.060712 -0.994876 0.080843
0.123917 0.169383 0.919864 -0.730826 -0.020583 -0.682253
0.134339 0.218548 0.418246 -0.047825 0.968276 0.245265
0.388244 0.241065 0.628256 0.923974 0.381955 -0.019546
0.068722 0.104323 0.220189 0.956948 -0.157648 0.243717
0.403818 0.103046 0.749905 0.955006 0.029523 -0.295114
0.136728 0.230447 0.264695 -0.003646 -0.996616 0.082116
0.111653 0.314937 0.334237 -0.545459 0.835762 -0.063056
0.062796 0.193209 0.789370 -0.934199 0.350748 0.065177
0.323599 0.097093 0.939334 0.041807 -0.912070 0.407897
0.137806 0.319818 0.468613 -0.034042 0.998808 0.034988
0.166192 0.229570 0.276006 -0.006808 -0.992730 0.120171
0.052957 0.139458 0.557103 -0.999868 -0.016223 0.001068
0.233380 0.098848 0.598097 0.003683 -0.999013 -0.044276
0.090953 0.225020 0.334721 -0.049050 -0.957599 0.283897
0.068328 0.093994 0.320251 0.965639 -0.005559 -0.259828
0.078993 0.036780 0.197754 -0.042729 -0.825787 -0.562361
0.189022 0.145698 0.954927 -0.139524 0.363992 0.920893
0.352061 0.192137 0.910988 0.128177 0.960428 0.247284
0.079435 0.123374 0.053088 -0.880803 -0.323579 -0.345663
0.394372 0.108318 0.203966 -0.700618 0.305948 -0.644616
0.207855 0.322423 0.388360 -0.010625 0.999211 -0.038269
0.105900 0.137882 0.286739 0.484290 0.585183 0.650403
0.336031 0.100185 0.943766 0.042171 -0.895936 0.442176
0.156681 0.241847 0.162475 -0.024799 -0.976338 0.214822
0.393215 0.034020 0.269530 0.084425 -0.860714 0.502040
0.353641 0.139374 0.819034 -0.981170 -0.191798 -0.022760
0.407780 0.116592 0.484770 0.971870 -0.235505 -0.002327
0.062056 0.190827 0.792307 -0.909352 0.409648 0.072586
0.311754 0.090402 0.632505 0.013979 -0.998159 -0.059024
0.405677 0.108858 0.417483 0.974481 -0.224407 -0.005355
0.099061 0.218159 0.556166 -0.379425 0.854187 0.355531
0.276132 0.219736 0.402923 -0.052328 -0.959775 0.275851
0.304976 0.092289 0.579156 0.010580 -0.997684 -0.067185
0.059696 0.074032 0.286273 -0.998235 -0.038195 0.045482
0.085974 0.217590 0.538710 -0.405581 0.882510 0.238074
0.327632 0.243765 0.156843 0.123416 0.865916 -0.484725
0.259020 0.323055 0.419587 0.007022 0.999846 -0.016108
0.403328 0.049500 0.224806 0.993536 0.108846 0.032227
0.396837 0.206397 0.740218 0.395891 0.913656 0.092213
0.065902 0.109942 0.746223 -0.378129 0.245061 -0.892728
0.248554 0.218206 0.422666 -0.142726 -0.842027 0.520211
0.110546 0.067753 0.869456 0.960651 -0.098010 0.259891
0.181552 0.221840 0.676708 -0.108322 0.358026 0.927407
0.389169 0.135439 0.949108 0.237072 0.581354 0.778347
0.384721 0.243162 0.588304 0.933909 0.357358 -0.010458
0.363727 0.046193 0.186493 -0.063191 -0.680659 -0.729870
0.053126 0.184344 0.413194 -0.995649 0.093065 -0.004618
0.053347 0.163599 0.553084 -0.999755 0.022076 0.001476
0.326201 0.216566 0.443826 -0.012886 -0.998121 -0.059909
0.204740 0.165508 0.953922 0.201518 -0.444043 0.873050
0.328031 0.238397 0.198236 -0.004468 -0.622022 0.782987
0.372445 0.225395 0.329892 -0.008396 -0.986879 0.161245
0.237425 0.164315 0.956004 0.153172 0.020460 0.987988
0.305948 0.088854 0.727135 0.017739 -0.998970 -0.041761
0.353689 0.151191 0.838416 -0.944087 0.291150 0.154696
0.313111 0.320519 0.461079 0.030586 0.999136 0.028141
0.206113 0.132370 0.025563 -0.027809 -0.046323 -0.998539
0.086749 0.248949 0.221029 -0.804343 0.574809 -0.150422
0.069629 0.045299 0.860392 -0.089468 -0.711218 0.697255
0.367980 0.115784 0.171199 -0.041984 0.334158 -0.941582
0.411063 0.164614 0.338603 0.999915 0.012712 0.002832
0.344420 0.170469 0.239177 0.856685 -0.486051 -0.172757
0.282006 0.258333 0.656289 0.073026 0.847196 0.526238
0.377958 0.075920 0.526981 0.007756 -0.999249 -0.037977
0.349770 0.219960 0.619140 0.001097 -0.999539 -0.030344
0.381795 0.237621 0.209771 0.864854 0.486445 -0.124092
0.099692 0.230973 0.257292 -0.002181 -0.997718 0.067477
0.229594 0.236833 0.069475 -0.005919 0.948253 -0.317461
0.366317 0.171883 0.184853 -0.052762 -0.817929 0.572895
0.411071 0.164171 0.344645 0.999927 0.011793 0.002646
0.064100 0.086930 0.718786 -0.886700 -0.458475 0.059699
0.072402 0.122745 0.253148 0.750911 0.578502 0.318540
0.263012 0.106422 0.104444 -0.012937 -0.993374 -0.114193
0.291551 0.086813 0.874389 0.023825 -0.999684 -0.008018
0.402868 0.100228 0.455517 0.962601 -0.270899 -0.003566
0.193837 0.227761 0.299352 -0.015931 -0.978170 0.207195
0.131467 0.266308 0.195999 -0.092341 0.873227 -0.478485
0.410773 0.147974 0.578777 0.999989 0.004061 0.002290
0.335388 0.157041 0.931617 0.819919 0.082643 0.566483
0.177382 0.107179 0.059694 -0.086562 -0.985407 -0.146564
0.304677 0.216926 0.512380 -0.014443 -0.998269 -0.057009
0.147610 0.224172 0.345671 -0.083510 -0.789929 0.607486
0.076230 0.060791 0.871799 -0.056622 -0.485034 0.872661
0.382683 0.221267 0.383155 -0.004277 -0.999278 0.037753
0.075958 0.235748 0.242423 -0.870406 0.477448 -0.120150
0.119717 0.087836 0.514799 0.156586 -0.979754 0.124753
0.362915 0.300175 0.523562 0.933125 0.359549 0.001339
0.088067 0.075865 0.701418 0.166390 -0.964314 0.205945
0.383384 0.209765 0.728532 0.177885 0.971747 0.155125
0.353283 0.054588 0.771828 -0.997219 -0.040199 -0.062759
0.357106 0.104722 0.275727 -0.882086 -0.116993 -0.456330
0.397182 0.222759 0.357629 0.717994 0.695956 0.011387
0.399468 0.180484 0.207437 -0.237618 -0.948094 0.211320
0.376962 0.210938 0.723983 0.184203 0.970132 0.157838
0.401853 0.141403 0.161804 -0.907211 0.072606 0.414362
0.333198 0.215446 0.043070 0.078038 0.327054 -0.941778
0.145976 0.319067 0.498850 -0.034195 0.998120 0.050866
0.330187 0.320097 0.405438 0.016509 0.999850 -0.005191
0.083417 0.217882 0.426844 -0.043267 0.983667 0.174719
0.316912 0.238718 0.197726 -0.005723 -0.645156 0.764030
0.163240 0.220819 0.653115 -0.154578 0.463364 0.872582
0.081208 0.251191 0.514754 -0.931909 0.362680 -0.002788
0.119458 0.146390 0.267939 -0.848422 -0.396980 -0.350124
0.350223 0.221885 0.691647 0.003373 -0.999690 -0.024677
0.081625 0.252342 0.427430 -0.922663 0.385562 0.005935
0.353330 0.090478 0.870441 -0.987242 -0.027571 0.156824
0.411100 0.167781 0.467547 0.999901 0.013510 0.003922
0.255285 0.210992 0.039823 0.000257 0.431646 -0.902043
0.096457 0.225999 0.322094 -0.029617 -0.980525 0.194146
0.131096 0.099718 0.102231 -0.048624 -0.997477 -0.051726
0.322214 0.320193 0.384088 0.020346 0.999263 -0.032545
0.307005 0.093946 0.464037 0.009374 -0.998055 -0.061631
0.110579 0.037718 0.261475 0.973896 -0.197081 0.112629
0.391385 0.117224 0.247792 -0.897751 -0.397355 -0.190138
0.394262 0.165460 0.860153 -0.078621 -0.796722 -0.599210
0.296778 0.087517 0.822489 0.021700 -0.999565 -0.019952
0.397307 0.027675 0.252004 0.292134 -0.923896 0.247130
0.241892 0.220027 0.622532 -0.035168 -0.419226 0.907200
0.131323 0.104827 0.071041 -0.188224 -0.964299 -0.186278
0.271050 0.089348 0.850332 0.020504 -0.999770 -0.006256
0.100297 0.183110 0.232336 -0.103203 -0.994652 0.004107
0.143888 0.320140 0.363800 -0.032758 0.998793 -0.036608
0.395695 0.082996 0.663316 0.804102 -0.594456 -0.006528
0.339436 0.221380 0.669113 0.001706 -0.999989 -0.004446
0.384862 0.115679 0.949194 0.229516 -0.299737 0.926002
0.269557 0.106607 0.064847 -0.009518 -0.993564 -0.112868
0.110582 0.149993 0.255051 0.983728 0.175339 0.039184
0.078336 0.174621 0.838476 -0.065172 -0.966226 -0.249318
0.395400 0.043057 0.281981 0.095336 -0.724548 0.682599
0.362200 0.218713 0.575259 0.000938 -0.998527 -0.054250
0.104658 0.176107 0.833205 -0.330141 -0.923909 -0.193390
0.296772 0.097378 0.349107 0.003654 -0.997315 -0.073137
0.390083 0.030019 0.261084 0.068832 -0.923346 0.377749
0.225839 0.226052 0.321413 -0.033220 -0.925503 0.377281
0.363956 0.081456 0.726496 0.207084 -0.851211 0.482241
0.157948 0.216446 0.445372 -0.054534 0.981511 0.183473
0.352738 0.220691 0.390592 -0.009263 -0.998251 0.058384
0.170088 0.091983 0.721616 0.049432 -0.995983 0.074657
0.110355 0.214140 0.747768 -0.241448 0.960715 0.136855
0.110623 0.136696 0.771212 0.985263 0.105951 -0.134278
0.360096 0.217221 0.522779 -0.001252 -0.997061 -0.076604
0.398739 0.155613 0.304864 0.248785 -0.568711 -0.784011
0.203801 0.228228 0.293326 -0.013419 -0.980732 0.194897
0.358627 0.231290 0.072112 0.171709 0.885455 -0.431839
0.287319 0.238043 0.203496 -0.011058 -0.829635 0.558196
0.261138 0.097713 0.531999 0.003112 -0.997800 -0.066217
0.232732 0.116533 0.029874 -0.012882 -0.819593 -0.572801
0.242609 0.321797 0.498127 0.007344 0.999588 0.027764
0.350595 0.075347 0.694458 -0.062485 -0.996920 0.047393
0.356449 0.164444 0.861966 0.193946 -0.813114 -0.548845
0.115524 0.223841 0.349938 -0.106820 -0.749447 0.653390
0.062872 0.091719 0.685527 -0.900753 -0.434325 -0.002464
0.157216 0.092260 0.644074 0.054760 -0.995139 0.081854
0.404112 0.214531 0.333330 0.846023 0.531546 0.041280
0.065160 0.064382 0.208484 0.404790 -0.637896 -0.655159
0.176192 0.220868 0.712720 -0.039911 0.998993 -0.020484
0.094644 0.221502 0.380128 -0.101169 0.867372 0.487268
0.109151 0.259399 0.197182 -0.368914 0.821448 -0.434885
0.282983 0.319493 0.521785 0.025204 0.998724 0.043767
0.385306 0.070287 0.300198 0.044920 -0.333494 0.941681
0.394186 0.213879 0.146718 0.899839 0.409458 -0.150444
0.250414 0.295622 0.240197 0.002809 0.883202 -0.468985
0.087051 0.218361 0.690402 -0.518519 0.116261 0.847125
0.391368 0.127282 0.238811 -0.752782 0.653700 0.077426
0.077710 0.102613 0.111031 -0.739824 -0.656796 -0.145875
0.306325 0.215959 0.451665 -0.020249 -0.996953 -0.075330
0.143089 0.236139 0.193007 0.003638 0.989838 0.142155
0.273931 0.213739 0.847088 0.079903 0.983530 0.162122
0.290009 0.135074 0.969038 0.170845 0.458799 0.871961
0.193047 0.205191 0.897743 -0.072086 0.976760 0.201851
0.368025 0.287982 0.422451 0.927961 0.372665 0.003194
0.366467 0.204037 0.828762 0.149645 0.980864 0.124546
0.108325 0.075563 0.712397 0.283178 -0.949525 0.134956
0.090264 0.205530 0.043451 -0.147756 0.357223 -0.922258
0.252890 0.263093 0.652630 0.036392 0.851031 0.523852
0.198358 0.100987 0.311186 0.014293 -0.999148 -0.038713
0.190380 0.236377 0.078728 -0.037556 0.948400 -0.314846
0.377872 0.263169 0.437629 0.926212 0.376989 0.003393
0.090084 0.107543 0.302775 0.012847 0.209462 0.977732
0.388822 0.227499 0.171119 0.730665 0.676369 -0.093027
0.275391 0.303243 0.254448 0.022641 0.884336 -0.466301
0.052964 0.150580 0.511768 -0.999933 0.011567 0.000657
0.317641 0.220962 0.043558 0.041533 0.394027 -0.918160
0.239758 0.182231 0.044617 -0.005926 -0.075386 -0.997137
0.403747 0.208493 0.599452 0.817663 0.575513 0.014538
0.134065 0.179683 0.040444 0.010340 0.399550 -0.916653
0.094409 0.034302 0.845849 0.034437 -0.861984 0.505765
0.178993 0.101541 0.171552 0.021844 -0.999292 -0.030623
0.320750 0.236756 0.681827 0.106980 0.842351 0.528205
0.211031 0.103320 0.286813 0.003374 -0.997746 -0.067013
0.300211 0.224747 0.338253 -0.032800 -0.917545 0.396277
0.071109 0.090126 0.209922 0.909454 0.055078 0.412141
0.305918 0.095645 0.373061 0.007430 -0.998111 -0.060984
0.059256 0.100297 0.720294 -0.921136 -0.373462 0.109703
0.146368 0.093029 0.429206 0.056368 -0.995845 0.071526
0.177784 0.093353 0.515966 0.040379 -0.998387 0.039920
0.303842 0.218128 0.423673 -0.024359 -0.998818 0.042055
0.125896 0.241522 0.152022 -0.085040 0.982572 -0.165291
0.299283 0.093943 0.530318 0.007655 -0.997233 -0.073943
0.296427 0.215887 0.812726 0.105276 0.987536 0.117005
0.279774 0.096454 0.508953 0.003828 -0.997047 -0.076693
0.292076 0.095921 0.475272 0.004066 -0.996570 -0.082655
0.135260 0.222731 0.364265 -0.154297 0.217164 0.963863
0.077151 0.240917 0.512071 -0.931043 0.364907 -0.001406
0.240816 0.295712 0.605984 0.022175 0.852147 0.522833
0.159021 0.099627 0.134286 0.035128 -0.999382 -0.001001
0.055517 0.160158 0.195965 0.880614 -0.355380 0.313408
0.409586 0.171640 0.206747 -0.672749 -0.710912 0.204969
0.374590 0.271263 0.402035 0.926928 0.375194 0.005800
0.153528 0.216381 0.791960 -0.129867 0.986762 0.097140
0.098807 0.192509 0.908138 -0.118235 0.963566 0.239920
0.353324 0.059364 0.857142 -0.994597 -0.074251 0.072556
0.272662 0.158418 0.039853 0.009667 0.277890 -0.960564
0.054841 0.128189 0.329201 -0.986929 -0.160143 -0.018046
0.072346 0.082586 0.787671 0.899147 0.176045 0.400678
0.149543 0.100962 0.095840 -0.015696 -0.998935 -0.043382
0.278628 0.202276 0.038879 0.055650 0.281544 -0.957933
0.287839 0.297253 0.244326 0.038354 0.882801 -0.468178
0.237836 0.323214 0.460895 -0.000677 0.999973 0.007337
0.135216 0.092813 0.489330 0.063423 -0.993765 0.091697
0.097383 0.076163 0.457359 -0.215785 -0.970762 -0.105154
0.344436 0.148500 0.849846 0.757591 -0.438289 -0.483693
0.330669 0.217805 0.543311 -0.005035 -0.998530 -0.053973
0.119458 0.119179 0.272433 -0.731565 -0.664907 -0.150702
0.407145 0.204951 0.439964 0.943321 0.331646 0.012484
0.112139 0.182926 0.239021 -0.219657 -0.974796 -0.039037
0.213725 0.215993 0.479539 -0.191924 0.939632 0.283296
0.053456 0.134921 0.704370 -0.997891 -0.063953 -0.011115
0.078277 0.226112 0.320631 -0.027348 -0.986915 0.158904
0.205948 0.099195 0.433563 0.014830 -0.999486 -0.028423
0.204489 0.177536 0.950822 0.004216 0.415973 0.909367
0.407960 0.170676 0.189094 0.984791 0.105125 -0.138333
0.107478 0.245872 0.659101 -0.145060 0.835884 0.529392
0.126763 0.109276 0.956162 -0.182385 -0.601476 0.777794
0.201972 0.216161 0.485447 -0.120305 0.964928 0.233323
0.355708 0.230595 0.262615 -0.007479 -0.972003 0.234850
0.391618 0.192418 0.086430 0.974058 0.105061 -0.200432
0.172894 0.091772 0.780743 0.049083 -0.995766 0.077719
0.095310 0.036278 0.198578 0.039068 -0.841818 -0.538346
0.339493 0.084408 0.748717 0.026122 -0.999389 -0.023217
0.324399 0.140393 0.947647 0.198724 0.696437 0.689554
0.338081 0.217428 0.530058 -0.004343 -0.997884 -0.064877
0.117095 0.113257 0.145564 0.002516 -0.707183 0.707026
0.098248 0.182153 0.214342 -0.035488 -0.990445 0.133262
0.133486 0.222793 0.363471 -0.156732 0.156414 0.975177
0.369819 0.216135 0.449384 -0.003002 -0.995914 -0.090256
0.299175 0.320657 0.471258 0.026479 0.999180 0.030645
0.403405 0.181466 0.163222 0.981403 0.120157 -0.149702
0.102422 0.159606 0.795605 0.202511 0.947237 -0.248459
0.213617 0.105364 0.214534 -0.002335 -0.996281 -0.086135
0.126870 0.160739 0.042062 -0.114500 0.047796 -0.992273
0.193261 0.323190 0.435082 -0.019052 0.999732 -0.013168
0.244226 0.098705 0.941647 0.061242 -0.937562 0.342385
0.377207 0.098127 0.109885 0.090853 -0.992722 0.079050
0.222574 0.223224 0.357901 -0.112237 -0.159792 0.980749
0.074180 0.179740 0.270310 0.101054 -0.971132 -0.216081
0.252740 0.229572 0.275988 -0.008505 -0.982957 0.183637
0.353311 0.068026 0.285695 -0.996886 -0.047227 0.063155
0.290068 0.219878 0.401080 -0.036509 -0.980273 0.194245
0.178901 0.230504 0.045274 -0.011615 0.284138 -0.958713
0.208789 0.094698 0.643683 0.023473 -0.999692 0.008029
0.262690 0.122924 0.026081 0.049258 -0.306685 -0.950535
0.213847 0.218015 0.550708 -0.302200 0.095049 0.948494
0.403700 0.101063 0.341143 0.961249 -0.275651 -0.004143
0.391175 0.103763 0.154364 -0.782808 -0.112887 0.611938
0.385295 0.078614 0.726035 0.121087 -0.724739 0.678300
0.060786 0.084701 0.280000 -0.993205 0.018851 -0.114839
0.388086 0.215475 0.461323 -0.000121 -0.993934 -0.109976
0.367674 0.222679 0.364941 -0.007596 -0.995439 0.095099
0.376424 0.265255 0.540518 0.932580 0.360940 -0.003974
0.398304 0.086514 0.600671 0.856344 -0.515594 -0.028930
0.120775 0.144033 0.939761 -0.265175 0.483939 0.833958
0.315399 0.309739 0.269278 0.056537 0.886357 -0.459537
0.274193 0.093950 0.639606 0.009995 -0.998748 -0.049023
0.155301 0.316094 0.302407 -0.032298 0.988713 -0.146296
0.244180 0.251265 0.670298 0.009506 0.842790 0.538158
0.077716 0.071372 0.876502 -0.049191 -0.329785 0.942774
0.391564 0.227384 0.542651 0.923594 0.383360 -0.003171
0.086858 0.265400 0.437609 -0.921317 0.388788 0.004454
0.119471 0.094396 0.777895 -0.826721 -0.483487 0.287703
0.110589 0.049488 0.851215 0.985575 -0.108627 0.129778
0.191686 0.218916 0.583793 -0.035284 0.659119 0.751210
0.099603 0.076055 0.416809 -0.246758 -0.958144 -0.145157
0.390736 0.158462 0.073243 0.976815 0.015886 -0.213496
0.270613 0.238630 0.197624 -0.012758 -0.847598 0.530485
0.308496 0.292579 0.238445 0.065775 0.880434 -0.469585
0.236946 0.291624 0.232712 -0.007941 0.882462 -0.470316
0.156276 0.319129 0.507387 -0.029309 0.998201 0.052309
0.164525 0.172292 0.040245 -0.065062 -0.049226 -0.996666
0.316419 0.091853 0.506941 0.013565 -0.998679 -0.049553
0.206728 0.223738 0.351271 -0.098518 -0.510310 0.854329
0.094762 0.198193 0.871456 -0.122765 0.976344 0.177993
