0.242920 0.197056 0.346587 0.000396 0.357603 0.933874
0.848398 0.124771 0.050317 -0.584923 -0.184656 -0.789790
0.354420 0.323433 0.204969 -0.005652 0.999966 0.006039
0.111526 0.233040 0.261467 -0.434037 0.900842 0.009794
0.581552 0.260958 0.324587 0.022993 0.391050 0.920082
0.428752 0.231563 0.068962 -0.022497 0.257124 -0.966116
0.839141 0.138625 0.095191 -0.284687 -0.251409 -0.925066
0.467736 0.267341 0.323141 0.007843 0.355700 0.934567
0.830528 0.126278 0.348457 0.803847 0.583083 0.117665
0.847990 0.121833 0.313679 -0.404960 -0.203013 0.891512
0.837645 0.143206 0.073947 -0.352406 -0.303781 -0.885171
0.246013 0.151286 0.314491 -0.145211 -0.952226 0.268663
0.665587 0.187830 0.352044 -0.002338 0.271425 0.962457
0.254300 0.150843 0.073069 -0.213147 -0.923717 -0.318299
0.366130 0.226813 0.068047 -0.000366 0.308930 -0.951085
0.153237 0.077262 0.048817 0.175966 -0.359159 -0.916537
0.025011 0.132039 0.094219 -0.929648 0.368418 -0.004788
0.189797 0.087711 0.363415 -0.007449 0.009317 0.999929
0.473457 0.172038 0.352859 -0.005310 0.106665 0.994281
0.951974 0.165680 0.139509 0.995661 0.076698 -0.052703
0.152945 0.240131 0.319431 -0.366596 0.928529 0.058659
0.473142 0.096331 0.348118 0.001335 -0.204402 0.978886
0.137252 0.084713 0.356686 0.107412 -0.325519 0.939415
0.491541 0.174863 0.049879 -0.003658 0.115891 -0.993255
0.676000 0.124296 0.047761 -0.019431 -0.152832 -0.988061
0.413678 0.310095 0.304475 0.003996 0.520106 0.854092
0.910968 0.203042 0.174743 0.229071 0.973344 -0.011351
0.808854 0.144463 0.344572 0.443660 0.890827 0.097944
0.735294 0.223299 0.281124 0.300401 0.952535 0.049350
0.504748 0.323186 0.195935 0.026054 0.999635 -0.007120
0.956121 0.093121 0.049816 0.835701 -0.336205 -0.434246
0.456166 0.194707 0.054201 -0.002679 0.422378 -0.906416
0.545229 0.316126 0.105946 0.033642 0.972350 -0.231092
0.253736 0.276873 0.083875 0.011801 0.327714 -0.944703
0.569393 0.190936 0.351024 -0.002728 0.370594 0.928791
0.286203 0.075711 0.110602 -0.483590 -0.096812 -0.869924
0.099758 0.232459 0.168856 -0.442046 0.896991 -0.001780
0.950552 0.175904 0.269185 0.974401 0.219229 0.049807
0.564895 0.149311 0.046698 -0.001461 0.059968 -0.998199
0.326075 0.318549 0.279796 -0.013446 0.994371 0.105093
0.835879 0.064585 0.342862 0.897642 -0.431631 0.089073
0.260722 0.321617 0.209721 -0.054671 0.998394 0.014869
0.972038 0.120093 0.127979 0.995458 -0.043726 -0.084565
0.525057 0.322293 0.182302 0.043100 0.998773 -0.024384
0.607825 0.300355 0.175206 0.511977 0.858684 -0.023263
0.748340 0.086386 0.356599 0.225741 -0.013333 0.974096
0.952381 0.158152 0.138411 0.997184 0.025398 -0.070564
0.679519 0.077304 0.056515 0.004600 -0.083729 -0.996478
0.584896 0.174907 0.353275 -0.006212 0.118453 0.992940
0.929023 0.196623 0.295016 0.372893 0.922961 0.095361
0.777815 0.219809 0.167207 0.120774 0.992633 -0.009680
0.714545 0.226265 0.248010 0.434822 0.900280 0.020623
0.168700 0.256539 0.265867 -0.454335 0.890518 0.023598
0.025009 0.105276 0.126802 -0.999736 -0.022444 -0.004952
0.895273 0.204127 0.330884 0.184172 0.975239 0.122433
0.705776 0.230668 0.117668 0.451633 0.889933 -0.063619
0.106792 0.165732 0.050900 -0.025450 0.084110 -0.996131
0.264565 0.285878 0.087020 0.009296 0.331916 -0.943263
0.076853 0.231260 0.273475 -0.446791 0.894585 0.009748
0.706981 0.075374 0.307590 0.256630 -0.121647 0.958824
0.293083 0.258781 0.326152 -0.001992 0.307643 0.951500
0.829477 0.214974 0.239060 0.112906 0.993565 0.008938
0.544516 0.266648 0.322978 0.017612 0.382535 0.923773
0.400185 0.321457 0.248875 -0.006860 0.997586 0.069102
0.356270 0.285936 0.315740 0.000124 0.353367 0.935485
0.130210 0.116693 0.361038 0.032767 -0.046694 0.998372
0.706757 0.213582 0.339760 0.100710 0.564115 0.819531
0.281430 0.126134 0.339549 0.717388 0.693020 0.071258
0.306902 0.088999 0.090371 -0.537634 -0.150554 -0.829628
0.954910 0.159438 0.207436 0.995699 0.092223 0.008865
0.381195 0.118904 0.048745 -0.021201 -0.205301 -0.978469
0.528012 0.298798 0.093597 0.040037 0.460170 -0.886928
0.706932 0.073825 0.092723 0.269391 -0.130273 -0.954179
0.288228 0.321427 0.169299 -0.032850 0.998071 -0.052676
0.110118 0.155453 0.352996 -0.044364 0.142789 0.988758
0.292997 0.108700 0.343244 0.911973 0.400386 0.089423
0.538295 0.113812 0.049984 -0.007414 -0.202187 -0.979319
0.051902 0.173112 0.053746 -0.293540 0.043381 -0.954962
0.240219 0.316535 0.231897 -0.534095 0.845146 0.021695
0.971145 0.099505 0.225285 0.926241 -0.376218 0.023171
0.219922 0.258443 0.076394 0.022018 0.338695 -0.940639
0.232371 0.057593 0.357023 0.040177 0.016957 0.999049
0.841403 0.137343 0.068416 -0.559932 -0.274367 -0.781792
0.432565 0.232042 0.334271 -0.013742 0.311971 0.949992
0.065305 0.073831 0.352502 -0.013403 -0.335270 0.942027
0.780992 0.071465 0.043552 0.008262 -0.094055 -0.995533
0.235539 0.135425 0.363187 0.007936 0.057509 0.998313
0.025005 0.111784 0.218672 -0.997180 0.075042 -0.000001
0.840032 0.075699 0.345527 0.963526 -0.247722 0.101251
0.625161 0.287045 0.146728 0.492347 0.868270 -0.060849
0.417260 0.312805 0.303473 0.003620 0.540410 0.841394
0.466657 0.218966 0.065640 -0.004625 0.226554 -0.973988
0.379005 0.138908 0.356417 -0.023534 -0.026056 0.999383
0.794852 0.216753 0.090390 0.124401 0.987769 -0.094003
0.549146 0.311324 0.099789 0.005315 0.528307 -0.849037
0.317935 0.210779 0.339497 0.002366 0.343049 0.939314
0.291709 0.126889 0.101789 -0.490695 -0.553115 -0.673263
0.456823 0.173607 0.352662 -0.004098 0.111528 0.993753
0.349586 0.223257 0.335425 0.000310 0.316697 0.948527
0.267447 0.113752 0.362456 -0.117511 -0.133091 0.984113
0.107171 0.232825 0.146880 -0.440596 0.897678 -0.006978
0.682299 0.248739 0.164411 0.462786 0.886268 -0.018920
0.578287 0.145692 0.356322 -0.001231 0.042448 0.999098
0.040653 0.149760 0.250104 -0.970198 0.242307 -0.001890
0.928632 0.198649 0.187272 0.321891 0.946748 -0.007339
0.559912 0.319753 0.151697 0.073875 0.995249 -0.063426
0.051360 0.241966 0.201376 0.002765 0.999996 0.000840
0.490462 0.246963 0.330757 0.004777 0.329984 0.943974
0.224423 0.026540 0.340411 -0.204351 -0.975747 0.078473
0.406877 0.323286 0.203903 -0.000090 0.999993 0.003656
0.254686 0.150663 0.336788 -0.199539 -0.923259 0.328295
0.267521 0.145718 0.053302 -0.326433 -0.847533 -0.418484
0.950974 0.147446 0.141945 0.818236 0.571918 -0.058308
0.218911 0.149957 0.083598 0.182722 -0.947424 -0.262678
0.460233 0.322157 0.241854 0.007225 0.997613 0.068673
0.157517 0.246579 0.115633 -0.424322 0.904850 -0.034593
0.827759 0.052273 0.065048 0.774399 -0.629702 -0.061498
0.484673 0.283939 0.316258 0.015516 0.387696 0.921657
0.217181 0.141411 0.352309 -0.329140 0.933688 0.141047
0.902007 0.167457 0.349362 0.103376 0.179382 0.978333
0.463885 0.318683 0.279014 0.008537 0.988928 0.148150
0.241231 0.105903 0.292049 0.010186 -0.220731 0.975282
0.226760 0.124739 0.362752 0.060621 -0.147529 0.987198
0.356235 0.215848 0.065545 0.001198 0.320572 -0.947223
0.683668 0.075233 0.346270 0.012317 -0.075403 0.997077
0.315909 0.237762 0.332115 -0.000871 0.315690 0.948862
0.497759 0.189462 0.351049 -0.003167 0.356366 0.934341
0.486055 0.203210 0.343377 -0.004240 0.395942 0.918266
0.218902 0.295000 0.104547 -0.525347 0.848501 -0.063693
0.281109 0.321387 0.170305 -0.035487 0.998073 -0.050894
0.236197 0.029240 0.362490 -0.011074 -0.212088 0.977188
0.750792 0.219044 0.335757 0.129887 0.780154 0.611956
0.708931 0.097112 0.359649 0.707864 -0.281340 0.647901
0.181247 0.265465 0.294605 -0.472743 0.879573 0.053529
0.777788 0.164658 0.060178 0.053890 -0.938462 -0.341151
0.242231 0.317625 0.193432 -0.471436 0.881849 -0.009503
0.149029 0.241118 0.172755 -0.426412 0.904487 -0.008790
0.200886 0.283796 0.247838 -0.497039 0.867430 0.022740
0.412973 0.311569 0.098546 0.011952 0.501055 -0.865333
0.167693 0.096557 0.085193 0.698649 -0.217908 -0.681473
0.027942 0.081215 0.130275 -0.984447 -0.175644 -0.003603
0.777751 0.098255 0.307511 0.011334 -0.144709 0.989409
0.238793 0.151533 0.057790 0.010969 -0.938338 -0.345544
0.832178 0.097647 0.039770 0.067345 0.003645 -0.997723
0.166563 0.091356 0.081813 0.749237 -0.198982 -0.631705
0.569411 0.229012 0.336394 0.010756 0.321624 0.946806
0.267336 0.143661 0.311597 -0.392027 -0.852380 0.346068
0.764563 0.219975 0.292607 0.146012 0.987507 0.059246
0.704452 0.209286 0.061201 0.065625 0.522698 -0.849988
0.053084 0.189075 0.053803 -0.211249 0.087734 -0.973487
0.038779 0.174487 0.247916 -0.992462 0.111364 -0.051163
0.046871 0.234640 0.322236 -0.001803 0.868154 0.496291
0.038776 0.174874 0.294274 -0.999415 0.033063 0.008742
0.697398 0.236970 0.275032 0.441791 0.895555 0.052931
0.086558 0.231774 0.238856 -0.450858 0.892595 0.000925
0.173143 0.112538 0.064235 0.720722 -0.426154 -0.546766
0.386544 0.237456 0.070365 -0.016888 0.266555 -0.963672
0.512298 0.149687 0.355943 0.000239 0.065900 0.997826
0.134511 0.104444 0.360726 0.056098 -0.161283 0.985313
0.790514 0.164574 0.356370 -0.059503 -0.864449 0.499187
0.603317 0.302756 0.162394 0.507241 0.860556 -0.046363
0.622040 0.216946 0.062602 -0.008270 0.225566 -0.974193
0.208979 0.126495 0.110599 0.294042 -0.435868 -0.850622
0.809528 0.216850 0.201607 0.115265 0.993335 0.000066
0.394504 0.319936 0.266017 -0.006371 0.996882 0.078643
0.450514 0.202021 0.343603 -0.004388 0.401829 0.915704
0.708281 0.093778 0.330346 0.541581 -0.199082 0.816735
0.414724 0.297392 0.091926 0.003837 0.383337 -0.923600
0.087071 0.157265 0.050619 -0.068137 0.064320 -0.995600
0.222173 0.142924 0.044001 -0.229987 0.957397 -0.174637
0.602262 0.083076 0.057345 -0.014825 -0.120355 -0.992620
0.356903 0.277116 0.083366 -0.000583 0.344659 -0.938728
0.850434 0.150019 0.045248 -0.173234 -0.121694 -0.977333
0.788411 0.056261 0.043911 -0.067911 0.593141 -0.802229
0.798748 0.217914 0.198854 0.113047 0.993589 -0.000586
0.309931 0.117929 0.355872 -0.278702 -0.308480 0.909486
0.868460 0.209907 0.196519 0.138564 0.990353 -0.001000
0.909530 0.201779 0.310606 0.229793 0.968899 0.091812
0.610123 0.078121 0.057258 -0.003434 -0.095526 -0.995421
0.766534 0.075348 0.095187 -0.040292 -0.116520 -0.992371
0.041254 0.221925 0.157451 -0.614628 0.787710 0.041785
0.187210 0.133437 0.091969 0.530659 -0.565818 -0.631072
0.423037 0.145706 0.046352 -0.001355 0.049956 -0.998751
0.787271 0.095433 0.041920 0.055635 0.038888 -0.997694
0.108811 0.232881 0.283222 -0.418799 0.907843 0.020690
0.829435 0.126448 0.307514 -0.248204 -0.219375 0.943541
0.131871 0.234062 0.273698 -0.411561 0.911190 0.018705
0.837322 0.213443 0.108547 0.108263 0.992304 -0.060102
0.635896 0.255126 0.326862 0.041825 0.413118 0.909717
0.833902 0.178615 0.050011 0.036705 0.212049 -0.976570
0.237404 0.277386 0.318892 0.028746 0.331230 0.943112
0.911505 0.202788 0.247704 0.229623 0.973119 0.017676
0.435278 0.235567 0.068831 -0.005155 0.354927 -0.934880
0.698928 0.235201 0.116160 0.463096 0.883592 -0.069333
0.498344 0.323087 0.189602 0.020577 0.999668 -0.015521
0.041420 0.225487 0.316716 -0.657254 0.751634 0.055339
0.388753 0.293931 0.312534 0.001177 0.368782 0.929515
0.673084 0.213764 0.341545 -0.006673 0.275738 0.961210
0.819251 0.215997 0.155291 0.109833 0.993890 -0.010905
0.271940 0.320907 0.240032 -0.037881 0.997493 0.059768
0.252713 0.139968 0.362111 0.094648 0.277556 0.956036
0.512749 0.304347 0.096888 0.019583 0.490463 -0.871242
0.290006 0.125099 0.110602 -0.421549 -0.469600 -0.775740
0.323050 0.320873 0.249126 -0.018967 0.997423 0.069193
0.071610 0.085618 0.357065 -0.033284 -0.271157 0.961959
0.143891 0.236244 0.261418 -0.417776 0.908395 0.016807
0.287957 0.276140 0.318911 -0.003685 0.336141 0.941804
0.801358 0.217583 0.256328 0.118739 0.992822 0.014345
0.459149 0.270742 0.321813 0.007834 0.357804 0.933764
0.261696 0.104513 0.356273 -0.059049 -0.013661 0.998162
0.847715 0.126627 0.043792 -0.613912 -0.187609 -0.766756
0.226527 0.026015 0.330495 -0.146396 -0.988877 0.026278
0.722368 0.086359 0.333474 -0.993600 -0.104013 0.044043
0.618383 0.201660 0.344361 0.004107 0.431366 0.902168
0.281305 0.103241 0.363017 -0.005619 -0.011637 0.999916
0.646904 0.272083 0.259948 0.473809 0.878851 0.055904
0.195507 0.174123 0.049698 -0.014231 0.094129 -0.995458
0.190527 0.073953 0.363415 -0.021299 0.001966 0.999771
0.751272 0.126391 0.039374 0.019203 -0.000375 -0.999816
0.307568 0.083166 0.295565 -0.495556 -0.114664 0.860974
0.743101 0.136300 0.059641 -0.653803 0.750892 -0.093288
0.025001 0.099831 0.307895 -0.996862 -0.078320 0.011464
0.695144 0.129052 0.354790 -0.038688 -0.101618 0.994071
0.100545 0.168152 0.351467 -0.025179 0.081693 0.996339
0.618112 0.285150 0.101324 0.447057 0.866438 -0.222317
0.303580 0.322537 0.197503 -0.019041 0.999797 -0.006642
0.348101 0.318932 0.126015 -0.006142 0.995003 -0.099660
0.912867 0.201987 0.282436 0.236092 0.970703 0.044670
0.228226 0.150511 0.100079 0.062483 -0.980867 -0.184380
0.281603 0.125903 0.335007 0.714681 0.697840 0.047431
0.746121 0.138079 0.307510 0.331802 -0.441192 0.833821
0.260534 0.147941 0.311960 -0.339112 -0.886438 0.315009
0.666111 0.159606 0.047661 -0.007420 0.095187 -0.995432
0.044707 0.215549 0.061830 -0.260438 0.360424 -0.895694
0.779353 0.150832 0.353772 -0.029997 0.988583 0.147664
0.947180 0.189541 0.220251 0.810076 0.586155 0.014122
0.568837 0.274531 0.319022 0.031489 0.409682 0.911685
0.942948 0.177362 0.323298 0.922502 0.284726 0.260616
0.040146 0.151918 0.276990 -0.982167 0.187789 0.009115
0.974546 0.107212 0.175384 0.982990 -0.180824 -0.032137
0.277081 0.088027 0.040418 -0.338224 -0.064347 -0.938863
0.297310 0.110699 0.110603 -0.385177 -0.240455 -0.890966
0.172262 0.154850 0.353594 -0.010292 0.125459 0.992045
0.449087 0.268323 0.322808 0.005774 0.350677 0.936479
0.919984 0.120462 0.040559 -0.016438 0.040985 -0.999025
0.549697 0.252782 0.073997 0.013744 0.362394 -0.931924
0.944188 0.088195 0.358375 0.397555 -0.259630 0.880081
0.062625 0.239224 0.145371 0.046632 0.998666 -0.022181
0.502780 0.112950 0.050211 -0.003017 -0.206029 -0.978541
0.099590 0.091936 0.043138 0.007209 -0.256685 -0.966468
0.776097 0.031426 0.354316 -0.113509 -0.982237 0.149423
0.140945 0.096378 0.042309 0.079604 -0.256849 -0.963167
0.114522 0.099811 0.042137 0.023881 -0.192514 -0.981004
0.425790 0.076947 0.346207 0.001742 -0.069414 0.997586
0.283783 0.207973 0.061351 0.005072 0.338231 -0.941050
0.803153 0.090288 0.095189 -0.188082 -0.135396 -0.972776
0.360683 0.129873 0.355993 -0.032798 -0.121057 0.992104
0.634966 0.233068 0.364748 -0.902799 -0.055094 -0.426520
0.272348 0.269264 0.321143 0.000221 0.335319 0.942105
0.041583 0.185094 0.338054 -0.915830 0.053517 0.397984
0.321045 0.239110 0.070849 -0.001061 0.313648 -0.949539
0.591042 0.255425 0.326861 0.020845 0.384999 0.922682
0.196338 0.277826 0.292053 -0.489598 0.870117 0.056474
0.724696 0.157171 0.046882 0.153545 -0.133423 -0.979093
0.859476 0.210869 0.119489 0.126246 0.991236 -0.038894
0.613737 0.296529 0.205616 0.514307 0.857605 0.001310
0.270529 0.079214 0.047113 -0.079171 0.049442 -0.995634
0.612020 0.111707 0.050341 -0.016819 -0.210778 -0.977389
0.209120 0.146623 0.349328 0.289618 -0.861084 0.417918
0.250911 0.050169 0.359856 -0.266190 0.810512 0.521740
0.400005 0.318629 0.281382 -0.004641 0.994911 0.100652
0.122626 0.233174 0.321612 -0.417552 0.906693 0.059649
0.223329 0.136118 0.039719 -0.024281 0.115341 -0.993029
0.039219 0.197024 0.277330 -0.959783 0.280739 -0.001390
0.620211 0.150857 0.355839 -0.003856 0.062352 0.998047
0.728131 0.155184 0.357856 0.347651 -0.364995 0.863665
0.214412 0.148433 0.063988 0.238394 -0.901548 -0.361080
0.231193 0.025592 0.336756 -0.084293 -0.994697 0.058931
0.430174 0.286259 0.315613 -0.000339 0.362297 0.932063
0.265951 0.137878 0.347957 0.472316 0.873782 0.115855
0.396771 0.321940 0.159756 -0.004951 0.997637 -0.068522
0.730451 0.130939 0.095186 0.435747 -0.333134 -0.836150
0.971501 0.123470 0.280551 0.996048 -0.003898 0.088735
0.311463 0.317542 0.298537 -0.019922 0.984348 0.175104
0.621792 0.280840 0.309999 0.372736 0.806697 0.458594
0.767244 0.040774 0.363052 -0.030522 -0.094021 0.995102
0.244393 0.232605 0.334095 0.004674 0.318365 0.947957
0.813108 0.142144 0.072494 0.489118 0.871913 -0.023043
0.042214 0.169661 0.228865 -0.940920 0.237241 -0.241633
0.274902 0.038165 0.055314 0.617489 -0.778678 -0.111211
0.837309 0.211568 0.333856 0.094084 0.943515 0.317691
0.554456 0.210998 0.062059 -0.008401 0.354872 -0.934877
0.696947 0.100076 0.054860 -0.226804 -0.150967 -0.962169
0.952121 0.164593 0.141960 0.996510 0.065044 -0.052310
0.213249 0.274482 0.320961 -0.011811 0.379392 0.925161
0.199707 0.038943 0.049701 -0.639944 -0.754645 -0.144853
0.233693 0.208669 0.341686 0.016856 0.301526 0.953309
0.969016 0.137132 0.108816 0.627333 0.775802 -0.067705
0.359203 0.143225 0.356417 -0.025394 0.013119 0.999591
0.153916 0.141606 0.045491 -0.041226 0.245106 -0.968619
0.757371 0.201852 0.056207 0.016662 0.482357 -0.875816
0.852651 0.112155 0.355808 -0.650867 -0.152990 0.743617
0.722644 0.098174 0.065060 -0.993027 0.098077 -0.065409
0.763588 0.124117 0.040366 0.264936 -0.385734 -0.883752
0.430409 0.267882 0.079647 -0.004736 0.341955 -0.939705
0.306539 0.202649 0.344119 0.004077 0.357172 0.934030
0.205722 0.171409 0.353237 -0.011521 0.065467 0.997788
0.871827 0.209492 0.161753 0.138561 0.990320 -0.008237
0.932509 0.193452 0.321348 0.516639 0.834617 0.191046
0.921118 0.199893 0.125490 0.285521 0.957391 -0.043355
0.907350 0.201883 0.321631 0.224155 0.968328 0.109979
0.066290 0.215684 0.342189 -0.085110 0.295470 0.951553
0.784521 0.130522 0.095188 0.038542 -0.275413 -0.960553
0.563241 0.101257 0.052995 -0.011695 -0.225885 -0.974084
0.825290 0.153074 0.356641 -0.385481 -0.575419 0.721316
0.428117 0.321820 0.156929 -0.002328 0.997553 -0.069875
0.281251 0.235200 0.333135 0.009721 0.283068 0.959051
0.374316 0.323442 0.201578 -0.003076 0.999995 0.000351
0.415823 0.204554 0.060356 -0.003273 0.387045 -0.922055
0.737771 0.086347 0.363410 0.058327 0.013521 0.998206
0.304355 0.100430 0.358039 -0.838789 -0.298412 0.455393
0.343263 0.318419 0.283975 -0.007349 0.992326 0.123428
0.062151 0.230523 0.149037 -0.468752 0.883325 0.002971
0.808647 0.216944 0.197767 0.114596 0.993412 -0.000844
0.225973 0.026068 0.066294 -0.168510 -0.984052 -0.056975
0.131166 0.233396 0.326509 -0.393122 0.896606 0.203847
0.173748 0.257482 0.316233 -0.409002 0.908294 0.087857
0.889496 0.134526 0.040971 -0.143174 0.253430 -0.956700
0.716053 0.126219 0.075450 0.658606 -0.319335 -0.681369
0.560883 0.163355 0.354703 -0.004956 0.111109 0.993796
0.470369 0.222842 0.066107 -0.003771 0.245173 -0.969472
0.324869 0.223732 0.067342 0.000799 0.324362 -0.945933
0.955873 0.145584 0.195013 0.668081 0.744050 -0.007518
0.419170 0.169482 0.354090 -0.000488 0.064614 0.997910
0.825786 0.081570 0.307514 -0.315305 -0.111840 0.942377
0.862040 0.205111 0.340478 0.076959 0.705046 0.704974
0.256342 0.312124 0.097736 -0.018315 0.534033 -0.845265
0.683837 0.239360 0.322382 0.381174 0.860302 0.338507
0.915536 0.183081 0.057286 0.211652 0.236680 -0.948254
0.296030 0.321196 0.162412 -0.029291 0.997661 -0.061766
0.312492 0.235748 0.070082 -0.000335 0.315238 -0.949013
0.328440 0.087998 0.056455 -0.037527 -0.170027 -0.984725
0.027544 0.082923 0.166845 -0.986554 -0.163433 -0.000302
0.474310 0.131766 0.356344 0.003467 -0.094187 0.995548
0.305583 0.282793 0.317004 -0.005723 0.333629 0.942687
0.258485 0.029495 0.041072 0.279711 -0.856791 -0.433209
0.316457 0.148101 0.355900 -0.034685 0.028806 0.998983
0.952542 0.160772 0.145130 0.996999 0.051202 -0.058060
0.242138 0.313962 0.118076 -0.479337 0.874930 -0.068797
0.716393 0.122912 0.095185 0.483070 -0.295781 -0.824110
0.824534 0.196008 0.055177 0.032749 0.445357 -0.894754
0.661832 0.214213 0.061705 -0.009404 0.298461 -0.954375
0.240542 0.284924 0.086467 0.027054 0.332214 -0.942816
0.179708 0.163496 0.353156 -0.007707 0.049581 0.998740
0.222575 0.142176 0.292048 0.128762 -0.826954 0.547327
0.060964 0.241113 0.188866 0.104203 0.994553 -0.002406
0.195643 0.127902 0.048383 -0.681441 0.716034 -0.151435
0.974979 0.121950 0.200175 0.995699 -0.092631 -0.001436
0.729444 0.119352 0.357838 -0.854946 0.489442 0.171796
0.497788 0.320214 0.263405 0.011800 0.995583 0.093137
0.190576 0.154829 0.048800 -0.003726 0.110823 -0.993833
0.331640 0.322902 0.192017 -0.012457 0.999792 -0.016170
0.249363 0.099808 0.043388 0.059647 0.083706 -0.994704
0.835699 0.144897 0.094298 -0.277183 -0.316719 -0.907115
0.283077 0.264549 0.079346 -0.001826 0.325364 -0.945587
0.034380 0.138599 0.336266 -0.870840 0.428108 0.241579
0.240563 0.050965 0.356551 0.020823 0.241684 0.970131
0.302043 0.154305 0.354407 -0.016925 0.043133 0.998926
0.505703 0.323238 0.201191 0.029881 0.999553 -0.000175
0.372680 0.322629 0.229169 -0.008094 0.998967 0.044705
0.627991 0.104180 0.052071 -0.021240 -0.238927 -0.970805
0.226242 0.144132 0.338393 -0.206728 0.976008 0.068351
0.236065 0.085874 0.110600 0.016805 -0.109617 -0.993832
0.769765 0.146185 0.307511 0.139893 -0.600954 0.786946
0.836243 0.065144 0.046502 0.881302 -0.445038 -0.158896
0.525541 0.091769 0.056002 -0.005208 -0.178245 -0.983972
0.470689 0.290158 0.313134 0.016367 0.396674 0.917814
0.735872 0.223755 0.155146 0.335977 0.941760 -0.014375
0.560164 0.143132 0.356426 -0.000075 0.022984 0.999736
0.713633 0.132615 0.043463 0.597944 -0.303542 -0.741839
0.043622 0.228871 0.075359 -0.019128 0.776742 -0.629528
0.110550 0.105700 0.041851 0.012297 -0.123468 -0.992272
0.479097 0.323072 0.211816 0.013772 0.999809 0.013864
0.763768 0.147917 0.349219 -0.300398 0.945852 0.122982
0.825434 0.195559 0.347736 0.033319 0.437043 0.898823
0.273264 0.149174 0.044034 -0.228645 -0.584323 -0.778645
0.346318 0.300647 0.310271 0.003681 0.413443 0.910523
0.459242 0.203352 0.059529 -0.005250 0.393743 -0.919205
0.641868 0.198986 0.346222 0.004924 0.433929 0.900934
0.764718 0.148217 0.066819 -0.314404 0.947744 -0.054148
0.740677 0.134357 0.332980 -0.709165 0.703867 0.040690
0.627138 0.187746 0.351850 -0.002720 0.276080 0.961131
0.783933 0.207863 0.342475 0.042410 0.613366 0.788659
0.251259 0.318210 0.142409 -0.250953 0.966442 -0.054886
0.325128 0.110622 0.050648 -0.055701 -0.227898 -0.972090
0.813160 0.099227 0.307513 -0.201349 -0.144643 0.968781
0.727915 0.209177 0.341791 0.038240 0.568494 0.821798
0.198894 0.281163 0.274415 -0.495435 0.868018 0.032999
0.560322 0.111706 0.352340 -0.008829 -0.209062 0.977862
0.730559 0.223199 0.096435 0.340645 0.935785 -0.090924
0.469274 0.152893 0.355640 0.001113 0.083321 0.996522
0.207790 0.146124 0.083927 0.281492 -0.895086 -0.345807
0.284967 0.145805 0.358046 -0.211815 -0.356234 0.910072
0.139049 0.143853 0.048475 -0.070208 0.275268 -0.958800
0.712522 0.159576 0.354273 -0.008163 0.068875 0.997592
0.164151 0.252583 0.128295 -0.440344 0.897460 -0.025758
0.951947 0.156576 0.271008 0.996003 0.040039 0.079846
0.650392 0.072883 0.056825 0.011492 -0.065593 -0.997780
0.454622 0.296240 0.310303 0.016690 0.403170 0.914973
0.258936 0.076702 0.292050 -0.304870 -0.093650 0.947779
0.676225 0.174496 0.353757 -0.009689 0.122983 0.992362
0.027437 0.083391 0.133596 -0.986043 -0.166464 -0.002956
0.705995 0.232288 0.202300 0.338748 0.940877 0.000303
0.895831 0.185310 0.055289 0.099996 0.253480 -0.962158
0.963327 0.098894 0.327696 0.928286 -0.314659 0.198177
0.440216 0.296721 0.311210 0.000154 0.404040 0.914741
0.868055 0.124044 0.040805 -0.040523 -0.000890 -0.999178
0.927334 0.110254 0.362581 -0.020541 -0.000397 0.999789
0.591196 0.310895 0.241617 0.515200 0.855273 0.055468
0.702668 0.126168 0.353957 -0.020659 -0.100375 0.994735
0.054227 0.241713 0.171289 0.040241 0.999176 -0.005335
0.078877 0.192186 0.055015 -0.013478 0.249930 -0.968170
0.405445 0.296324 0.091383 0.003088 0.381074 -0.924540
0.268857 0.320712 0.159341 -0.038555 0.997237 -0.063493
0.389726 0.119760 0.354082 -0.016420 -0.197599 0.980145
0.026373 0.087961 0.270337 -0.988874 -0.148721 0.003194
0.185901 0.132303 0.061177 0.629660 -0.602837 -0.490016
0.775068 0.031526 0.065004 -0.095397 -0.993437 -0.063110
0.902327 0.202744 0.327588 0.208002 0.970892 0.118763
0.910719 0.163666 0.054152 0.150705 0.179046 -0.972230
0.149564 0.085873 0.357132 0.130889 -0.326017 0.936259
0.338806 0.175218 0.048914 -0.004272 0.082283 -0.996600
0.812068 0.182268 0.352945 0.017167 0.236174 0.971559
0.447717 0.320885 0.256738 0.005573 0.996028 0.088869
0.959088 0.087357 0.304615 0.838614 -0.539373 0.076186
0.674574 0.155427 0.355411 -0.006789 0.078511 0.996890
0.394116 0.208766 0.340243 -0.001466 0.358535 0.933515
0.038882 0.192961 0.292499 -0.985461 0.169765 0.006816
0.284384 0.297307 0.311569 -0.000933 0.350559 0.936540
0.859410 0.098941 0.040600 -0.476730 -0.160799 -0.864218
0.501732 0.304301 0.306676 0.020379 0.465133 0.885006
0.644482 0.237684 0.360264 0.799684 0.351115 0.487057
0.176782 0.118358 0.317095 0.610974 -0.418204 0.672173
0.052352 0.205904 0.345644 -0.068787 0.245952 0.966838
0.828669 0.150507 0.052603 -0.441268 -0.607825 -0.660176
0.702009 0.080099 0.049508 0.590555 -0.305945 -0.746755
0.623994 0.074047 0.345577 0.006510 -0.074222 0.997220
0.336743 0.187953 0.050846 -0.008507 0.330197 -0.943874
0.424964 0.279546 0.318319 -0.001657 0.352960 0.935637
0.038785 0.183419 0.116275 -0.995591 0.093746 -0.003282
0.692767 0.157766 0.355192 -0.007948 0.087567 0.996127
0.903862 0.197804 0.340910 0.160745 0.670281 0.724489
0.642433 0.186252 0.352291 -0.002486 0.240981 0.970527
0.506502 0.244058 0.070963 0.006179 0.330148 -0.943909
0.725002 0.224852 0.230867 0.365114 0.930920 0.008913
0.217130 0.100084 0.044954 -0.025335 -0.020972 -0.999459
0.214742 0.207063 0.343257 0.006862 0.304391 0.952522
0.656767 0.122959 0.354639 -0.018905 -0.160335 0.986882
0.815962 0.041288 0.358754 0.535329 -0.826990 0.171786
0.317819 0.090317 0.350712 -0.375670 -0.219529 0.900377
0.186707 0.116515 0.348369 -0.842836 0.524243 0.121643
0.927945 0.198258 0.255178 0.319907 0.947040 0.027849
0.190932 0.276098 0.218803 -0.502595 0.864476 0.008922
0.871472 0.206214 0.065089 0.101101 0.833419 -0.543315
0.316427 0.317593 0.105517 -0.016440 0.985168 -0.170804
0.874632 0.208275 0.307494 0.135640 0.987488 0.080426
0.886422 0.169952 0.052961 0.074247 0.179677 -0.980920
0.274312 0.135658 0.110601 -0.353979 -0.728456 -0.586559
0.900808 0.137399 0.041744 0.018619 0.579378 -0.814846
0.894733 0.206125 0.225540 0.175694 0.984404 0.009010
0.049284 0.242149 0.245134 -0.006708 0.999947 0.007825
0.693005 0.241553 0.179445 0.454343 0.890803 -0.006574
0.025010 0.121474 0.103609 -0.979913 0.199316 -0.006607
0.468978 0.240558 0.332123 0.001585 0.303773 0.952743
0.113888 0.185076 0.053412 -0.023267 0.268721 -0.962937
0.433017 0.323024 0.217762 0.001122 0.999726 0.023365
0.045963 0.157762 0.184623 -0.845885 0.466329 0.258876
0.247559 0.151364 0.313431 -0.168368 -0.947122 0.273151
0.038777 0.170887 0.276941 -0.999702 0.024410 0.000609
0.643095 0.276182 0.188029 0.500049 0.865985 -0.004431
0.041206 0.222405 0.307129 -0.677130 0.734620 0.042750
0.715546 0.223716 0.327412 0.349548 0.889165 0.295301
0.137758 0.197603 0.346110 -0.006147 0.281374 0.959578
0.150435 0.238129 0.319461 -0.363626 0.929733 0.058077
0.765108 0.033547 0.347645 -0.279802 -0.953131 0.115116
0.083028 0.231573 0.123037 -0.438289 0.898705 -0.015230
0.725241 0.223256 0.082063 0.344526 0.928626 -0.137681
0.166879 0.093591 0.061583 0.824733 -0.260713 -0.501841
0.218669 0.028451 0.361659 -0.345279 -0.908934 0.233713
0.851779 0.150928 0.045730 -0.141675 -0.093227 -0.985514
0.904774 0.204215 0.252784 0.205090 0.978590 0.017325
0.228236 0.025869 0.361454 -0.185279 -0.964565 0.187847
0.674697 0.253949 0.163101 0.464959 0.885082 -0.021070
0.579982 0.308405 0.299028 0.382183 0.854948 0.350713
0.545405 0.204213 0.343282 -0.002657 0.395919 0.918282
0.547216 0.124576 0.047947 -0.004915 -0.154474 -0.987985
0.969549 0.097273 0.160403 0.920498 -0.388756 -0.039411
0.747436 0.071132 0.039977 0.206436 0.159549 -0.965364
0.852319 0.210545 0.073940 0.116057 0.985956 -0.120091
0.786030 0.196987 0.054783 0.020496 0.434587 -0.900396
0.481407 0.244773 0.071470 0.003589 0.320250 -0.947326
0.518761 0.255000 0.074780 0.010501 0.354967 -0.934820
0.274230 0.132591 0.347845 0.607972 0.785728 0.114025
0.263762 0.128866 0.362977 0.044237 0.058115 0.997329
0.367706 0.118856 0.353906 -0.029789 -0.206318 0.978031
0.825458 0.214421 0.301562 0.106721 0.991492 0.074525
0.768447 0.136978 0.307511 0.198774 -0.341479 0.918630
0.077354 0.171124 0.350859 -0.029665 0.087866 0.995691
0.967770 0.091896 0.186951 0.830480 -0.556935 -0.011277
0.794955 0.216579 0.317098 0.125040 0.986883 0.102117
0.615320 0.208681 0.342223 -0.005259 0.362751 0.931871
0.028985 0.076711 0.116437 -0.981333 -0.192144 -0.008122
0.277807 0.321559 0.227887 -0.037245 0.998290 0.045045
0.638163 0.226787 0.064940 0.019079 0.338037 -0.940939
0.212252 0.056170 0.040224 0.264208 0.340601 -0.902322
0.591542 0.269060 0.081394 0.033511 0.411795 -0.910660
0.920747 0.111726 0.040187 -0.023147 -0.000354 -0.999732
0.604583 0.203713 0.343619 0.000962 0.410835 0.911709
0.971802 0.114004 0.276885 0.985518 -0.147268 0.084063
0.902134 0.199798 0.339808 0.157518 0.715408 0.680720
0.514175 0.315931 0.102943 0.009760 0.927625 -0.373384
0.732549 0.097495 0.095186 0.258143 -0.145142 -0.955142
0.574361 0.168189 0.048614 -0.007064 0.114237 -0.993428
0.714701 0.121893 0.350062 0.799529 -0.291658 0.525061
0.604590 0.180349 0.353153 -0.002626 0.141729 0.989902
0.258603 0.141343 0.361187 0.371578 0.909740 0.185209
0.835841 0.131737 0.307514 -0.275417 -0.232377 0.932816
0.038785 0.174093 0.105904 -0.999456 0.031244 -0.010559
0.780827 0.075303 0.307511 -0.112195 -0.114458 0.987072
0.645642 0.241160 0.069923 0.024570 0.381470 -0.924055
0.600143 0.127051 0.355301 -0.008065 -0.140121 0.990101
0.468283 0.322466 0.168543 0.007617 0.998771 -0.048980
0.288108 0.131238 0.110602 -0.440275 -0.632914 -0.636851
0.418572 0.313466 0.099350 0.013574 0.510074 -0.860023
0.960264 0.142186 0.253327 0.704639 0.708061 0.046204
0.025126 0.128438 0.316987 -0.952799 0.301067 0.039150
0.033446 0.138353 0.186356 -0.897822 0.440359 -0.000214
0.160996 0.144231 0.047528 -0.048827 0.254829 -0.965753
0.062280 0.240848 0.175521 0.117416 0.993012 -0.011866
0.847186 0.212875 0.227980 0.122664 0.992431 0.005936
0.885670 0.206712 0.298057 0.156380 0.985605 0.064247
0.257838 0.206449 0.342335 0.006899 0.333238 0.942818
0.284814 0.134368 0.351183 -0.532528 -0.763489 0.365374
0.025009 0.129908 0.132745 -0.930881 0.365321 -0.001000
0.245681 0.236701 0.332518 0.004092 0.322715 0.946487
0.319396 0.322548 0.187035 -0.017153 0.999544 -0.024848
0.928043 0.197372 0.113080 0.340692 0.937265 -0.073916
0.263032 0.305845 0.094037 -0.001812 0.413107 -0.910681
0.025003 0.122021 0.269421 -0.974616 0.223881 0.001124
0.059534 0.239224 0.273225 0.030983 0.999164 0.026663
0.379587 0.323247 0.211503 -0.003874 0.999872 0.015521
0.817111 0.044236 0.361764 0.361995 -0.542905 0.757769
0.208063 0.287429 0.290081 -0.502582 0.862530 0.058760
0.967908 0.095006 0.149175 0.898771 -0.435970 -0.046267
0.508131 0.319773 0.267269 0.016492 0.995214 0.096315
0.717211 0.130016 0.337220 0.706161 -0.347079 0.617149
0.081008 0.231487 0.157011 -0.455465 0.890253 -0.000640
0.914331 0.200278 0.319673 0.265162 0.957403 0.114317
0.726687 0.142979 0.060721 0.560992 -0.529311 -0.636489
0.949136 0.153163 0.292097 0.960713 0.253665 0.112628
0.128090 0.233893 0.258091 -0.425951 0.904664 0.012169
0.235948 0.313533 0.227294 -0.548036 0.836282 0.016998
0.151135 0.241049 0.108266 -0.428038 0.902817 -0.041295
0.838547 0.070667 0.354108 0.925424 -0.349035 0.147527
0.410935 0.305224 0.307393 -0.002095 0.537357 0.843352
0.732599 0.223446 0.118328 0.312073 0.948439 -0.055448
0.330587 0.141230 0.356415 -0.037936 -0.015551 0.999159
0.313573 0.145112 0.046292 -0.039865 0.016636 -0.999067
0.482745 0.125138 0.354852 0.000032 -0.144610 0.989489
0.606381 0.160284 0.354967 -0.005587 0.101172 0.994853
0.318540 0.190965 0.350101 -0.006974 0.374051 0.927382
0.364092 0.088503 0.346205 -0.023432 -0.171596 0.984889
0.507417 0.321262 0.151226 0.018038 0.997143 -0.073352
0.577482 0.143569 0.046254 -0.000676 0.026352 -0.999653
0.800513 0.113564 0.356732 -0.047484 -0.005470 0.998857
0.230301 0.144501 0.069876 -0.152589 0.987533 -0.038676
0.623690 0.286132 0.129508 0.494797 0.864676 -0.086670
0.300211 0.111631 0.307518 -0.528494 -0.284712 0.799771
0.388214 0.312666 0.303593 0.004242 0.552318 0.833623
0.794010 0.092483 0.095189 -0.135028 -0.141725 -0.980654
0.225929 0.106955 0.044772 -0.039664 0.001037 -0.999213
0.028138 0.134428 0.190548 -0.865365 0.501142 -0.000153
0.622847 0.288519 0.145317 0.497892 0.864866 -0.064112
0.812327 0.091974 0.307513 -0.229196 -0.135103 0.963959
0.726920 0.083076 0.095185 0.202653 -0.128795 -0.970744
0.039337 0.198700 0.091941 -0.975280 0.219974 -0.020970
0.379319 0.318400 0.118902 -0.003478 0.993758 -0.111498
0.204078 0.098611 0.359787 0.656437 -0.262088 0.707390
0.063721 0.239612 0.112726 0.100941 0.994045 -0.041052
0.846390 0.154636 0.357091 -0.193199 -0.222058 0.955701
0.316792 0.273074 0.081735 -0.000740 0.335734 -0.941957
0.409841 0.323015 0.182999 -0.001793 0.999618 -0.027571
0.826827 0.213610 0.077435 0.101025 0.987974 -0.117050
0.792841 0.218470 0.167686 0.113780 0.993469 -0.008617
0.511909 0.322380 0.230022 0.026287 0.998872 0.039546
0.667682 0.151061 0.355822 -0.005584 0.059328 0.998223
0.610429 0.153953 0.047137 -0.004096 0.077181 -0.997009
0.583126 0.090377 0.056446 -0.011262 -0.160757 -0.986930
0.381587 0.321600 0.156547 -0.006827 0.997466 -0.070815
0.417293 0.279876 0.084481 -0.001631 0.356126 -0.934436
0.630556 0.284839 0.187923 0.506795 0.862039 -0.006851
0.581098 0.198356 0.056238 0.002900 0.433691 -0.901057
0.811175 0.194477 0.054258 0.028360 0.413077 -0.910254
0.042591 0.187475 0.173766 -0.960423 0.188027 0.205508
0.956864 0.079745 0.168791 0.780812 -0.624501 -0.018224
0.295676 0.322119 0.222326 -0.030615 0.998857 0.036707
0.255364 0.181536 0.353453 -0.009951 0.209013 0.977862
0.366375 0.309754 0.305230 0.004728 0.523440 0.852050
0.283959 0.157183 0.353988 -0.010096 0.034105 0.999367
0.723645 0.077178 0.338801 -0.966832 -0.245002 0.072187
0.080689 0.222138 0.339461 -0.176986 0.432226 0.884227
0.878056 0.190727 0.347684 0.076280 0.383551 0.920364
0.509321 0.317075 0.292517 0.015204 0.977857 0.208720
0.086952 0.124573 0.361036 -0.047376 0.111047 0.992685
0.170656 0.256139 0.302062 -0.462892 0.884778 0.053836
0.473992 0.317586 0.290041 0.010849 0.981665 0.190306
0.971823 0.102340 0.158911 0.963885 -0.262454 -0.045203
0.779032 0.183283 0.352962 0.004094 0.256289 0.966592
0.416253 0.317115 0.300412 -0.001543 0.965656 0.259820
0.047227 0.229412 0.298332 -0.504902 0.862592 0.031772
0.678631 0.251443 0.212747 0.434013 0.900900 0.003463
0.178629 0.265648 0.169975 -0.467489 0.883888 -0.013983
0.896929 0.080871 0.044535 0.000055 -0.304934 -0.952373
0.580765 0.297228 0.093886 0.108763 0.526355 -0.843280
0.824479 0.105143 0.363042 -0.046584 -0.025265 0.998595
0.238020 0.182320 0.353332 -0.010847 0.230439 0.973026
0.755870 0.078013 0.356945 0.051258 -0.020703 0.998471
0.274569 0.151114 0.357323 -0.162947 -0.418159 0.893639
0.452505 0.166733 0.353705 -0.002583 0.107656 0.994185
0.640326 0.278085 0.187185 0.501241 0.865288 -0.005817
0.025005 0.117754 0.209427 -0.978894 0.204371 -0.000114
0.025548 0.091464 0.235849 -0.992608 -0.121361 0.000254
0.063634 0.222318 0.338754 -0.226842 0.459672 0.858629
0.679168 0.248074 0.114652 0.473895 0.876826 -0.081237
0.395229 0.194675 0.054207 -0.006218 0.393419 -0.919338
0.254147 0.115261 0.292050 -0.137230 -0.284013 0.948949
0.438393 0.163666 0.048483 -0.000848 0.108103 -0.994139
0.175106 0.116047 0.100221 0.513005 -0.329082 -0.792799
0.760237 0.068348 0.046318 0.070742 0.020055 -0.997293
0.596661 0.089463 0.056594 -0.013434 -0.153975 -0.987983
0.297788 0.083234 0.049846 0.989474 -0.042866 -0.138213
0.202248 0.036847 0.055234 -0.590502 -0.798667 -0.115925
0.328627 0.317752 0.292952 -0.010771 0.988639 0.149925
0.341825 0.323087 0.191876 -0.009716 0.999818 -0.016415
0.095546 0.126192 0.041600 -0.036752 0.114730 -0.992717
0.283637 0.318576 0.274178 -0.027816 0.996752 0.075570
0.383704 0.278851 0.084066 -0.000599 0.348859 -0.937175
0.121648 0.229978 0.334806 -0.231538 0.711479 0.663467
0.243576 0.256704 0.325672 0.010434 0.324161 0.945944
0.581112 0.189342 0.051339 -0.002812 0.326652 -0.945141
0.814676 0.078625 0.045779 -0.294502 0.142974 -0.944895
0.948075 0.169246 0.104808 0.987151 0.087774 -0.133523
0.453600 0.299095 0.093841 0.017961 0.414719 -0.909772
0.805816 0.217278 0.173066 0.110266 0.993879 -0.006695
0.715892 0.125677 0.055641 0.772874 -0.318208 -0.549007
0.747565 0.221095 0.307704 0.222735 0.970771 0.089405
0.272998 0.321872 0.187288 -0.034697 0.999091 -0.024753
0.757324 0.221469 0.131112 0.193922 0.980646 -0.026983
0.299108 0.210552 0.339755 0.003648 0.337509 0.941315
0.219743 0.105114 0.357406 -0.009859 -0.017586 0.999797
0.039967 0.156328 0.324698 -0.993259 0.070241 0.092205
0.054908 0.241454 0.265499 0.051451 0.998462 0.020634
0.519734 0.295701 0.310303 0.035782 0.427820 0.903156
0.185354 0.103886 0.110598 0.403920 -0.192236 -0.894368
0.734893 0.151306 0.327557 0.432429 -0.751199 0.498703
0.589427 0.118242 0.049063 -0.015521 -0.185532 -0.982516
0.899934 0.205386 0.193510 0.189796 0.981792 -0.007884
0.439651 0.202505 0.343317 -0.004529 0.396727 0.917926
0.035601 0.094393 0.354855 -0.690963 -0.179499 0.700250
0.367631 0.319821 0.265585 -0.006897 0.997034 0.076648
0.258784 0.126965 0.363138 0.009193 -0.017025 0.999813
0.414179 0.258709 0.326717 -0.005996 0.325006 0.945693
0.284268 0.122700 0.347413 0.774417 0.622619 0.112361
0.326467 0.277285 0.083432 -0.000297 0.343758 -0.939058
0.735343 0.108964 0.307509 0.283143 -0.200137 0.937963
0.041432 0.224131 0.192232 -0.490042 0.871694 0.003062
0.716404 0.118500 0.095185 0.461668 -0.271719 -0.844412
0.054532 0.230128 0.283927 -0.452340 0.891708 0.015652
0.426143 0.323046 0.218252 0.000395 0.999710 0.024062
0.446623 0.281369 0.317629 0.010007 0.371067 0.928552
0.640852 0.156286 0.355329 -0.005775 0.085103 0.996355
0.698258 0.103273 0.349717 -0.156950 -0.191414 0.968879
0.758030 0.161175 0.044896 0.293115 -0.852141 -0.433519
0.372053 0.318164 0.288137 -0.004146 0.991650 0.128890
0.816665 0.046457 0.362222 0.143227 -0.206061 0.968001
0.233444 0.245756 0.330251 0.027349 0.321816 0.946407
0.814623 0.104135 0.357163 -0.346769 -0.120262 0.930209
0.530532 0.321764 0.229983 0.046510 0.998221 0.037298
0.065377 0.105207 0.360759 -0.063080 -0.084058 0.994462
0.729866 0.168634 0.353940 -0.009539 0.061815 0.998042
0.273049 0.283908 0.086447 0.004543 0.335497 -0.942030
0.203045 0.134009 0.065048 -0.594848 0.801265 -0.064266
0.426005 0.149792 0.355930 -0.001254 0.068792 0.997630
0.623487 0.289660 0.182514 0.508616 0.860884 -0.013765
0.060361 0.230437 0.209468 -0.368257 0.929724 0.000345
0.973803 0.134267 0.165950 0.893130 0.448407 -0.035361
0.659694 0.264531 0.198468 0.430043 0.902808 -0.000850
0.961234 0.084621 0.163296 0.808544 -0.587892 -0.025297
0.406917 0.109302 0.351770 -0.007252 -0.226347 0.974020
0.238649 0.314940 0.249710 -0.547794 0.836053 0.030608
0.782370 0.164202 0.075432 0.022956 -0.946956 -0.320541
0.343703 0.319010 0.127803 -0.007888 0.995699 -0.092315
0.572386 0.168581 0.048694 -0.007149 0.113954 -0.993460
0.141101 0.220960 0.341215 -0.034348 0.343654 0.938468
0.676962 0.095612 0.347900 -0.024794 -0.182686 0.982859
0.407814 0.121469 0.354406 -0.006056 -0.181788 0.983319
0.824476 0.213134 0.333138 0.096808 0.953474 0.285509
0.285943 0.049590 0.331569 0.823513 -0.566555 0.029025
0.819179 0.089554 0.307513 -0.267016 -0.128504 0.955086
0.726381 0.113444 0.351825 -0.913973 0.380943 0.139769
0.268699 0.078540 0.110601 -0.328838 -0.097706 -0.939318
0.190170 0.260071 0.076506 -0.083854 0.481453 -0.872452
0.930866 0.138772 0.044787 0.131341 0.698533 -0.703421
0.422967 0.164714 0.354514 0.000230 0.082190 0.996617
0.220074 0.096842 0.043919 -0.069276 0.013817 -0.997502
0.442075 0.224913 0.065753 -0.001459 0.373735 -0.927534
0.834372 0.145946 0.315686 -0.309869 -0.374461 0.873934
0.303111 0.157607 0.048521 -0.007980 0.042739 -0.999054
0.579707 0.313452 0.275054 0.383033 0.915950 0.119673
0.064522 0.207236 0.057583 -0.064573 0.251328 -0.965746
0.133635 0.203025 0.345473 -0.027901 0.282018 0.959003
0.436582 0.323044 0.187907 0.001754 0.999816 -0.019121
0.725409 0.124598 0.307509 0.435905 -0.300539 0.848329
0.760778 0.089871 0.307511 0.050969 -0.137732 0.989157
0.413314 0.308224 0.097161 0.010488 0.474603 -0.880137
0.579813 0.316252 0.244613 0.375871 0.924421 0.064557
0.755929 0.160176 0.351804 0.297158 -0.845666 0.443335
0.691276 0.242533 0.163764 0.457551 0.889003 -0.017931
0.952271 0.164884 0.146243 0.996570 0.066890 -0.048727
0.289905 0.320090 0.148682 -0.029719 0.997218 -0.068363
0.401523 0.321359 0.250105 -0.006837 0.997519 0.070069
0.808004 0.072796 0.356056 -0.032405 0.068028 0.997157
0.426934 0.249494 0.329485 -0.010940 0.307224 0.951575
0.484537 0.319290 0.273024 0.010458 0.992687 0.120261
0.044786 0.234356 0.316453 -0.088680 0.942651 0.321784
0.841788 0.095848 0.043836 0.983961 0.053949 -0.170028
0.046103 0.177434 0.228866 -0.927952 0.241791 -0.283622
0.428381 0.266511 0.323573 -0.004760 0.337420 0.941342
0.237593 0.169203 0.353909 -0.005652 0.051504 0.998657
0.575302 0.195633 0.348240 0.001378 0.423232 0.906020
0.588200 0.313298 0.189202 0.491953 0.870530 -0.012631
0.948093 0.186674 0.166531 0.851525 0.523814 -0.022907
0.317132 0.322705 0.208089 -0.015943 0.999806 0.011595
0.145540 0.238093 0.165660 -0.422106 0.906490 -0.010133
0.171021 0.255488 0.310665 -0.425913 0.902875 0.058441
0.147549 0.236586 0.090172 -0.391555 0.918566 -0.054046
0.238850 0.151588 0.345959 0.011309 -0.935721 0.352560
0.279897 0.111320 0.363044 0.040944 0.016660 0.999023
0.366036 0.076267 0.056456 -0.009266 -0.073300 -0.997267
0.885004 0.116901 0.361975 -0.084996 0.004235 0.996372
0.352162 0.201118 0.058236 -0.000544 0.376801 -0.926294
0.384466 0.247482 0.329957 -0.010613 0.293484 0.955905
0.748038 0.157542 0.051620 0.349348 -0.822026 -0.449699
0.825530 0.049508 0.055645 0.719109 -0.686043 -0.110574
0.226698 0.213169 0.061674 0.016158 0.283278 -0.958902
0.959885 0.125941 0.347555 0.830458 0.017875 0.556794
0.762295 0.221344 0.216093 0.150393 0.988617 0.004396
0.040079 0.206211 0.081653 -0.919497 0.390232 -0.047376
0.175289 0.115634 0.044330 0.777308 -0.502116 -0.379040
0.505774 0.179954 0.352623 -0.003620 0.155643 0.987807
0.025004 0.098856 0.246912 -0.997503 -0.070618 0.000267
0.094253 0.232181 0.182450 -0.401319 0.915935 -0.002420
0.313902 0.231366 0.069083 0.000130 0.319712 -0.947515
0.819648 0.121856 0.095190 -0.201105 -0.209903 -0.956816
0.242212 0.186992 0.051560 -0.008469 0.304291 -0.952541
0.458811 0.268147 0.079822 0.007046 0.353796 -0.935296
0.090022 0.085491 0.045634 0.002685 -0.290542 -0.956859
0.767712 0.053387 0.040137 0.081941 0.273999 -0.958233
0.896771 0.205782 0.141262 0.178068 0.983880 -0.016517
0.173845 0.084758 0.110597 0.385931 -0.100915 -0.916992
0.930230 0.106861 0.040275 0.055906 -0.024257 -0.998141
0.579729 0.308787 0.298246 0.400360 0.872894 0.278868
0.455252 0.192752 0.052899 -0.002392 0.427267 -0.904123
0.807098 0.217167 0.162594 0.109436 0.993951 -0.009232
0.100043 0.232474 0.233101 -0.441776 0.897124 0.001611
0.249984 0.107888 0.357518 -0.013122 0.018209 0.999748
0.169255 0.102067 0.298488 0.548086 -0.194566 0.813478
0.427795 0.174369 0.353783 -0.001605 0.078327 0.996926
0.169792 0.156742 0.353376 -0.010030 0.105661 0.994352
0.513906 0.322350 0.173547 0.028518 0.998881 -0.037736
0.288732 0.317810 0.291519 -0.028297 0.988847 0.146225
0.782069 0.219550 0.200176 0.110359 0.993892 -0.000273
0.048519 0.242217 0.214419 -0.022850 0.999734 0.003071
0.034395 0.131070 0.353431 -0.703174 0.342690 0.622985
0.722832 0.100093 0.345056 -0.983905 0.145196 0.104156
0.876215 0.208905 0.257937 0.140341 0.990033 0.011785
0.394752 0.271099 0.080942 -0.002640 0.339868 -0.940469
0.834248 0.073830 0.362497 0.140129 -0.046982 0.989018
0.372529 0.081827 0.056457 -0.010572 -0.118416 -0.992908
0.860816 0.075782 0.046721 -0.048536 -0.328720 -0.943180
0.311435 0.322401 0.184439 -0.021908 0.999325 -0.029502
0.616251 0.230157 0.336708 0.015932 0.346260 0.938003
0.713897 0.227062 0.174965 0.437473 0.899197 -0.007919
0.927756 0.198008 0.129034 0.323254 0.945405 -0.041438
0.498379 0.319782 0.268136 0.011686 0.995015 0.099035
0.972635 0.103110 0.167727 0.967658 -0.249294 -0.038622
0.780653 0.104694 0.042432 0.001379 0.128514 -0.991707
0.732850 0.074555 0.095186 0.122010 -0.121311 -0.985087
0.822879 0.215548 0.196873 0.116925 0.993140 -0.001056
0.834568 0.062037 0.045569 0.852131 -0.497093 -0.163617
0.732164 0.073997 0.039586 -0.102297 -0.030443 -0.994288
0.714995 0.198041 0.347550 0.005834 0.417325 0.908739
0.273495 0.133135 0.066265 0.578959 0.813533 -0.054502
0.451979 0.320696 0.144452 0.003979 0.996190 -0.087120
0.441743 0.130623 0.046583 0.005479 -0.099824 -0.994990
0.706324 0.232079 0.204205 0.346764 0.937952 0.000878
0.872244 0.209378 0.196738 0.141033 0.990004 -0.000955
0.038783 0.174487 0.162016 -0.986553 0.138860 0.086202
0.807837 0.217089 0.168766 0.109948 0.993907 -0.007713
0.606565 0.298040 0.135434 0.501643 0.860750 -0.086395
0.370671 0.317434 0.299907 -0.002625 0.985673 0.168645
0.642814 0.275712 0.245140 0.475742 0.878965 0.033008
0.916540 0.177651 0.056124 0.188907 0.152644 -0.970059
0.547009 0.298456 0.309261 0.043384 0.450444 0.891750
0.170845 0.107019 0.324665 0.668131 -0.320454 0.671498
0.283897 0.055470 0.362494 0.122924 -0.080675 0.989132
0.739618 0.110026 0.363441 0.028590 -0.001332 0.999590
0.622562 0.132878 0.356429 -0.006864 -0.096518 0.995308
0.949823 0.140782 0.056555 0.482646 0.739053 -0.469951
0.164493 0.074416 0.064005 0.867817 -0.176953 -0.464308
0.838914 0.109785 0.351169 0.944668 0.301055 0.130261
0.547176 0.195997 0.347906 0.001535 0.434124 0.900852
0.185953 0.157099 0.048991 -0.005263 0.088394 -0.996072
0.839555 0.140161 0.319776 -0.407642 -0.271315 0.871904
0.533942 0.320768 0.248626 0.046694 0.996833 0.064369
0.536428 0.277482 0.317773 0.024277 0.402870 0.914935
0.658367 0.185854 0.352474 -0.002303 0.229548 0.973295
0.855805 0.101604 0.095125 -0.402612 -0.136587 -0.905123
0.551539 0.132101 0.356423 -0.002086 -0.098679 0.995117
0.066608 0.181926 0.349529 -0.030604 0.227578 0.973279
0.246016 0.140350 0.292049 -0.109778 -0.823101 0.557184
0.743480 0.129535 0.095186 0.341380 -0.317135 -0.884808
0.430605 0.300346 0.093265 0.005959 0.406007 -0.913850
0.692293 0.096012 0.347049 -0.159122 -0.144005 0.976700
0.101267 0.232398 0.305168 -0.401666 0.914935 0.039477
0.405058 0.225283 0.068159 -0.014395 0.267355 -0.963490
0.181459 0.125502 0.310077 0.578561 -0.473094 0.664416
0.273427 0.135599 0.292050 -0.345063 -0.729203 0.590927
0.639357 0.278641 0.225527 0.498054 0.866990 0.016445
0.855515 0.211729 0.214829 0.129612 0.991561 0.002811
0.529461 0.322200 0.217236 0.049365 0.998579 0.020064
0.245506 0.151323 0.099887 -0.169174 -0.952137 -0.254588
0.968355 0.136606 0.304093 0.660476 0.745692 0.087830
0.841828 0.212201 0.086257 0.109126 0.989034 -0.099513
0.049112 0.171536 0.192831 -0.987252 0.147001 0.061023
0.586365 0.212329 0.062259 -0.008952 0.343839 -0.938986
0.585753 0.129058 0.355740 -0.005903 -0.124586 0.992191
0.182289 0.061712 0.329359 -0.904177 -0.426585 0.022113
0.473167 0.322946 0.221839 0.010481 0.999550 0.028102
0.146100 0.235704 0.310070 -0.400803 0.914670 0.052304
0.359084 0.232783 0.069408 -0.000983 0.306518 -0.951864
0.627843 0.191107 0.351185 -0.002508 0.356344 0.934351
