0.257194 0.083249 0.348925 0.031190 0.763678 0.644844
0.062906 0.201950 0.137034 0.084450 0.992304 -0.090557
0.063694 0.113319 0.323038 0.180455 0.446598 0.876348
0.211396 0.100173 0.409451 0.317398 0.940663 0.120049
0.122008 0.070837 0.748723 -0.115216 -0.993262 0.012485
0.150114 0.070880 0.749547 -0.099437 -0.995036 0.003891
0.265188 0.067819 0.575548 0.044049 -0.999016 -0.005247
0.333273 0.173653 0.463371 -0.995796 0.073646 0.054475
0.027034 0.148642 0.294391 -0.868582 -0.494385 0.033886
0.186959 0.168988 0.497491 0.114018 0.254295 0.960382
0.175828 0.237937 0.681304 -0.032710 0.674474 0.737573
0.066532 0.117565 0.454720 0.835601 0.467196 0.288963
0.092317 0.147135 0.502843 -0.064341 0.260425 0.963348
0.363757 0.187361 0.668588 0.954535 0.298098 -0.000295
0.189753 0.100626 0.400968 -0.223108 0.951809 0.210436
0.072522 0.157463 0.356078 -0.209672 0.170978 0.962707
0.306036 0.111952 0.063940 -0.025446 0.168143 0.985434
0.070784 0.079250 0.623103 0.589543 0.807689 -0.008828
0.073259 0.083186 0.771280 0.973401 0.007948 0.228970
0.093692 0.068516 0.471372 -0.053622 -0.998511 -0.010062
0.104892 0.075778 0.842314 -0.199854 -0.979496 -0.025413
0.067311 0.029081 0.288508 0.321538 -0.906172 0.274709
0.196787 0.071548 0.762199 -0.011809 -0.999620 0.024902
0.036506 0.097081 0.081839 -0.980037 -0.187764 0.065356
0.295449 0.079250 0.414761 -0.346464 0.933190 0.095497
0.198293 0.139542 0.327289 -0.000054 0.540270 0.841492
0.044681 0.082513 0.754308 -0.792038 -0.069328 -0.606523
0.333243 0.180082 0.334033 -0.958288 0.248572 0.141053
0.044268 0.097636 0.090767 -0.405285 -0.698171 -0.590170
0.351891 0.081555 0.048286 0.271560 -0.955458 -0.115564
0.230532 0.208254 0.126764 0.024519 0.989726 -0.140858
0.136160 0.071589 0.302075 -0.034896 -0.996900 -0.070514
0.184896 0.209193 0.887976 -0.004001 0.994434 0.105287
0.301592 0.183703 0.084133 0.051765 0.429003 -0.901819
0.078110 0.158487 0.318454 0.846597 0.354560 0.396940
0.116615 0.278842 0.638563 0.168389 -0.598534 -0.783200
0.319519 0.087953 0.430617 0.820162 -0.409604 0.399449
0.369781 0.160571 0.296110 0.982290 0.184293 -0.033801
0.180739 0.096311 0.440753 -0.635547 0.771770 -0.021222
0.043659 0.094277 0.286990 -0.996547 -0.057007 -0.060361
0.344574 0.038362 0.845811 0.186638 -0.783557 0.592626
0.286476 0.070510 0.323076 0.097521 -0.993884 -0.051817
0.367465 0.180458 0.302174 0.932636 0.360462 -0.016051
0.225470 0.100731 0.520599 0.660036 0.749795 -0.046472
0.290931 0.079250 0.443608 -0.451403 0.885535 0.109832
0.029529 0.115893 0.678248 -0.999677 -0.022848 -0.011104
0.196528 0.067938 0.557795 -0.002298 -0.999981 -0.005715
0.064058 0.040078 0.770426 0.194823 -0.737640 -0.646476
0.085515 0.196133 0.922048 0.599274 0.751944 0.274683
0.259110 0.070199 0.329129 0.071163 -0.996469 -0.044562
0.362117 0.177779 0.925488 0.990427 0.071309 0.118193
0.304647 0.124336 0.946926 -0.779238 -0.082410 0.621286
0.198493 0.284621 0.636330 -0.995239 0.086513 -0.044877
0.036819 0.128502 0.936058 -0.093155 0.995572 0.012610
0.114786 0.190060 0.464620 0.002532 -0.287418 -0.957802
0.294562 0.104261 0.073789 0.047172 -0.355220 -0.933592
0.029503 0.149581 0.728160 -0.999435 0.029375 -0.016318
0.201379 0.226455 0.266738 -0.023064 0.999234 -0.031613
0.028428 0.150658 0.360832 -0.997062 -0.076361 0.005972
0.174459 0.088119 0.394933 -0.509706 0.808338 0.294601
0.333196 0.096616 0.589618 -0.870882 0.491407 -0.009127
0.192966 0.074097 0.253284 -0.005670 -0.999263 -0.037977
0.126753 0.069685 0.726903 -0.094894 -0.995264 0.021085
0.214173 0.107439 0.629840 0.297315 0.954625 -0.017161
0.350129 0.067559 0.614486 0.127779 -0.991803 -0.000246
0.118084 0.148698 0.324031 -0.015131 0.420339 0.907241
0.103128 0.146035 0.950945 -0.048003 -0.664021 0.746172
0.244114 0.255016 0.662628 -0.062919 -0.587210 -0.806985
0.085529 0.110195 0.884879 -0.615484 -0.683259 -0.392857
0.220924 0.253033 0.668122 0.031869 0.651492 0.757986
0.282257 0.072837 0.277803 0.147726 -0.987905 -0.047129
0.263522 0.149673 0.359856 0.021158 0.182068 0.983058
0.041970 0.199772 0.144066 -0.884034 0.466235 -0.033300
0.100785 0.095502 0.759307 -0.765275 -0.584037 0.270655
0.365593 0.077489 0.592142 0.933838 0.355823 0.036564
0.164532 0.217392 0.669859 -0.022847 0.994074 -0.106275
0.118246 0.135773 0.396019 -0.030958 0.991554 -0.125946
0.216686 0.141000 0.324815 -0.003207 -0.573683 -0.819071
0.041566 0.085406 0.921970 -0.782241 -0.599610 0.169017
0.036499 0.146044 0.101221 -0.979704 0.079918 -0.183831
0.284167 0.105937 0.559119 0.019461 -0.999003 0.040176
0.295188 0.205344 0.651168 -0.074827 -0.631505 -0.771752
0.318120 0.079250 0.442510 -0.736493 0.665348 0.122022
0.199015 0.126472 0.566396 0.993499 -0.106819 0.039353
0.326322 0.073719 0.340222 0.537804 -0.583730 -0.608298
0.037448 0.128214 0.922056 0.091264 0.954586 -0.283612
0.351369 0.155828 0.941445 0.035956 -0.371052 0.927916
0.283890 0.068046 0.541616 0.048952 -0.998782 -0.006261
0.297171 0.284698 0.611752 0.166852 0.985858 -0.015660
0.166559 0.193650 0.314190 -0.002250 0.176116 0.984367
0.245389 0.117747 0.444975 0.032649 -0.284524 0.958113
0.344581 0.209177 0.570805 0.207375 0.977327 -0.042759
0.186852 0.149230 0.951541 0.040881 -0.343564 -0.938239
0.200840 0.067178 0.679431 -0.012486 -0.999665 0.022661
0.051839 0.207554 0.349406 -0.191478 0.981397 0.013979
0.079684 0.067605 0.607622 -0.081898 -0.996640 -0.001447
0.214232 0.192966 0.351731 0.009898 0.311821 0.950089
0.029863 0.148292 0.638289 -0.999967 -0.006973 0.004263
0.100785 0.073666 0.290463 -0.478702 -0.824768 -0.301002
0.239615 0.069610 0.340579 0.044023 -0.998233 -0.039907
0.197684 0.078020 0.176980 -0.012388 -0.999153 -0.039228
0.222062 0.091272 0.400581 0.523023 0.824443 0.216194
0.256418 0.075380 0.227737 0.184145 -0.982234 -0.036155
0.237103 0.123531 0.724404 0.390413 0.448089 -0.804235
0.294087 0.211073 0.746211 0.093276 0.994992 0.035924
0.325060 0.081385 0.451349 -0.604699 0.412629 0.681231
0.209187 0.067639 0.602461 0.007360 -0.999970 -0.002361
0.029538 0.150141 0.749005 -0.999265 0.032306 -0.020649
0.193275 0.266014 0.657958 -0.001242 0.632528 0.774536
0.207458 0.169748 0.687263 0.004875 -0.965916 -0.258810
0.078081 0.128971 0.408412 -0.985177 0.166232 -0.042348
0.160956 0.087530 0.090391 -0.023768 -0.825262 -0.564250
0.139952 0.286609 0.632389 -0.043963 0.985807 0.162027
0.337257 0.042855 0.851664 -0.099040 -0.701440 0.705813
0.077484 0.079250 0.649112 0.566745 0.822805 -0.042347
0.199931 0.131055 0.562441 -0.992608 0.120947 -0.010094
0.065681 0.132180 0.546798 0.947558 0.319582 0.001162
0.235400 0.077233 0.176922 0.121561 -0.991995 -0.034178
0.102108 0.118130 0.946270 0.377029 -0.015225 -0.926076
0.029772 0.156515 0.609344 -0.998607 -0.051857 0.009739
0.333159 0.091961 0.649885 -0.846738 0.507540 -0.159493
0.369978 0.168321 0.657293 0.911129 0.412065 0.006820
0.289787 0.211812 0.737321 0.089337 0.995324 0.036738
0.121703 0.113262 0.481029 0.002639 -0.736165 -0.676796
0.221235 0.142792 0.940690 0.108796 0.000000 0.994064
0.089611 0.079250 0.453870 0.505619 0.606766 0.613339
0.043660 0.066752 0.805081 -0.983952 0.177329 0.019829
0.305209 0.222894 0.673605 -0.393804 -0.413967 -0.820701
0.211212 0.107873 0.574682 0.193684 0.981028 -0.008388
0.187064 0.067604 0.607663 -0.005896 -0.999983 -0.000350
0.143740 0.189127 0.464880 -0.002057 -0.305813 -0.952089
0.088168 0.067532 0.618425 -0.067812 -0.997694 0.002948
0.140394 0.072042 0.771548 -0.122827 -0.992422 -0.003367
0.282274 0.191292 0.350755 0.034937 0.301133 0.952942
0.177487 0.140953 0.474924 -0.001705 -0.628117 -0.778117
0.364185 0.121712 0.744933 0.343804 -0.701151 0.624649
0.134614 0.212772 0.800160 0.099479 0.994775 0.022938
0.203083 0.217610 0.295489 -0.001366 0.970586 0.240752
0.210044 0.254137 0.667853 0.017439 0.651013 0.758866
0.065695 0.203254 0.567697 0.987207 0.158847 -0.013820
0.371250 0.124011 0.492435 0.999910 -0.012866 0.003881
0.309427 0.106444 0.578732 0.122194 -0.946065 0.300049
0.038672 0.126281 0.946997 -0.291705 0.839053 0.459236
0.259000 0.079250 0.385178 -0.000603 0.925815 0.377977
0.048552 0.050343 0.222587 -0.406704 -0.560205 -0.721638
0.040615 0.069136 0.378824 -0.078288 -0.993773 -0.079286
0.142830 0.216130 0.642900 -0.027254 0.843745 -0.536051
0.257829 0.211047 0.483053 -0.004661 0.535926 0.844252
0.249459 0.071539 0.303044 0.094989 -0.994680 -0.039851
0.191679 0.110945 0.070073 -0.002411 -0.130151 -0.991491
0.373081 0.155505 0.348548 0.976808 -0.213764 0.012276
0.065736 0.172909 0.627592 0.979603 -0.147331 -0.136647
0.027848 0.139770 0.380449 -0.999989 -0.001297 0.004545
0.042352 0.042560 0.291070 -0.996879 -0.054170 0.057420
0.353968 0.206096 0.690228 0.643251 0.765653 -0.002065
0.065633 0.088622 0.467445 0.800381 0.588286 0.115366
0.162743 0.212641 0.830391 -0.020648 0.998627 0.048153
0.363820 0.113729 0.113626 0.984041 -0.144852 -0.103353
0.076137 0.218646 0.272574 -0.342904 0.901421 -0.264306
0.118939 0.068202 0.518377 -0.047898 -0.998827 -0.007106
0.046376 0.035926 0.300012 -0.557097 -0.694102 0.455922
0.139061 0.079250 0.641987 0.024081 0.999535 -0.018688
0.105362 0.169667 0.687653 0.176744 -0.931018 -0.319324
0.046201 0.031043 0.827663 -0.583996 -0.756954 0.293205
0.370062 0.116773 0.617969 0.999938 -0.009709 0.005432
0.078102 0.152643 0.372223 0.980583 0.191753 0.041075
0.359354 0.090029 0.262783 0.979401 0.114554 -0.166285
0.242182 0.148643 0.473490 0.003405 -0.516704 -0.856157
0.107203 0.068056 0.540094 -0.060321 -0.998156 -0.006752
0.346466 0.084528 0.059651 0.294869 -0.093567 -0.950946
0.038752 0.127595 0.905998 0.317336 0.825048 -0.467540
0.346701 0.055134 0.860355 0.270032 -0.504368 0.820180
0.217433 0.152912 0.501630 -0.058813 0.258725 0.964159
0.206676 0.214768 0.466942 -0.293191 0.857173 -0.423431
0.343824 0.142726 0.063794 -0.282713 -0.282316 -0.916718
0.225605 0.113719 0.444990 0.021342 -0.343499 0.938911
0.236459 0.120589 0.946770 0.030449 -0.999527 -0.004422
0.327491 0.137228 0.297523 -0.498812 0.777317 0.383359
0.055435 0.146719 0.927319 -0.141080 0.029721 0.989552
0.043223 0.035296 0.283549 -0.931399 -0.345557 0.114393
0.313697 0.220406 0.670367 -0.507510 -0.387462 -0.769615
0.359409 0.199329 0.623892 0.845484 0.533947 -0.007618
0.054984 0.064453 0.753059 -0.160571 -0.356284 -0.920477
0.141022 0.207422 0.123486 -0.037101 0.988550 -0.146262
0.029254 0.157000 0.545846 -0.998082 -0.061217 0.009199
0.144181 0.172360 0.497828 0.005504 0.270561 0.962687
0.108596 0.144978 0.529807 -0.007702 0.991549 -0.129505
0.284684 0.077419 0.873395 0.273416 -0.961890 0.003323
0.152869 0.225049 0.267547 -0.042376 0.997808 -0.050820
0.228999 0.168776 0.469098 0.004562 -0.458714 -0.888572
0.174365 0.197024 0.655773 -0.000632 0.028217 -0.999602
0.091410 0.260417 0.648909 -0.350057 0.552009 0.756800
0.217110 0.175816 0.942991 0.044142 0.252355 0.966627
0.066692 0.197571 0.318968 -0.994860 -0.006777 -0.101032
0.333280 0.178227 0.429435 -0.996134 0.080118 0.036040
0.065702 0.149859 0.578662 0.979820 0.199807 -0.005425
0.195409 0.166149 0.469014 0.333007 -0.295822 -0.895319
0.355943 0.081062 0.292512 0.963918 -0.116530 0.239336
0.236137 0.074555 0.819154 0.028539 -0.998464 0.047489
0.193176 0.218219 0.707883 -0.016086 0.979654 0.200047
0.138820 0.167773 0.721193 0.062286 -0.623421 -0.779401
0.092754 0.115848 0.271812 -0.092561 -0.992179 0.083744
0.132648 0.202287 0.912262 -0.776667 0.614004 0.140666
0.115097 0.154683 0.358517 -0.031108 0.184170 0.982402
0.072284 0.068220 0.515666 -0.075622 -0.997110 -0.007274
0.359456 0.200200 0.715889 0.810820 0.585294 -0.001697
0.071428 0.093703 0.814235 0.999289 -0.030858 -0.021669
0.356784 0.091726 0.316170 0.999739 -0.017253 -0.015000
0.320824 0.114608 0.386371 0.986966 0.158775 -0.026258
0.333160 0.114643 0.651092 -0.914823 0.357691 -0.187500
0.347050 0.123100 0.077034 -0.014518 -0.867191 0.497765
0.369900 0.124505 0.618877 0.999827 0.017326 0.006784
0.125338 0.173189 0.936791 -0.131432 0.304565 0.943380
0.184989 0.079128 0.909873 -0.028009 -0.999408 0.019961
0.354321 0.205654 0.737116 0.583731 0.811944 0.002297
0.334334 0.241599 0.592945 -0.984348 -0.171907 -0.038828
0.325097 0.212864 0.266745 0.336548 0.912757 -0.231538
0.025569 0.157612 0.372346 -0.979230 -0.202335 0.013023
0.112162 0.094997 0.344411 0.083200 0.724192 0.684561
0.165818 0.136772 0.396731 -0.013450 0.992330 -0.122879
0.364427 0.071948 0.501981 0.887928 -0.459105 -0.028391
0.338519 0.237956 0.617315 0.917245 0.242717 0.315831
0.246235 0.287410 0.609954 0.011792 0.999642 -0.024031
0.114560 0.149387 0.933594 -0.099164 0.411093 0.906184
0.083461 0.154919 0.936685 -0.080516 0.683622 0.725382
0.130851 0.078372 0.106117 -0.073915 -0.935510 -0.345483
0.028832 0.173963 0.309326 -0.998512 -0.050736 -0.019973
0.035167 0.109280 0.034312 -0.967922 0.100836 -0.230129
0.151839 0.210559 0.314246 -0.020972 0.667724 0.744113
0.113632 0.103790 0.441639 -0.058557 -0.503607 0.861946
0.344990 0.029898 0.831330 0.202615 -0.913359 0.353160
0.317388 0.116196 0.938532 -0.583975 0.811162 -0.031452
0.228653 0.221187 0.338381 0.028562 0.769756 0.637699
0.344874 0.028880 0.251284 0.198452 -0.925561 -0.322418
0.059791 0.028078 0.252296 0.026801 -0.954032 -0.298505
0.237866 0.164509 0.499646 -0.015606 0.258009 0.966016
0.369336 0.164899 0.820778 0.900872 -0.433740 0.017278
0.210427 0.162227 0.731542 0.288981 -0.101989 -0.951887
0.107127 0.276786 0.641509 -0.174111 0.582151 0.794220
0.254341 0.285624 0.623879 -0.018813 -0.999600 0.021112
0.060031 0.218697 0.618765 0.596451 0.035245 0.801875
0.329479 0.067370 0.642648 0.101464 -0.994812 0.007339
0.116636 0.118164 0.479943 0.003046 -0.733354 -0.679841
0.321004 0.093717 0.057843 0.070365 -0.019491 -0.997331
0.166573 0.096121 0.061337 0.016730 -0.071177 0.997323
0.176090 0.102876 0.553574 -0.625102 0.780129 -0.025433
0.098250 0.151586 0.566988 -0.032341 0.996461 -0.077582
0.058268 0.107875 0.942209 0.443048 0.075486 -0.893314
0.065776 0.140751 0.701021 0.854219 0.032856 -0.518874
0.027787 0.125841 0.742883 -0.998036 0.048575 -0.039550
0.146075 0.169534 0.691036 0.021011 -0.948273 -0.316761
0.296964 0.079250 0.495409 -0.443874 0.895826 0.021727
0.232482 0.069116 0.381807 0.030385 -0.999016 -0.032299
0.350351 0.076566 0.697843 0.618812 -0.545445 0.565298
0.349073 0.050012 0.813299 0.185638 -0.974182 0.128487
0.334011 0.110938 0.034664 -0.938037 0.285618 -0.196237
0.042201 0.068481 0.476589 -0.080167 -0.996730 -0.010124
0.340915 0.068593 0.459939 0.050950 -0.998648 -0.010335
0.094953 0.221302 0.286115 -0.072858 0.991588 0.106980
0.031649 0.110502 0.175249 -0.995958 -0.069078 -0.057418
0.032315 0.172637 0.671870 -0.939982 0.341222 0.001439
0.326022 0.209838 0.810143 -0.107748 0.993988 0.019443
0.109559 0.154770 0.943382 0.081059 0.345617 -0.934868
0.139647 0.070137 0.330334 -0.029150 -0.997339 -0.066819
0.123561 0.216609 0.250954 -0.051546 0.987961 -0.145863
0.242693 0.159605 0.320193 0.045694 0.414200 0.909038
0.055542 0.208051 0.518268 -0.094656 0.993943 -0.055829
0.153981 0.158629 0.077586 -0.020450 0.124339 -0.992029
0.255932 0.195876 0.590001 0.832461 0.469256 0.294632
0.030280 0.144443 0.781829 -0.117425 -0.959216 0.257132
0.355597 0.122850 0.251430 0.969217 -0.213669 0.122326
0.208748 0.122521 0.333437 -0.000398 -0.668771 -0.743468
0.247357 0.212496 0.824682 -0.008247 0.999272 0.037247
0.306051 0.204474 0.344679 0.065309 0.403814 0.912507
0.066925 0.166224 0.360721 0.928006 0.371478 0.028451
0.190470 0.140716 0.361741 -0.003760 0.193720 0.981050
0.088237 0.113038 0.251840 -0.123963 -0.979358 0.159656
0.177218 0.250711 0.670476 -0.026023 0.655680 0.754591
0.248314 0.162929 0.500195 -0.008334 0.257931 0.966128
0.050997 0.141729 0.250938 -0.316561 0.891876 -0.323027
0.109216 0.067475 0.626959 -0.045863 -0.998926 0.006620
0.111441 0.147067 0.952748 -0.067863 -0.557749 0.827231
0.188606 0.107996 0.574473 -0.257131 0.966352 -0.006881
0.121739 0.213431 0.727076 -0.133677 0.990305 0.037764
0.216491 0.168394 0.713646 0.039722 -0.931676 -0.361112
0.036875 0.093095 0.114404 -0.977810 -0.176671 -0.112583
0.369952 0.155364 0.428719 0.997686 -0.067305 0.009631
0.074459 0.138283 0.263013 0.887697 0.459043 -0.035687
0.368500 0.139004 0.682290 0.999984 -0.004756 -0.003101
0.269551 0.159140 0.942260 0.123718 0.599596 0.790682
0.355203 0.143345 0.778591 0.231423 -0.907756 0.349889
0.201085 0.128024 0.535471 -0.992747 0.115757 -0.032466
0.159362 0.110444 0.583098 0.033560 -0.889276 0.456137
0.143374 0.068111 0.531883 -0.035785 -0.999337 -0.006732
0.160590 0.200518 0.487690 0.019309 0.422699 0.906064
0.059256 0.108623 0.865071 0.006167 0.381408 0.924386
0.306773 0.182305 0.655726 -0.188016 -0.856895 -0.479980
0.147149 0.079252 0.392726 -0.145370 0.925038 0.350959
0.356583 0.099191 0.799871 0.937495 0.282949 -0.202592
0.194461 0.149292 0.557025 0.535190 0.839461 -0.094222
0.298854 0.102648 0.051800 0.036208 -0.598179 -0.800544
0.076313 0.102633 0.726032 -0.711364 -0.536792 0.453670
0.369407 0.100827 0.399888 0.988485 -0.150834 0.012140
0.100785 0.092907 0.208049 -0.774032 -0.632873 0.018598
0.111184 0.067493 0.624313 -0.046268 -0.998913 0.005601
0.243169 0.212561 0.829038 -0.005777 0.999083 0.042431
0.065663 0.099309 0.519267 0.847066 0.531480 0.002848
0.239713 0.132516 0.073682 0.016097 0.068429 -0.997526
0.107160 0.193858 0.654116 0.086422 -0.034853 -0.995649
0.333279 0.181533 0.441065 -0.997899 0.058313 0.028234
0.265796 0.275304 0.643886 -0.094948 -0.622301 -0.776998
0.183441 0.215241 0.762105 -0.011741 0.999407 0.032365
0.310702 0.198988 0.462625 0.000881 -0.139615 -0.990205
0.267910 0.152149 0.575944 0.001605 0.999840 0.017809
0.170310 0.075322 0.833683 -0.073360 -0.997284 0.006531
0.059786 0.140017 0.770710 -0.267652 -0.868184 0.417874
0.076779 0.181190 0.474004 -0.997061 -0.025563 -0.072221
0.070539 0.225426 0.649584 0.840689 -0.249191 -0.480777
0.078887 0.165373 0.469106 -0.356430 -0.457051 -0.814900
0.066974 0.115421 0.266289 -0.127955 -0.986985 0.097407
0.175902 0.132736 0.371598 -0.011701 0.998728 -0.049037
0.349820 0.056970 0.807979 0.993674 -0.107957 0.030936
0.349879 0.205237 0.065353 0.869042 0.493784 -0.030715
0.287249 0.107893 0.073414 0.046163 -0.231414 -0.971760
0.065451 0.217895 0.288212 -0.394727 0.917455 -0.049662
0.068247 0.079250 0.548903 0.745640 0.666348 0.001086
0.065252 0.081432 0.749694 0.241885 -0.052006 -0.968910
0.271101 0.117738 0.061542 -0.022691 0.510502 0.859577
0.140440 0.161092 0.731567 0.012938 -0.370562 -0.928718
0.371768 0.131744 0.757906 0.235501 -0.779259 0.580771
0.033448 0.098003 0.161225 -0.994339 -0.079138 -0.070906
0.327483 0.104167 0.281182 -0.996396 -0.075318 -0.039022
0.055618 0.211937 0.322883 -0.790182 0.611919 -0.034177
0.136115 0.070975 0.751350 -0.109085 -0.994007 0.007159
0.092383 0.207416 0.812864 -0.052418 0.997620 0.044800
0.028641 0.127045 0.245857 -0.997180 0.060025 -0.045056
0.045689 0.081515 0.841062 -0.807032 0.093284 -0.583093
0.031808 0.128263 0.170792 -0.993127 -0.107248 -0.046870
0.191049 0.095098 0.346233 0.002742 -0.758070 -0.652167
0.197272 0.073817 0.258740 -0.002296 -0.999384 -0.035008
0.304028 0.128813 0.872918 0.854262 -0.425905 -0.298061
0.033289 0.181811 0.592529 -0.944443 0.328669 0.001851
0.365169 0.119964 0.136913 0.989502 -0.126587 -0.069729
0.291164 0.181263 0.656517 -0.068430 -0.859836 -0.505965
0.065744 0.102409 0.630703 0.776900 0.628017 -0.044957
0.270661 0.078272 0.166219 0.227740 -0.972980 -0.038010
0.275103 0.159977 0.705447 0.364494 -0.893499 -0.262303
0.133366 0.099932 0.708364 0.077954 0.741625 -0.666270
0.042704 0.066733 0.260226 -0.993625 -0.111970 0.013098
0.353648 0.088328 0.165993 0.156191 -0.938995 0.306420
0.327489 0.102331 0.242194 -0.991830 -0.059474 0.112855
0.236498 0.088899 0.346801 0.110520 0.732694 0.671525
0.065651 0.119619 0.499660 0.916859 0.398134 0.029316
0.144935 0.207446 0.123052 -0.034304 0.988495 -0.147309
0.035255 0.069692 0.570540 -0.850687 -0.525592 0.009206
0.030685 0.163623 0.686771 -0.999736 -0.022850 -0.002535
0.331484 0.246681 0.634913 0.825847 0.304558 0.474574
0.369661 0.126098 0.626422 0.999762 0.021149 0.005406
0.038059 0.135804 0.066923 -0.886538 0.424337 0.184361
0.216363 0.215729 0.235264 0.016164 0.996333 -0.084018
0.124438 0.079250 0.351382 0.037884 0.757408 0.651842
0.169948 0.138744 0.325741 0.005164 -0.531609 -0.846974
0.071422 0.106728 0.273773 0.996446 -0.082115 -0.018792
0.137154 0.094496 0.936258 -0.108134 -0.104558 0.988623
0.298120 0.138879 0.771396 0.507844 -0.810312 0.292386
0.042686 0.149012 0.809343 -0.179382 -0.983568 0.020394
0.320846 0.128541 0.476800 0.451337 -0.459834 -0.764753
0.255255 0.079487 0.377451 0.005040 -0.946978 -0.321258
0.065678 0.107779 0.542002 0.876208 0.481931 0.001430
0.320866 0.078115 0.339014 0.746331 -0.213266 -0.630482
0.356605 0.056958 0.308156 0.998094 -0.054195 0.029510
0.052059 0.205953 0.491140 -0.199961 0.978076 -0.058169
0.238220 0.080436 0.953181 0.011205 -0.646113 0.763159
0.266775 0.106792 0.935709 0.108725 0.000000 0.994072
0.072913 0.079250 0.665809 0.615629 0.785077 -0.068229
0.070426 0.133911 0.453782 0.565932 0.281382 0.774948
0.225677 0.086479 0.373767 0.360885 0.824814 0.435252
0.365894 0.123733 0.090754 0.959969 -0.276515 -0.044719
0.152565 0.111679 0.444275 -0.028561 -0.412272 0.910613
0.320754 0.172306 0.307472 0.108791 -0.187388 -0.976243
0.076184 0.126679 0.343577 -0.987732 -0.151912 -0.036165
0.158317 0.203948 0.306800 -0.004844 -0.041986 -0.999106
0.043424 0.066748 0.814115 -0.987456 0.151772 -0.043536
0.072925 0.264202 0.631165 -0.722818 0.363754 0.587552
0.303016 0.141143 0.515600 0.031120 0.997172 -0.068411
0.316303 0.085824 0.160646 0.161623 -0.961692 0.221420
0.319675 0.068811 0.427368 0.043974 -0.998521 -0.031979
0.333231 0.151179 0.534372 -0.984640 0.174591 0.001416
0.151915 0.216937 0.676347 -0.021395 0.983791 -0.178036
0.177397 0.167464 0.317173 -0.064564 0.394390 0.916672
0.043166 0.204050 0.669950 -0.716534 0.697549 -0.002137
0.028116 0.119310 0.241145 -0.990453 0.126562 -0.054639
0.232390 0.217409 0.668338 -0.097525 0.995200 0.008082
0.029478 0.130397 0.230016 -0.999176 0.006646 -0.040038
0.099535 0.185555 0.649257 0.024295 -0.610056 -0.791985
0.279112 0.079250 0.597342 -0.251855 0.967730 -0.008212
0.254913 0.106829 0.047917 0.027123 -0.029164 -0.999207
0.314198 0.218973 0.671008 -0.516793 -0.383181 -0.765570
0.353773 0.082611 0.047309 0.398948 -0.774492 -0.490921
0.116123 0.130814 0.444397 -0.078698 0.041265 0.996044
0.168810 0.070236 0.737351 -0.078648 -0.996894 0.004017
0.253434 0.125392 0.073202 0.025023 0.042773 -0.998771
0.075636 0.210259 0.742650 0.072862 0.997280 0.011098
0.033569 0.120712 0.143416 -0.988730 -0.134999 -0.064716
0.224807 0.068102 0.533215 0.014666 -0.999872 -0.006469
0.095485 0.129469 0.477338 0.007597 -0.726710 -0.686902
0.161656 0.210178 0.306699 -0.006021 0.028825 -0.999566
0.313437 0.179002 0.938876 -0.981095 -0.106371 0.161671
0.078099 0.161672 0.391857 0.984838 0.172004 0.022548
0.324428 0.076216 0.309347 -0.957115 0.069747 -0.281188
0.182249 0.205170 0.461603 0.001107 -0.014068 -0.999900
0.319663 0.212624 0.650959 0.054498 0.996682 -0.060449
0.253988 0.215040 0.230972 0.038663 0.995498 -0.086544
0.351921 0.136756 0.241097 0.465008 0.780774 -0.417324
0.202513 0.068730 0.439452 0.004611 -0.999886 -0.014377
0.370890 0.106859 0.335233 0.994468 -0.095000 0.044815
0.231094 0.217416 0.655766 -0.166576 0.983509 -0.070449
0.143478 0.131024 0.074074 -0.028513 0.067567 -0.997307
0.232914 0.217378 0.664463 -0.116071 0.993225 -0.005630
0.038073 0.196351 0.646409 -0.886169 0.463359 -0.001519
0.105794 0.214152 0.652701 -0.024744 0.985417 -0.168346
0.264740 0.079867 0.440324 0.025416 -0.890480 0.454312
0.290683 0.283719 0.614615 -0.059707 -0.997939 0.023509
0.047304 0.080558 0.296207 -0.843910 -0.193829 0.500245
0.303117 0.106351 0.063796 -0.032672 0.098756 0.994575
0.041229 0.165090 0.071258 -0.983065 -0.007575 -0.183102
0.076774 0.152283 0.447146 0.901817 0.206017 0.379846
0.101504 0.068171 0.523019 -0.058325 -0.998274 -0.006890
0.361614 0.195183 0.779145 0.927573 0.373619 0.004168
0.079284 0.244405 0.648967 0.623228 -0.408988 -0.666570
0.365926 0.181209 0.251445 0.944192 0.328395 -0.025667
0.102474 0.207580 0.829783 -0.158636 0.986069 0.050021
0.303382 0.138462 0.862783 0.605146 -0.656484 -0.450364
0.070017 0.147491 0.796980 -0.050962 -0.989722 0.133619
0.091844 0.104212 0.486090 0.005454 -0.846357 -0.532588
0.033619 0.154862 0.892345 -0.996119 -0.009821 0.087463
0.053629 0.069230 0.364848 -0.072572 -0.993546 -0.087174
0.324027 0.047297 0.287229 -0.974486 0.209443 -0.080693
0.363563 0.189819 0.734094 0.950031 0.312155 0.000140
0.258185 0.078373 0.124477 0.041085 -0.975371 -0.216709
0.188066 0.185068 0.941715 -0.031276 0.237365 0.970917
0.154765 0.068887 0.416042 -0.017464 -0.999690 -0.017732
0.153316 0.068482 0.476465 -0.025981 -0.999620 -0.009221
0.075248 0.057825 0.851649 0.962566 -0.165623 0.214558
0.333260 0.181272 0.486680 -0.999028 0.044059 0.001018
0.298120 0.120476 0.866811 0.901903 -0.403258 -0.154774
0.199110 0.140686 0.324961 0.000277 -0.550994 -0.834509
0.045429 0.048510 0.851434 -0.696429 -0.446579 0.561742
0.362824 0.191172 0.848399 0.964195 0.264803 0.014407
0.202339 0.131332 0.954056 0.002655 0.749686 0.661788
0.033140 0.111255 0.927919 -0.901953 -0.411437 0.131150
0.214442 0.076662 0.182183 0.058012 -0.997812 -0.031727
0.135430 0.287089 0.606928 -0.031609 0.999061 -0.029621
0.273705 0.223701 0.317214 0.057993 0.998202 -0.015135
0.309541 0.084091 0.057593 0.072167 -0.334259 -0.939714
0.113051 0.168501 0.704500 0.236268 -0.880703 -0.410535
0.055125 0.081388 0.063010 -0.694590 -0.659133 0.288249
0.320804 0.141703 0.360859 -0.983953 0.173197 0.042880
0.248762 0.168003 0.718907 -0.002140 -0.747377 -0.664397
0.112872 0.074227 0.812929 -0.171961 -0.985000 -0.014300
0.333110 0.081832 0.679459 -0.360918 0.905853 -0.221738
0.180702 0.214588 0.785797 -0.015636 0.999223 0.036189
0.364796 0.184278 0.465780 0.433122 -0.859762 0.270582
0.073518 0.064672 0.302551 0.970184 0.132823 -0.202735
0.298120 0.086657 0.756442 0.654519 -0.665780 0.358248
0.169321 0.089395 0.061273 0.012534 -0.156411 0.987613
0.366161 0.111837 0.879113 -0.342062 -0.403941 -0.848425
0.298120 0.079930 0.222712 0.588746 -0.766784 -0.255776
0.050320 0.151244 0.934542 -0.357226 -0.056673 0.932297
0.266357 0.171563 0.698230 -0.955575 0.264040 0.130995
0.154595 0.217029 0.314236 -0.023477 0.923073 0.383908
0.046926 0.121223 0.762405 -0.473667 0.515818 -0.713843
0.284241 0.284309 0.614972 -0.068775 -0.997485 0.017134
0.173752 0.199562 0.349168 -0.014626 0.342758 0.939310
0.282343 0.182164 0.466293 -0.003468 -0.322908 -0.946424
0.163844 0.212707 0.178295 -0.029872 0.996995 -0.071471
0.254056 0.208766 0.461141 -0.004632 0.014831 -0.999879
0.363203 0.190560 0.247349 0.937939 0.346288 -0.018844
0.220036 0.220611 0.699361 0.024706 0.847985 0.529444
0.327152 0.177861 0.307263 0.561323 -0.114739 -0.819605
0.081736 0.067693 0.594437 -0.088835 -0.996027 -0.006172
0.162433 0.072586 0.282681 -0.020980 -0.998249 -0.055303
0.333279 0.162120 0.445864 -0.976800 0.189283 0.100169
0.065301 0.221113 0.634890 0.959976 -0.177567 -0.216602
0.111559 0.068625 0.706833 -0.087639 -0.995549 0.034660
0.203189 0.101411 0.394774 0.114700 0.959121 0.258710
0.325606 0.125818 0.750243 0.548562 -0.690563 0.471384
0.109548 0.209866 0.797117 -0.179159 0.983143 0.036494
0.163345 0.073787 0.804612 -0.094512 -0.995523 -0.001372
0.328668 0.078374 0.127510 0.154857 -0.987726 -0.020404
0.206232 0.208536 0.896078 0.007083 0.992828 0.119345
0.190062 0.086241 0.053955 -0.002620 -0.188605 -0.982050
0.119707 0.067995 0.549311 -0.056239 -0.998395 -0.006733
0.325925 0.049892 0.852047 -0.727684 -0.406097 0.552776
0.366574 0.149084 0.166851 0.982019 0.176399 -0.067251
0.140845 0.217346 0.310029 -0.028682 0.936656 0.349075
0.320604 0.230736 0.661500 0.564278 0.519057 0.642005
0.208070 0.173330 0.945213 0.007170 0.871995 -0.489462
0.285495 0.067698 0.593688 0.074867 -0.997181 -0.004899
0.128980 0.161086 0.357972 -0.023094 0.176143 0.984094
0.339755 0.178153 0.055651 -0.955742 0.051592 -0.289648
0.066676 0.162978 0.327338 -0.957932 -0.276404 -0.077244
0.047331 0.144216 0.781159 -0.160827 -0.948432 0.273151
0.112726 0.081459 0.351781 0.010316 -0.860366 -0.509572
0.247050 0.226240 0.654346 -0.009141 0.903318 0.428875
0.192920 0.067738 0.587728 -0.005076 -0.999975 -0.004830
0.229952 0.105846 0.555288 -0.010834 -0.986938 0.160737
0.188209 0.067156 0.674662 -0.016312 -0.999647 0.020983
0.333245 0.188285 0.340385 -0.987629 0.128034 0.090534
0.333272 0.092577 0.466451 -0.809469 0.576793 0.109863
0.215270 0.144798 0.718731 0.348634 0.576783 -0.738766
0.139533 0.079251 0.477342 0.002020 0.999414 0.034180
0.183526 0.080188 0.940719 -0.030626 -0.999482 0.009884
0.148685 0.111884 0.051396 -0.017732 0.724174 -0.689389
0.246513 0.204416 0.461889 -0.005528 -0.081945 -0.996621
0.298120 0.089276 0.267470 0.680227 -0.603239 -0.416406
0.167579 0.079743 0.459053 -0.419368 0.906270 -0.052968
0.052227 0.035856 0.842398 -0.268422 -0.793246 0.546544
0.260180 0.218978 0.468658 -0.002605 0.977108 -0.212730
0.208265 0.214116 0.803828 0.004503 0.999258 0.038246
0.370755 0.143901 0.433446 0.999170 -0.040099 0.007208
0.052431 0.067380 0.681804 -0.153489 -0.982004 0.110045
0.329556 0.103275 0.454269 -0.586943 0.327697 0.740346
0.204092 0.105800 0.557363 -0.400403 -0.889367 0.220691
0.113958 0.169673 0.687459 0.146615 -0.938573 -0.312386
0.323217 0.046073 0.830682 -0.996480 0.080911 -0.021927
0.093519 0.160028 0.314277 0.023278 -0.438302 -0.898526
0.267065 0.068888 0.711812 0.034515 -0.997779 0.056974
0.320420 0.194536 0.632610 -0.840646 0.398526 -0.366731
0.239688 0.194923 0.306953 -0.004905 -0.155664 -0.987798
0.340431 0.206327 0.414721 -0.003788 0.568758 0.822496
0.140049 0.105660 0.548372 0.005386 -0.997533 -0.069992
0.065659 0.181047 0.370377 0.981272 0.191935 0.016305
0.079637 0.067562 0.613986 -0.077399 -0.997000 0.001071
0.125605 0.197119 0.894767 -0.060389 -0.805588 -0.589390
0.246687 0.211632 0.314245 0.005319 0.758122 0.652091
0.073603 0.068836 0.423576 -0.060133 -0.997792 -0.028201
0.367758 0.157651 0.210665 0.987712 0.147872 -0.050588
0.344208 0.068035 0.543252 0.091430 -0.995791 -0.006338
0.072933 0.116856 0.945299 0.449310 0.082291 -0.889578
0.328660 0.067883 0.686355 0.252238 -0.932758 0.257561
0.060439 0.129047 0.767451 0.051856 0.722955 -0.688947
0.353572 0.198580 0.048388 0.922038 0.374549 -0.097766
0.108910 0.079250 0.614207 0.281664 0.959513 0.000122
0.170059 0.067482 0.625906 -0.014027 -0.999884 0.005895
0.173153 0.215413 0.752051 -0.020402 0.999316 0.030851
0.315574 0.150832 0.572937 0.274816 0.960326 0.047436
0.148537 0.224893 0.315863 -0.045837 0.997720 -0.049536
0.132071 0.148498 0.935702 -0.106866 0.184125 0.977076
0.172022 0.207600 0.900864 -0.022843 0.988516 0.149380
0.123159 0.167735 0.719393 0.177623 -0.701755 -0.689920
0.130358 0.214155 0.777060 0.163389 0.986539 0.006743
0.210623 0.068528 0.469587 0.004529 -0.999946 -0.009375
0.297977 0.132738 0.379540 0.043345 0.990095 -0.133539
0.333156 0.092515 0.652665 -0.837920 0.519509 -0.167332
0.358597 0.103061 0.091130 0.610542 -0.502903 -0.611823
0.136485 0.069480 0.723017 -0.086072 -0.996088 0.020023
0.123947 0.209164 0.643768 0.047551 -0.689991 -0.722254
0.245696 0.202976 0.102853 0.038501 0.953188 -0.299916
0.313996 0.081519 0.946222 0.103564 -0.603052 0.790951
0.215084 0.139864 0.421755 0.008552 0.998274 -0.058101
0.238296 0.083439 0.524036 0.514126 0.856790 -0.039811
0.211914 0.115050 0.445295 0.012986 -0.243474 0.969820
0.294718 0.170679 0.355233 0.037152 0.209459 0.977111
0.046019 0.200093 0.050261 -0.732485 0.678398 -0.056946
0.065634 0.126818 0.468205 0.931519 0.351876 0.091957
0.200618 0.225870 0.328788 0.001723 0.984850 0.173399
0.155422 0.232536 0.680660 0.055436 -0.556930 -0.828707
0.350533 0.148511 0.828902 0.159181 -0.986651 -0.034371
0.233632 0.067141 0.678727 0.009070 -0.999213 0.038614
0.350768 0.062045 0.260148 0.583299 -0.719692 -0.376571
0.068892 0.180458 0.942151 0.223882 0.135662 0.965128
0.330443 0.262259 0.594851 -0.985401 -0.164113 -0.045302
0.065783 0.102679 0.326620 -0.574265 -0.638371 -0.512545
0.216146 0.117567 0.335459 0.276587 0.685370 0.673623
0.219751 0.069296 0.354931 0.023576 -0.999174 -0.033097
0.058524 0.025117 0.809703 -0.021786 -0.999710 0.010260
0.093240 0.130490 0.369847 -0.082081 0.996562 -0.011253
0.191292 0.208852 0.892657 -0.001683 0.993614 0.112818
0.032741 0.125677 0.152058 -0.990413 -0.127408 -0.053377
0.053103 0.099464 0.329430 -0.491764 -0.576059 -0.652935
0.172040 0.120918 0.950239 -0.068076 -0.931282 0.357883
0.269294 0.074718 0.822243 0.149482 -0.988296 0.030446
0.065787 0.143999 0.717535 0.801213 -0.173897 -0.572554
0.284041 0.135709 0.396250 0.032369 0.992260 -0.119885
0.264357 0.146839 0.536914 0.001116 0.985674 -0.168656
0.292576 0.070512 0.742578 0.120754 -0.991470 0.049058
0.196901 0.190687 0.084040 0.000410 0.491021 -0.871148
0.200509 0.109080 0.489147 -0.999647 -0.024698 -0.009763
0.253593 0.126385 0.445737 0.036353 -0.144243 0.988874
0.370698 0.143397 0.451191 0.999921 -0.011376 0.005334
0.330119 0.080242 0.691336 -0.213238 0.868976 -0.446553
0.222035 0.210748 0.147608 0.018210 0.995912 -0.088476
0.208474 0.079471 0.919850 0.041298 -0.998828 0.025247
0.194859 0.167860 0.727296 0.015158 -0.896886 -0.442002
0.234105 0.221677 0.697364 0.050361 0.846705 0.529673
0.078015 0.127825 0.328483 -0.947215 -0.216687 -0.236284
0.113275 0.105768 0.340295 0.053692 0.666553 0.743521
0.322169 0.169152 0.480231 0.999715 -0.003100 -0.023668
0.329385 0.079250 0.529022 -0.738631 0.674097 0.004034
0.333212 0.134332 0.564135 -0.956695 0.291092 0.000005
0.106839 0.177678 0.665144 0.133936 -0.869175 -0.476022
0.147142 0.071110 0.753903 -0.104685 -0.994502 0.002762
0.315982 0.067161 0.673920 0.079499 -0.996717 0.015309
0.237995 0.079009 0.906416 0.144934 -0.989332 0.014703
0.333753 0.103518 0.213148 0.303637 -0.920884 0.244495
0.304713 0.222924 0.590464 -0.688302 -0.096131 -0.719026
0.238007 0.104535 0.500521 0.007370 -0.945370 -0.325916
0.076865 0.107578 0.507176 -0.998086 -0.059818 -0.015668
0.043293 0.132190 0.785510 -0.922771 0.333987 -0.192212
0.028251 0.109700 0.401808 -0.996659 -0.080267 0.015093
0.367775 0.173539 0.398061 0.936699 0.347848 0.039974
0.071361 0.218786 0.285272 -0.151921 0.987889 0.031561
0.189859 0.080797 0.352906 0.003189 -0.806378 -0.591392
0.340450 0.212795 0.584201 -0.366123 0.833768 -0.413261
0.356053 0.067656 0.257142 0.971601 -0.182796 -0.150260
0.043642 0.191978 0.062583 -0.970505 0.223441 -0.090519
0.168867 0.080607 0.390565 -0.356867 0.870392 0.339210
0.078096 0.142637 0.395549 0.980998 0.191177 0.033083
0.086612 0.114986 0.263650 -0.103413 -0.987541 0.118607
0.046765 0.118469 0.274634 -0.982151 -0.188024 -0.005171
0.275317 0.149027 0.324163 0.007322 0.349413 0.936940
0.056601 0.213089 0.334966 -0.634498 0.772924 -0.000538
0.077506 0.147388 0.550971 -0.908779 0.405149 -0.099871
0.096837 0.068951 0.406444 -0.047474 -0.998389 -0.031072
0.071418 0.067346 0.247400 0.993482 0.066053 0.092902
0.299772 0.207744 0.159653 0.096533 0.992052 -0.080709
0.099862 0.215194 0.265977 -0.076024 0.994689 0.069379
0.309404 0.142852 0.942490 -0.152380 -0.741852 -0.653021
0.036697 0.146717 0.790685 -0.029626 -0.987298 0.156090
0.240112 0.073792 0.258295 0.134387 -0.990339 -0.034190
0.065679 0.067558 0.614543 -0.087499 -0.996164 0.001094
0.182684 0.262512 0.657136 0.030152 -0.612057 -0.790239
0.248044 0.148861 0.546110 -0.004127 0.983013 -0.183491
0.243461 0.075518 0.219643 0.145209 -0.988789 -0.034805
0.303556 0.127201 0.477817 -0.000957 -0.676958 -0.736021
0.198633 0.068648 0.451657 0.001072 -0.999933 -0.011520
0.140491 0.165070 0.318168 -0.009774 0.328849 0.944332
0.352720 0.057380 0.292234 0.466311 -0.710156 0.527477
0.275169 0.098227 0.073208 0.042502 -0.536278 -0.842970
0.242084 0.180513 0.657867 -0.000918 -0.875317 -0.483549
0.338880 0.124455 0.050367 0.273265 0.110252 -0.955600
0.073003 0.058329 0.760493 0.730718 -0.299088 -0.613676
0.298120 0.100100 0.888805 0.398294 -0.837849 -0.373324
0.036219 0.179643 0.150975 -0.963699 0.262429 -0.049150
0.058821 0.203984 0.407520 0.191868 0.957425 0.215696
0.284850 0.110766 0.583072 0.030082 -0.773710 0.632826
0.163284 0.215067 0.219179 -0.028852 0.997098 -0.070453
0.321990 0.109080 0.507497 0.996220 -0.081942 -0.028822
0.169827 0.169576 0.690246 0.006945 -0.955005 -0.296508
0.034429 0.186914 0.576362 -0.942869 0.333163 -0.001029
0.337807 0.081633 0.941195 0.243686 -0.687006 0.684572
0.125069 0.258543 0.659625 -0.120216 0.625763 0.770694
0.100986 0.079250 0.657710 0.384830 0.922021 -0.042228
0.052467 0.122127 0.762187 -0.259940 0.581255 -0.771086
0.078081 0.117881 0.409570 -0.996038 0.082977 -0.031972
0.313701 0.209532 0.461717 0.093587 0.265757 -0.959487
0.114203 0.167052 0.499098 -0.015546 0.255532 0.966676
0.156658 0.068301 0.503591 -0.025275 -0.999650 -0.007806
0.251383 0.139378 0.502983 -0.002994 0.952972 0.303042
0.333259 0.102258 0.488348 -0.851911 0.520951 0.053450
0.204569 0.210554 0.142900 0.006043 0.995066 -0.099031
0.172162 0.069942 0.334122 -0.008401 -0.998885 -0.046457
0.074972 0.033452 0.269680 0.933143 -0.358780 -0.022845
0.106303 0.206015 0.650034 0.103324 -0.614205 -0.782353
0.075937 0.227608 0.657193 0.743577 -0.319314 -0.587479
0.096021 0.146322 0.076815 -0.019479 0.104239 -0.994362
0.221450 0.101052 0.493445 0.612647 0.787762 -0.063986
0.129991 0.215853 0.664738 -0.029380 0.978169 -0.205722
0.241446 0.109747 0.049611 0.017947 0.412088 -0.910967
0.298120 0.099491 0.834944 0.743489 -0.666362 0.056447
0.259451 0.178163 0.574301 0.092083 0.618786 -0.780144
0.318212 0.204532 0.343908 0.132327 0.411809 0.901611
0.075111 0.131182 0.785937 0.949055 0.292700 -0.116714
0.068151 0.103670 0.712325 0.708755 0.359341 -0.607075
0.171536 0.084084 0.425595 -0.431791 0.900448 0.052443
0.247568 0.254690 0.665324 0.067799 0.643654 0.762308
0.293338 0.106136 0.567477 0.021007 -0.996324 0.083043
0.085748 0.096938 0.192269 -0.430782 -0.871704 0.233579
0.341376 0.188058 0.050067 -0.961207 0.061850 -0.268805
0.216033 0.217710 0.269866 0.006246 0.994788 0.101769
0.127660 0.169125 0.695986 0.125041 -0.911503 -0.391825
0.323513 0.118023 0.946410 -0.570278 0.677731 0.464181
0.279120 0.132746 0.375623 0.027602 0.990634 -0.133722
0.137650 0.130668 0.940872 0.018577 0.970453 -0.240575
0.311532 0.150531 0.579663 0.219375 0.940806 0.258377
0.089620 0.108320 0.946032 0.368297 0.026862 -0.929320
0.028327 0.105067 0.347527 -0.994744 -0.098793 0.026925
0.371062 0.116828 0.888923 0.939655 -0.331184 -0.085829
0.131533 0.079250 0.421487 0.035964 0.997033 0.068054
0.052813 0.086639 0.162262 -0.454031 -0.863580 0.219284
0.036228 0.190885 0.532878 -0.909911 0.414720 -0.008317
0.035077 0.071272 0.456360 -0.858813 -0.512181 -0.010536
0.326680 0.139658 0.251951 -0.621120 0.730069 -0.284974
0.141629 0.201857 0.100831 -0.039349 0.922103 -0.384938
0.149406 0.079255 0.591828 -0.285273 0.958440 0.003425
0.355949 0.035857 0.259358 0.960291 -0.267532 -0.079170
0.155163 0.156925 0.731561 -0.159794 -0.596400 -0.786621
0.046413 0.205581 0.866180 -0.504495 0.862888 0.030165
0.274866 0.246405 0.666386 -0.145961 -0.541344 -0.828035
0.370768 0.149419 0.308032 0.970073 -0.242498 0.012340
0.220218 0.095972 0.054591 0.008159 -0.056619 -0.998362
0.328015 0.079250 0.557898 -0.737008 0.675884 0.000630
0.234974 0.169577 0.690584 0.005676 -0.958105 -0.286360
0.067440 0.079250 0.667344 0.653598 0.753365 -0.072459
0.362433 0.115077 0.065532 0.804051 0.592621 0.047983
0.227730 0.067143 0.676575 0.009350 -0.999753 0.020147
0.155049 0.073088 0.791364 -0.117479 -0.993030 -0.009436
0.295572 0.078927 0.427152 0.048680 -0.962930 0.265322
0.364065 0.187189 0.508586 0.942329 0.334641 -0.005644
0.040874 0.111415 0.087295 -0.018341 0.484331 0.874693
0.080915 0.096320 0.954005 -0.130140 -0.390672 0.911284
0.072629 0.079250 0.531111 0.714621 0.699508 0.002192
0.176589 0.105722 0.341232 0.005146 -0.688185 -0.725517
0.121791 0.202521 0.106143 -0.057125 0.959654 -0.275320
0.316147 0.206070 0.164927 0.117559 0.989774 -0.080789
0.065772 0.108899 0.667525 0.817930 0.424140 -0.388712
0.331471 0.208121 0.237202 0.120588 0.990832 -0.060914
0.044020 0.203374 0.569254 -0.748053 0.663489 -0.014123
0.031340 0.171800 0.261475 -0.999219 -0.022676 -0.032368
0.234834 0.096241 0.345565 -0.002914 -0.778998 -0.627020
0.112001 0.079851 0.942616 -0.051760 -0.998640 0.006256
0.366243 0.077147 0.619968 0.986223 0.156289 0.054208
0.332632 0.217608 0.659041 0.651742 0.675226 0.345403
0.038573 0.107568 0.226661 -0.164315 -0.962001 0.218069
0.243620 0.078038 0.885129 0.146424 -0.989035 0.019254
0.135010 0.079250 0.397856 -0.013884 0.957403 0.288422
0.037921 0.130836 0.059901 -0.935079 0.344111 -0.084941
0.155734 0.103186 0.949139 0.162483 -0.167859 -0.972328
0.100785 0.093932 0.226787 -0.795092 -0.604495 -0.049138
0.276241 0.137515 0.406699 0.028673 0.993373 -0.111304
0.323611 0.043201 0.799164 -0.988475 0.143184 0.049148
0.320971 0.119682 0.943231 -0.988551 -0.139041 -0.058601
0.150496 0.069261 0.360218 -0.018913 -0.998835 -0.044398
0.178760 0.210623 0.870991 -0.008589 0.996979 0.077199
0.204526 0.074995 0.827477 0.005119 -0.999417 0.033759
0.335150 0.249759 0.605568 0.980185 0.197774 -0.011097
0.100785 0.080255 0.279899 -0.892706 -0.369553 -0.257888
0.035141 0.110041 0.127236 -0.985156 -0.146934 -0.088758
0.371019 0.110790 0.349741 0.997652 -0.059844 0.033306
0.064174 0.206545 0.328943 0.637348 0.737676 0.222760
0.323075 0.219062 0.663196 -0.756123 -0.291602 -0.585872
0.088835 0.114802 0.480331 -0.006297 -0.798339 -0.602175
0.049085 0.075510 0.835635 -0.966884 -0.044771 0.251259
0.173513 0.099234 0.649812 -0.656802 0.753493 -0.029309
0.088748 0.241549 0.661444 -0.402073 0.565133 0.720390
0.138127 0.100557 0.442707 -0.031966 -0.591764 0.805477
0.038652 0.086129 0.893115 -0.775773 -0.625242 -0.085134
0.207510 0.105193 0.525270 -0.132991 -0.990000 -0.047041
0.210334 0.154116 0.471949 -0.000894 -0.551831 -0.833955
0.345331 0.110720 0.237784 0.249458 -0.950162 0.186983
0.270863 0.154247 0.949899 0.093790 0.903977 0.417168
0.032277 0.115856 0.272423 -0.172983 -0.983979 0.043164
0.249204 0.079250 0.395414 0.051259 0.953432 0.297220
0.119916 0.079250 0.471175 0.250755 0.965666 0.067900
0.352918 0.029140 0.280623 0.615160 -0.779154 0.120403
0.201636 0.213056 0.836657 -0.000567 0.998788 0.049219
0.333176 0.101404 0.625269 -0.911533 0.403869 -0.077439
0.145606 0.077990 0.177559 -0.095473 -0.994368 -0.046016
0.037798 0.125977 0.946684 -0.337936 0.812379 0.475226
0.058871 0.124637 0.748715 -0.445121 -0.721550 0.530314
0.369616 0.152855 0.560312 0.998318 -0.056742 0.011880
0.234288 0.087306 0.670387 0.639534 0.757695 -0.129980
0.028123 0.150829 0.237342 -0.956037 0.288749 -0.051163
0.357821 0.200668 0.594889 0.815128 0.579197 -0.009809
0.248754 0.079252 0.470520 0.122070 0.992504 0.005967
0.219152 0.080182 0.101529 0.001267 -0.931972 -0.362528
0.309784 0.106311 0.573106 0.124019 -0.959714 0.252129
0.128807 0.160853 0.358012 -0.023157 0.175238 0.984254
0.313967 0.131021 0.731528 -0.647137 0.244673 -0.722045
0.111499 0.077592 0.876665 -0.220945 -0.974391 -0.041772
0.346969 0.067519 0.326828 0.280584 -0.306540 0.909563
0.276576 0.079250 0.578597 -0.208711 0.977966 -0.004796
0.370771 0.130285 0.549319 0.999825 0.016427 0.008919
0.115983 0.069272 0.358508 -0.040607 -0.996892 -0.067505
0.118641 0.079632 0.931659 -0.099454 -0.995010 -0.007936
0.224185 0.286201 0.615498 -0.868167 -0.490356 0.076400
0.095689 0.190907 0.649420 0.221111 0.152119 -0.963312
0.314441 0.078930 0.905928 0.261663 -0.965139 0.006221
0.249947 0.211921 0.841004 -0.032632 0.998071 0.052820
0.117386 0.104931 0.517488 0.004801 -0.960763 -0.277329
0.028840 0.137867 0.724960 -0.999016 0.034982 -0.027268
0.280744 0.183974 0.083571 0.041277 0.400699 -0.915279
0.053564 0.109383 0.953263 -0.537576 -0.825140 0.173655
0.247907 0.181405 0.354307 0.019266 0.250962 0.967805
0.320796 0.157957 0.320170 -0.929875 0.253155 0.266917
0.122973 0.179832 0.354033 -0.029541 0.254835 0.966533
0.338135 0.063375 0.865185 -0.064711 -0.363814 0.929221
0.232738 0.104317 0.491423 0.005709 -0.920789 -0.390020
0.343557 0.104763 0.728122 0.545543 -0.610268 0.574418
0.182009 0.156598 0.076579 -0.022931 0.091524 -0.995539
0.102697 0.158969 0.357483 -0.038124 0.176959 0.983480
0.074941 0.066677 0.760499 0.929432 -0.114502 -0.350778
0.348914 0.114445 0.883094 0.169206 -0.530115 -0.830872
0.084027 0.170270 0.496716 -0.156132 0.273098 0.949231
0.028178 0.112326 0.424288 -0.997801 -0.065597 0.009458
0.349558 0.131516 0.944338 0.800311 0.596562 -0.060131
0.040735 0.154168 0.059802 -0.970268 0.003256 -0.242012
0.333283 0.263527 0.613479 0.883813 0.283730 -0.371985
0.355333 0.080877 0.150825 0.136507 -0.975590 0.172019
0.213141 0.077360 0.165546 0.054385 -0.998017 -0.031679
0.078088 0.107991 0.404136 0.975068 0.217812 0.042429
0.348879 0.208927 0.225411 -0.699557 0.714569 -0.003296
0.147171 0.217282 0.273510 -0.023260 0.991549 0.127628
0.333125 0.083164 0.662991 -0.545482 0.832026 -0.100911
0.058160 0.125568 0.225220 -0.035929 0.663234 -0.747549
0.073656 0.108513 0.944494 0.389459 0.040290 -0.920162
0.327483 0.083705 0.291233 -0.996560 0.002502 -0.082839
0.065993 0.198979 0.342057 0.995607 0.092265 0.015907
0.201182 0.133090 0.577719 -0.925420 -0.036397 0.377190
0.167839 0.079364 0.389122 0.001928 -0.978346 -0.206969
0.135495 0.072786 0.785634 -0.137001 -0.990535 -0.008404
0.344216 0.210499 0.345393 0.753869 0.656957 -0.009405
0.217048 0.096961 0.420866 0.578928 0.813375 0.057128
0.073691 0.034778 0.290718 0.813132 -0.547877 0.196587
0.352141 0.094559 0.776188 0.955866 -0.092655 0.278809
0.211036 0.245288 0.672919 -0.017333 -0.578980 -0.815158
0.163473 0.136324 0.444326 -0.032192 0.611333 0.790719
0.167512 0.078372 0.105094 -0.041730 -0.946384 -0.320337
0.042377 0.041693 0.258280 -0.997589 0.058790 0.036888
0.043276 0.201462 0.523900 -0.773329 0.633777 -0.017010
0.327836 0.115794 0.059627 0.102353 0.938931 -0.328531
0.298120 0.107489 0.730790 0.842338 -0.428208 0.327268
0.086804 0.164455 0.317303 0.024094 0.345027 0.938283
0.052053 0.048471 0.762624 -0.276013 -0.612539 -0.740684
0.033185 0.175890 0.169612 -0.973640 0.220480 -0.058422
0.264123 0.287065 0.611107 0.030506 0.999406 -0.016027
0.205215 0.074641 0.820776 0.004887 -0.999421 0.033674
0.139723 0.224001 0.312920 -0.048330 0.954682 -0.293678
0.333138 0.179887 0.657909 -0.660795 -0.713037 -0.234366
0.328605 0.133987 0.867648 0.475860 -0.689700 -0.545776
0.051399 0.194903 0.945047 0.255833 -0.900459 0.351744
0.165260 0.103410 0.949140 0.123877 -0.211963 -0.969395
0.033813 0.181460 0.800043 -0.950625 0.310265 0.006881
0.081940 0.126100 0.329493 -0.282987 -0.617977 -0.733500
0.351405 0.114529 0.291161 0.368413 0.745678 0.555190
0.059780 0.215348 0.307261 -0.537718 0.842883 -0.020188
0.186728 0.171470 0.315604 -0.033590 0.350048 0.936129
0.081054 0.080635 0.941363 0.209468 -0.064272 -0.975701
0.026665 0.164836 0.387699 -0.915515 0.399431 0.047834
0.081179 0.067241 0.661868 -0.046978 -0.998704 0.019594
0.297316 0.132399 0.951844 -0.127817 -0.948592 0.289544
0.208109 0.086892 0.958350 0.010534 -0.483681 0.875181
0.355676 0.131015 0.244978 0.930786 0.329948 -0.157389
0.077882 0.146431 0.077519 -0.016044 0.127563 -0.991701
0.115691 0.154939 0.731559 0.305479 -0.335939 -0.890970
0.320824 0.095367 0.404640 0.999134 0.033895 -0.024132
0.219750 0.067352 0.645281 0.009852 -0.999888 0.011262
