0.389837 0.886534 0.041381 -0.010362 0.030692 0.999475
0.492887 0.078352 0.319193 -0.001761 -0.099753 -0.995011
0.556360 0.415012 0.164580 -0.647832 -0.760227 0.048669
0.090234 0.415012 0.153754 -0.328496 0.940066 -0.091471
0.661595 0.688556 0.190874 0.846536 -0.520348 0.112317
0.146195 0.420538 0.025000 0.847174 -0.311556 -0.430383
0.100317 0.155353 0.025000 -0.539367 0.000000 -0.842071
0.298788 0.398799 0.338321 0.014823 -0.997718 0.065875
0.120476 0.415012 0.060705 0.516399 -0.831590 -0.204427
0.461784 0.078335 0.191577 -0.055764 0.998335 0.014736
0.025163 0.415012 0.053833 -0.729263 0.668769 -0.144649
0.661595 0.354788 0.210823 0.977506 0.000000 -0.210908
0.121532 0.358967 0.035005 0.000000 0.000000 1.000000
0.374758 0.558975 0.041381 0.005579 -0.025018 0.999671
0.460653 0.956049 0.119624 0.880397 0.446265 0.160463
0.099746 0.574984 0.193687 -0.008823 -0.998534 0.053408
0.661595 0.387537 0.141217 0.422473 0.000000 -0.906376
0.644933 0.950063 0.129595 -0.959963 -0.272750 0.063859
0.354721 0.941160 0.026143 0.003990 0.043984 -0.999024
0.199242 0.058897 0.025016 -0.339541 0.787785 -0.513913
0.251460 0.595685 0.157999 0.990765 -0.135382 0.007502
0.507066 0.752859 0.041381 0.014428 -0.004974 0.999884
0.042894 0.575154 0.025000 -0.080934 -0.966304 -0.244347
0.035021 0.153488 0.065361 0.999920 0.000000 0.012647
0.426776 0.958337 0.145403 0.319910 -0.943329 0.088251
0.034999 0.958337 0.189470 0.663165 -0.736684 0.132322
0.025016 0.754750 0.089788 -0.933677 -0.337837 -0.118797
0.244857 0.078335 0.050975 -0.135965 0.980572 -0.141394
0.401290 0.734990 0.137597 0.014548 -0.999086 0.040188
0.661595 0.125777 0.254372 -0.869774 0.000000 -0.493450
0.630945 0.705318 0.041381 0.022118 -0.025087 0.999440
0.066649 0.320906 0.035005 0.000000 0.000000 1.000000
0.074731 0.116872 0.025000 -0.613205 0.000000 -0.789924
0.388570 0.737268 0.041381 0.006057 0.003970 0.999974
0.247985 0.025000 0.251102 -0.112590 -0.990319 0.081185
0.401850 0.274457 0.035005 0.000000 0.000000 1.000000
0.434502 0.574984 0.174211 0.018366 -0.997687 0.065442
0.041679 0.496775 0.170445 0.688472 -0.724471 0.033902
0.195842 0.415012 0.304557 0.000353 0.999924 0.012332
0.562510 0.734990 0.212040 0.029017 -0.995041 0.095138
0.234563 0.640916 0.098881 -0.999064 -0.013829 -0.040986
0.234563 0.836764 0.220986 -0.979473 -0.108700 0.169758
0.450788 0.277084 0.318328 0.015629 0.028528 -0.999471
0.644933 0.941805 0.136931 -0.956719 -0.282040 0.071713
0.035021 0.351868 0.294708 0.999011 0.000000 0.044473
0.165497 0.762932 0.026143 -0.016875 -0.005476 -0.999843
0.278860 0.427307 0.225157 0.000000 0.000000 -1.000000
0.387284 0.939397 0.041381 -0.016675 0.040480 0.999041
0.661595 0.342856 0.259582 0.999959 0.000000 -0.009090
0.661595 0.051479 0.324383 -0.298174 -0.049116 0.953247
0.434373 0.431674 0.084240 0.069410 0.995789 -0.059892
0.041679 0.829764 0.176994 0.922104 -0.380844 0.068421
0.330260 0.078335 0.230197 -0.063085 0.996299 0.058389
0.366220 0.415012 0.217485 0.062037 0.997702 -0.027239
0.332319 0.276967 0.318328 -0.001494 -0.006048 -0.999981
0.105918 0.560999 0.026143 -0.049189 -0.048138 -0.997629
0.466060 0.638452 0.224123 0.991118 0.055222 0.120977
0.185241 0.924083 0.026143 -0.006646 0.024613 -0.999675
0.467515 0.389958 0.035005 0.000000 0.000000 1.000000
0.180883 0.975000 0.135943 -0.126068 0.991833 -0.019367
0.356828 0.734990 0.147625 0.011744 -0.998918 0.044990
0.278195 0.078335 0.116059 -0.099136 0.992633 -0.069652
0.657224 0.049035 0.331645 -0.243863 -0.484361 0.840193
0.644933 0.625530 0.220622 -0.891149 -0.437080 0.121712
0.103115 0.189313 0.035005 0.000000 0.000000 1.000000
0.145544 0.398315 0.325192 0.001528 -0.998623 0.052429
0.159561 0.734990 0.031836 -0.056752 -0.980419 -0.188567
0.457660 0.735454 0.134618 -0.037168 0.957944 0.284536
0.271478 0.751653 0.092144 -0.016335 0.998408 -0.053981
0.661595 0.778511 0.107488 0.775768 -0.629467 0.044216
0.469832 0.734990 0.027582 -0.002680 -0.996532 -0.083169
0.501008 0.025000 0.199484 -0.049056 -0.998502 0.024226
0.139522 0.415012 0.146190 -0.279267 0.955585 -0.094161
0.041679 0.809270 0.033630 0.905141 -0.414800 -0.093060
0.035021 0.309569 0.223239 0.999398 0.000000 0.034685
0.111993 0.238325 0.318535 -0.062815 -0.145031 -0.987431
0.251460 0.610946 0.061859 0.974279 -0.215938 -0.064423
0.136051 0.751653 0.075286 -0.026727 0.997165 -0.070342
0.292314 0.674544 0.041381 -0.002777 0.002912 0.999992
0.114111 0.325378 0.331645 -0.008588 0.016522 0.999827
0.444090 0.842520 0.026143 0.009885 0.035939 -0.999305
0.354408 0.153273 0.331645 -0.019695 -0.086945 0.996018
0.099325 0.784139 0.026143 -0.025397 -0.008690 -0.999640
0.661595 0.374697 0.242628 0.998515 0.000000 0.054470
0.560484 0.734990 0.151909 0.026556 -0.998087 0.055840
0.404953 0.431674 0.091595 0.073361 0.995733 -0.055985
0.486861 0.431674 0.061248 0.059954 0.995500 -0.073386
0.364064 0.958337 0.061773 0.031823 -0.998450 -0.045656
0.234563 0.885973 0.160018 -0.999865 0.014998 0.006688
0.501902 0.055443 0.331645 -0.249622 0.607310 0.754230
0.035021 0.383446 0.157382 0.999707 0.000000 0.024216
0.481969 0.975000 0.199815 0.094325 0.987786 0.124026
0.661595 0.417433 0.062780 0.393697 0.913728 -0.100518
0.309395 0.398315 0.133970 -0.002245 -0.999689 -0.024850
0.578096 0.398315 0.052367 0.047489 -0.998657 -0.020707
0.035410 0.415012 0.292442 -0.131847 0.991093 -0.018723
0.465559 0.818374 0.041381 0.009679 0.010377 0.999899
0.025111 0.622546 0.025000 -0.901428 0.381564 -0.204538
0.025016 0.822949 0.169921 -0.690993 -0.722330 0.027720
0.251460 0.597426 0.042872 0.959538 -0.270793 -0.077184
0.188060 0.734990 0.213939 0.002207 -0.996661 0.081617
0.431205 0.343725 0.025000 -0.241433 0.000000 -0.970417
0.307668 0.524511 0.026143 -0.020071 -0.033276 -0.999245
0.661595 0.128345 0.279248 -0.878243 0.000000 -0.478215
0.025016 0.109442 0.080463 -0.783664 0.000000 -0.621185
0.655611 0.415012 0.116547 0.165172 0.984862 -0.052574
0.661478 0.348958 0.025000 -0.244348 0.000000 -0.969688
0.070671 0.119801 0.025000 -0.613791 0.000000 -0.789468
0.083804 0.025000 0.168912 -0.126852 -0.991851 -0.011877
0.234563 0.829730 0.221137 -0.977095 -0.118185 0.176968
0.466060 0.826575 0.049542 0.990882 -0.111301 -0.075932
0.029209 0.506923 0.025000 -0.797662 0.426289 -0.426630
0.246274 0.431674 0.057507 0.076686 0.993529 -0.083776
0.120852 0.185129 0.331645 -0.035846 -0.116210 0.992578
0.171616 0.975000 0.170842 -0.129147 0.991623 0.002215
0.661595 0.335972 0.146659 0.563035 0.000000 -0.826433
0.479683 0.902990 0.026143 0.011967 0.049653 -0.998695
0.312094 0.686511 0.026143 -0.001285 -0.003653 -0.999992
0.661595 0.404771 0.330231 0.313954 -0.878797 0.359371
0.030398 0.272334 0.318328 -0.048463 -0.102457 -0.993556
0.644933 0.541313 0.028217 -0.679126 -0.729894 -0.077739
0.661595 0.343666 0.212005 0.592562 0.000000 -0.805525
0.638185 0.025000 0.301485 -0.028936 -0.989952 0.138412
0.061895 0.754459 0.041381 -0.049589 0.041768 0.997896
0.661595 0.854554 0.200352 0.716368 -0.687147 0.121020
0.064182 0.061188 0.025016 -0.383832 0.826672 -0.411445
0.234563 0.595773 0.142535 -0.977878 -0.186690 0.094343
0.651591 0.079407 0.307375 -0.999195 0.000000 0.040124
0.191199 0.081872 0.318328 -0.020076 -0.180353 -0.983397
0.588450 0.431674 0.061902 0.038085 0.997667 -0.056663
0.151466 0.420957 0.035050 -0.184237 -0.292603 0.938318
0.651591 0.352288 0.287065 -0.999216 0.000000 0.039584
0.071972 0.398315 0.189774 -0.053044 -0.997793 -0.039935
0.060550 0.734990 0.070141 -0.060873 -0.984803 -0.162660
0.661595 0.211497 0.067922 -0.262012 0.000000 -0.965065
0.351987 0.428878 0.225157 0.000000 0.000000 -1.000000
0.396197 0.366954 0.025000 -0.266798 0.000000 -0.963752
0.414343 0.431674 0.136187 0.055673 0.998449 -0.000997
0.644933 0.873440 0.140447 -0.950990 -0.302433 0.064436
0.226446 0.415012 0.112987 0.318654 -0.945908 -0.060978
0.661595 0.212552 0.228941 -0.787472 0.000000 -0.616351
0.129056 0.381773 0.331645 0.004358 0.085766 0.996306
0.297486 0.097256 0.025000 -0.383729 0.000000 -0.923446
0.032010 0.078335 0.227305 -0.125192 0.990524 0.056470
0.661595 0.306367 0.231922 0.118473 0.000000 -0.992957
0.214314 0.588149 0.026143 -0.028337 -0.031744 -0.999094
0.159675 0.524380 0.026143 -0.044431 -0.049019 -0.997809
0.651182 0.134292 0.025000 -0.005505 0.000000 -0.999985
0.370710 0.415012 0.143944 -0.072100 -0.996802 0.034457
0.172665 0.398315 0.319560 0.003797 -0.998666 0.051487
0.352502 0.415012 0.095428 0.034546 -0.998050 -0.051980
0.661595 0.075187 0.238020 -0.077533 0.994080 0.076110
0.273245 0.734990 0.086364 -0.016683 -0.998133 -0.058754
0.622233 0.431674 0.109331 -0.000391 0.999828 0.018528
0.363675 0.415012 0.236207 0.060716 0.998093 -0.011146
0.391262 0.975000 0.174626 0.003625 0.998047 0.062364
0.656126 0.922670 0.025000 0.121568 -0.988622 -0.088592
0.583710 0.154640 0.025000 -0.029046 0.000000 -0.999578
0.025016 0.883654 0.032880 -0.926913 -0.330337 -0.178070
0.238347 0.753708 0.062753 -0.979366 -0.186131 -0.078728
0.592872 0.637044 0.041381 0.019538 -0.032974 0.999265
0.035021 0.373427 0.203794 0.999513 0.000000 0.031208
0.321421 0.299903 0.035005 0.000000 0.000000 1.000000
0.309385 0.584649 0.224992 0.136233 0.704829 0.696173
0.646212 0.255525 0.331645 0.020238 -0.008495 0.999759
0.140532 0.304995 0.331645 -0.011508 -0.007302 0.999907
0.041679 0.548360 0.209294 0.729383 -0.677773 0.092867
0.025016 0.908410 0.101806 -0.780237 -0.621598 -0.069618
0.634494 0.734990 0.028778 0.027005 -0.999398 -0.021767
0.450259 0.591017 0.220600 -0.907345 -0.327294 0.263825
0.342130 0.025000 0.260422 -0.088318 -0.991827 0.092082
0.524437 0.975000 0.065557 -0.046964 0.997408 -0.054504
0.480551 0.107303 0.035005 0.000000 0.000000 1.000000
0.279108 0.025000 0.102686 -0.067548 -0.994079 -0.085110
0.172509 0.078335 0.271549 -0.070726 0.991981 0.104743
0.455548 0.415012 0.255590 0.092437 0.995364 0.026555
0.466060 0.840913 0.141663 0.999926 -0.009604 -0.007526
0.025016 0.185749 0.195042 -0.921252 0.000000 -0.388967
0.234563 0.729635 0.193882 -0.995529 0.088203 0.033805
0.651591 0.292150 0.275842 -0.999286 0.000000 0.037773
0.234563 0.676907 0.100760 -0.996617 0.072933 -0.037892
0.436878 0.398315 0.233128 0.028764 -0.999033 0.033256
0.517315 0.886583 0.041381 0.010592 0.017146 0.999797
0.035021 0.144554 0.135810 0.999755 0.000000 0.022135
0.514937 0.415012 0.035998 -0.316168 -0.941695 -0.115097
0.661595 0.070618 0.205941 -0.094646 0.994556 0.043587
0.316292 0.958337 0.101989 0.041362 -0.998816 0.025612
0.424328 0.555171 0.041381 0.008694 -0.030483 0.999497
0.632506 0.612197 0.041381 0.021970 -0.041043 0.998916
0.402472 0.958337 0.053924 0.122895 -0.991172 -0.049751
0.481639 0.398315 0.170698 0.037295 -0.999169 0.016473
0.234563 0.833077 0.214808 -0.980907 -0.107789 0.161873
0.661595 0.919487 0.140868 0.656105 -0.751189 0.072398
0.025191 0.078335 0.325291 -0.084229 0.982857 0.164003
0.523000 0.398315 0.219550 0.035588 -0.998871 0.031481
0.234563 0.686164 0.219096 -0.992025 -0.053459 0.114146
0.267626 0.958337 0.025000 -0.477818 -0.860767 -0.175415
0.511848 0.025000 0.268994 -0.041159 -0.993896 0.102356
0.661595 0.169638 0.162987 0.238869 0.000000 -0.971052
0.245225 0.431674 0.131688 0.094818 0.994892 -0.034625
0.263061 0.958337 0.134905 0.009355 -0.997435 0.070969
0.025016 0.392829 0.325553 0.136768 0.765803 0.628364
0.325112 0.958337 0.153820 0.160769 -0.982102 0.098125
0.497535 0.683311 0.026143 0.013673 0.014114 -0.999807
0.384676 0.078335 0.076934 -0.083668 0.989987 -0.113689
0.641080 0.203657 0.025000 -0.083422 0.000000 -0.996514
0.426467 0.334259 0.331645 0.009466 0.042006 0.999072
0.449163 0.907358 0.191651 -0.998949 0.013408 0.043840
0.635951 0.025000 0.115086 -0.065590 -0.995304 -0.071192
0.236931 0.313485 0.025000 -0.210811 0.000000 -0.977527
0.209998 0.480611 0.026143 -0.041031 -0.051549 -0.997827
0.622352 0.975000 0.105810 0.063182 0.997622 0.027553
0.449163 0.848929 0.133148 -0.999932 -0.008495 -0.007969
0.552821 0.398315 0.232622 0.036350 -0.998692 0.035955
0.336749 0.092667 0.025000 -0.339785 0.000000 -0.940503
0.286694 0.905113 0.026143 -0.000203 0.031257 -0.999511
0.283663 0.638791 0.041381 -0.000217 -0.002596 0.999997
0.026279 0.398315 0.325642 -0.012193 -0.998925 0.044721
0.087650 0.734990 0.101452 -0.044738 -0.993791 -0.101868
0.501319 0.078335 0.228316 -0.062912 0.996432 0.056266
0.397926 0.398315 0.211356 0.028191 -0.999263 0.026065
0.431436 0.500202 0.026143 -0.002418 -0.024490 -0.999697
0.119725 0.958337 0.146599 -0.343740 -0.937623 0.052023
0.578795 0.975000 0.209599 0.167805 0.972111 0.163835
0.123127 0.574984 0.086267 -0.043836 -0.992541 -0.113756
0.171233 0.431674 0.079144 0.087472 0.993567 -0.071925
0.041679 0.793600 0.035760 0.897397 -0.430576 -0.096349
0.044521 0.025000 0.175565 -0.141449 -0.989935 -0.004647
0.656252 0.415012 0.161269 0.164577 0.986282 -0.012771
0.041679 0.415767 0.033819 0.646627 -0.706261 -0.288216
0.342251 0.480072 0.041381 0.003321 -0.035246 0.999373
0.476028 0.554420 0.026143 0.010946 -0.009996 -0.999890
0.555693 0.368858 0.318328 0.028052 0.149252 -0.988401
0.048638 0.415012 0.155352 0.616681 -0.786619 -0.030583
0.427048 0.398315 0.173719 0.033472 -0.999312 0.015999
0.195977 0.734990 0.169042 -0.000522 -0.998845 0.048039
0.651591 0.214075 0.193618 -0.999634 0.000000 0.027068
0.330280 0.398315 0.034266 -0.036064 -0.995279 -0.090105
0.624994 0.223996 0.035005 0.000000 0.000000 1.000000
0.569970 0.618808 0.041381 0.018045 -0.033843 0.999264
0.041215 0.670300 0.033003 -0.599560 -0.051968 -0.798641
0.105621 0.270723 0.318328 -0.038769 -0.083508 -0.995753
0.110264 0.154177 0.318328 -0.044929 -0.174449 -0.983641
0.550820 0.078335 0.204603 -0.058395 0.997858 0.029481
0.064558 0.545881 0.041381 -0.025892 0.003957 0.999657
0.171635 0.398315 0.161202 -0.033789 -0.998735 -0.037225
0.511550 0.574984 0.210832 0.025315 -0.995404 0.092354
0.048873 0.211810 0.331645 -0.038884 -0.118073 0.992243
0.126194 0.459649 0.041381 -0.010346 -0.017707 0.999790
0.307122 0.415012 0.210112 0.041474 0.998040 -0.046857
0.606676 0.751653 0.082226 0.021864 0.999752 -0.004138
0.086718 0.069491 0.331645 -0.123778 0.960479 0.249316
0.201009 0.078335 0.040691 -0.153040 0.976419 -0.152262
0.317688 0.574984 0.119646 0.003393 -0.999925 0.011768
0.274950 0.078335 0.039156 -0.131809 0.979168 -0.154456
0.562787 0.398315 0.271597 0.033484 -0.998317 0.047351
0.204234 0.398315 0.027773 -0.077499 -0.989343 -0.123263
0.025016 0.060845 0.158937 -0.506791 0.860392 -0.053753
0.041679 0.733343 0.056323 0.865011 -0.494650 -0.084122
0.399743 0.591648 0.218370 0.034079 0.989120 0.143106
0.651591 0.141634 0.142450 -0.999801 0.000000 0.019970
0.466060 0.696668 0.208563 0.967836 0.184707 0.170810
0.219837 0.431674 0.045373 0.075654 0.992820 -0.092654
0.437627 0.298006 0.331645 0.010808 0.019540 0.999751
0.661595 0.334742 0.290751 0.963222 0.000000 0.268705
0.029873 0.377895 0.331645 -0.002420 0.075600 0.997135
0.141406 0.299991 0.331645 -0.012697 -0.013888 0.999823
0.234563 0.649996 0.163199 -0.995508 -0.073810 0.059303
0.661595 0.635446 0.088891 0.982071 -0.188422 -0.005880
0.211908 0.058233 0.025016 -0.344457 0.762423 -0.547777
0.025016 0.141898 0.286525 -0.989989 0.000000 -0.141147
0.613617 0.415012 0.208342 -0.815868 -0.572311 0.082579
0.148050 0.193287 0.025000 -0.434123 0.000000 -0.900854
0.344400 0.455617 0.026143 -0.021708 -0.041772 -0.998891
0.448554 0.056393 0.025016 -0.188578 0.703754 -0.684959
0.288666 0.078335 0.068053 -0.115996 0.985609 -0.122960
0.112537 0.415012 0.301507 -0.028513 0.999555 -0.008799
0.033401 0.899423 0.224992 0.429771 -0.886865 0.169607
0.225371 0.958337 0.182433 0.003934 -0.992398 0.123007
0.470507 0.124440 0.318328 -0.014862 -0.071631 -0.997320
0.081685 0.415012 0.068536 0.574661 -0.794875 -0.194777
0.173866 0.739488 0.025000 -0.120590 -0.903146 -0.412050
0.144553 0.350950 0.035005 0.000000 0.000000 1.000000
0.232443 0.078335 0.039006 -0.144436 0.977406 -0.154322
0.661595 0.369092 0.073311 -0.317844 0.000000 -0.948143
0.661595 0.061617 0.146987 -0.173758 0.980328 -0.093625
0.096742 0.025000 0.286241 -0.171932 -0.977893 0.119015
0.573537 0.431674 0.062390 0.042883 0.997276 -0.060015
0.478271 0.183147 0.318328 -0.009138 0.038588 -0.999213
0.329250 0.396188 0.035005 0.000000 0.000000 1.000000
0.127619 0.415012 0.143523 0.501707 -0.864560 -0.028745
0.661595 0.509775 0.137645 0.998811 0.009959 0.047732
0.562491 0.431674 0.115044 0.016904 0.999806 0.010108
0.176706 0.334903 0.331645 -0.000916 0.037457 0.999298
0.300750 0.591648 0.072662 -0.014991 0.997736 -0.065558
0.171264 0.828088 0.026143 -0.008664 0.006847 -0.999939
0.466060 0.906531 0.099547 0.998974 0.037204 -0.025804
0.234563 0.866083 0.201368 -0.993321 -0.050828 0.103584
0.521970 0.415012 0.089362 0.111472 0.988220 -0.104856
0.116364 0.182693 0.318328 -0.052421 -0.159963 -0.985730
0.283712 0.282854 0.035005 0.000000 0.000000 1.000000
0.033320 0.958337 0.111559 0.460757 -0.886140 0.049586
0.205976 0.645256 0.026143 -0.023340 -0.022350 -0.999478
0.041679 0.498549 0.144353 0.694358 -0.719435 -0.016746
0.437570 0.673549 0.041381 0.009839 -0.011679 0.999883
0.210607 0.078335 0.083325 -0.132966 0.985476 -0.105627
0.033117 0.315623 0.318312 0.998709 0.000000 0.050788
0.644933 0.516507 0.118743 -0.812830 -0.582492 0.003339
0.644933 0.580396 0.164513 -0.916796 -0.396908 0.044152
0.164090 0.422941 0.225157 0.000000 0.000000 -1.000000
0.661595 0.063505 0.063224 -0.070124 0.957114 -0.281096
0.148245 0.078335 0.241108 -0.084414 0.993890 0.071117
0.436527 0.415012 0.055639 -0.155818 -0.981857 -0.108063
0.661595 0.115974 0.330025 0.004421 -0.066542 0.997774
0.149740 0.342626 0.318328 0.019426 0.060246 -0.997995
0.025016 0.339507 0.147572 -0.750469 0.000000 -0.660905
0.101036 0.025000 0.270707 -0.164409 -0.981109 0.101952
0.124379 0.591648 0.189641 -0.023076 0.999726 0.003995
0.041679 0.462767 0.069360 0.667286 -0.722804 -0.179678
0.582238 0.746623 0.026143 0.018849 0.033096 -0.999274
0.488682 0.944866 0.026143 0.012422 0.057623 -0.998261
0.136350 0.945649 0.041381 -0.058615 0.068217 0.995947
0.615329 0.574984 0.144323 0.030206 -0.998135 0.053048
0.285709 0.431674 0.163744 0.083943 0.996468 0.002193
0.494130 0.233906 0.035005 0.000000 0.000000 1.000000
0.661595 0.085451 0.288235 -0.917971 0.000000 -0.396647
0.251460 0.761668 0.124510 0.991779 -0.126728 -0.017755
0.076577 0.415012 0.192566 -0.271087 0.959944 -0.070843
0.282151 0.227232 0.318328 -0.151619 -0.449955 0.880087
0.517463 0.958337 0.049560 0.408208 -0.912716 -0.017768
0.178940 0.212894 0.035005 0.000000 0.000000 1.000000
0.425396 0.398315 0.200809 0.030927 -0.999240 0.023719
0.494225 0.574984 0.115472 0.020365 -0.999361 0.029383
0.025016 0.250183 0.166173 -0.868023 0.000000 -0.496524
0.559398 0.431674 0.162413 -0.009072 0.997107 0.075469
0.141758 0.734990 0.169573 -0.010048 -0.999516 0.029445
0.046212 0.063218 0.025016 -0.352134 0.866415 -0.354015
0.369348 0.431674 0.164897 0.054827 0.998138 0.026714
0.025016 0.302813 0.283724 -0.976254 0.000000 -0.216631
0.473732 0.025000 0.309355 -0.069425 -0.986752 0.146628
0.190519 0.116579 0.025000 -0.487962 0.000000 -0.872865
0.222396 0.751653 0.208482 -0.001359 0.998045 0.062486
0.220362 0.355386 0.318328 0.032343 0.091248 -0.995303
0.025016 0.350726 0.256941 -0.948857 0.000000 -0.315705
0.528361 0.196070 0.331645 -0.000117 0.028112 0.999605
0.491900 0.379794 0.331645 0.039246 0.135606 0.989985
0.414355 0.658529 0.026143 0.008492 0.001824 -0.999962
0.494616 0.975000 0.155309 0.045113 0.996971 0.063355
0.214822 0.415012 0.210916 -0.054120 0.997029 -0.054810
0.109429 0.213363 0.331645 -0.033577 -0.106348 0.993762
0.466060 0.762069 0.121491 0.991451 -0.128938 -0.020021
0.236659 0.958337 0.054901 -0.425254 -0.898676 -0.107426
0.208735 0.574984 0.179326 0.002339 -0.998204 0.059859
0.046100 0.932866 0.026143 -0.017563 0.012394 -0.999769
0.145772 0.591648 0.157695 -0.022805 0.999611 -0.016056
0.535783 0.078335 0.092908 -0.036334 0.994662 -0.096580
0.510868 0.751653 0.214067 0.052427 0.982951 0.176235
0.419332 0.734990 0.099841 0.014362 -0.999766 0.016194
0.234563 0.847181 0.115156 -0.999592 0.005740 -0.027979
0.434741 0.377538 0.035005 0.000000 0.000000 1.000000
0.632446 0.154094 0.318328 0.009682 -0.001013 -0.999953
0.035021 0.269936 0.141542 0.999738 0.000000 0.022904
0.048407 0.415012 0.277420 -0.143633 0.989286 -0.026130
0.214123 0.178963 0.035005 0.000000 0.000000 1.000000
0.137892 0.574984 0.118181 -0.029538 -0.997992 -0.056039
0.661595 0.577428 0.136931 0.961573 -0.268039 0.059441
0.157337 0.025000 0.242717 -0.136169 -0.988118 0.071278
0.439443 0.656603 0.041381 0.009913 -0.014737 0.999842
0.025016 0.207035 0.034909 -0.584305 0.000000 -0.811534
0.251460 0.847002 0.086028 0.997424 -0.052077 -0.049322
0.566063 0.751653 0.184856 0.051904 0.987465 0.149063
0.646760 0.556452 0.224992 -0.838784 -0.524268 0.146914
0.661595 0.402362 0.106957 0.162150 -0.985965 0.039762
0.332650 0.085173 0.331645 -0.029352 -0.119802 0.992364
0.466060 0.694746 0.071956 0.998102 0.003527 -0.061479
0.338925 0.025000 0.147978 -0.058954 -0.997678 -0.034099
0.224206 0.025000 0.209591 -0.102189 -0.994162 0.034626
0.192000 0.591648 0.124859 -0.020772 0.999146 -0.035723
0.049339 0.249031 0.318328 -0.062242 -0.138753 -0.988369
0.188362 0.415012 0.317007 -0.002551 0.999761 0.021708
0.430603 0.398315 0.278902 0.024231 -0.998638 0.046200
0.331251 0.398315 0.215725 0.023459 -0.999395 0.025680
0.328570 0.100712 0.035005 0.000000 0.000000 1.000000
0.574992 0.431674 0.078247 0.033482 0.998728 -0.037714
0.289035 0.388943 0.035005 0.000000 0.000000 1.000000
0.205753 0.734990 0.215324 0.003531 -0.996525 0.083218
0.333582 0.233194 0.025000 -0.145035 0.000000 -0.989426
0.590393 0.958337 0.169365 0.544981 -0.832469 0.099955
0.451035 0.734990 0.093505 0.016392 -0.999777 0.013301
0.155106 0.415012 0.028094 0.456352 -0.849090 -0.266062
0.554206 0.751653 0.118322 0.025593 0.999028 0.035896
0.095935 0.431674 0.224144 0.114327 0.992853 0.034249
0.349960 0.415012 0.288722 0.054626 0.997976 0.032541
0.661595 0.237666 0.072684 0.103445 0.000000 -0.994635
0.597038 0.967910 0.025000 0.333463 0.914856 -0.227688
0.208256 0.025000 0.264175 -0.129890 -0.986922 0.095468
0.201696 0.929993 0.026143 -0.005624 0.027215 -0.999614
0.228558 0.025000 0.179805 -0.088135 -0.996108 0.001225
0.661595 0.258620 0.200386 -0.649125 0.000000 -0.760682
0.661595 0.288684 0.190924 0.924042 0.000000 -0.382290
0.644933 0.860092 0.193376 -0.925560 -0.356167 0.128393
0.056139 0.215403 0.035005 0.000000 0.000000 1.000000
0.234563 0.814533 0.143128 -0.996932 -0.064042 0.045011
0.617978 0.729040 0.026143 0.021149 0.033586 -0.999212
0.036528 0.728700 0.224992 0.529816 -0.836484 0.139959
0.494558 0.260485 0.331645 0.007032 -0.020321 0.999769
0.251460 0.803097 0.149361 0.998691 -0.051155 -0.000567
0.456815 0.751653 0.125506 0.010623 0.999869 0.012172
0.220371 0.734990 0.161943 0.001272 -0.998972 0.045308
0.052040 0.078335 0.232630 -0.116887 0.991190 0.062290
0.466060 0.665971 0.109085 0.999231 -0.021947 -0.032502
0.033234 0.398315 0.030508 -0.128450 -0.978808 -0.159486
0.572889 0.175624 0.035005 0.000000 0.000000 1.000000
0.445912 0.025000 0.165852 -0.055597 -0.998357 -0.013868
0.651591 0.398072 0.287238 -0.999202 0.000000 0.039931
0.047746 0.171093 0.035005 0.000000 0.000000 1.000000
0.651591 0.187565 0.165034 -0.999730 0.000000 0.023231
0.261215 0.078335 0.305293 -0.077027 0.986856 0.142065
0.289391 0.421481 0.224992 0.887817 -0.263762 0.377109
0.449163 0.765836 0.069999 -0.997294 -0.058726 -0.044237
0.449163 0.611642 0.087006 -0.996898 -0.072789 -0.029932
0.065115 0.219895 0.331645 -0.036582 -0.111685 0.993070
0.574359 0.544135 0.026143 0.018877 -0.002037 -0.999820
0.025016 0.742894 0.037085 -0.981178 -0.022961 -0.191736
0.079899 0.344462 0.331645 -0.006649 0.037568 0.999272
0.041215 0.634628 0.030920 -0.185537 -0.057113 -0.980976
0.169906 0.306630 0.025000 -0.250406 0.000000 -0.968141
0.161999 0.975000 0.109411 -0.129464 0.990915 -0.036435
0.041679 0.747930 0.151989 -0.071716 0.992835 -0.095575
0.644933 0.429626 0.218028 -0.193950 0.959649 0.203612
0.242389 0.591648 0.149840 -0.016165 0.999718 -0.017382
0.188712 0.078335 0.047073 -0.154130 0.977317 -0.145239
0.295796 0.406656 0.025000 -0.263099 -0.105126 -0.959024
0.248934 0.765348 0.026143 -0.002887 0.003813 -0.999989
0.091719 0.734990 0.222648 -0.004367 -0.996500 0.083481
0.551403 0.975000 0.034137 -0.039929 0.996506 -0.073364
0.035021 0.207279 0.064868 0.999927 0.000000 0.012079
0.644933 0.764782 0.194615 -0.917738 -0.380576 0.113657
0.240836 0.975000 0.025934 -0.109128 0.990257 -0.086494
0.464640 0.025000 0.298181 -0.067491 -0.988631 0.134363
0.614342 0.774131 0.026143 0.020800 0.040884 -0.998947
0.482999 0.414260 0.025000 -0.036573 0.986113 -0.162000
0.464057 0.415012 0.139936 0.097918 0.992413 -0.074351
0.661595 0.219006 0.081788 0.187447 0.000000 -0.982275
0.605547 0.398315 0.323825 0.031549 -0.997495 0.063318
0.025016 0.611088 0.169408 -0.916466 -0.398912 -0.030967
0.590907 0.944196 0.026143 0.018861 0.067424 -0.997546
0.025016 0.174603 0.331341 -0.048098 -0.145833 0.988139
0.093081 0.415012 0.218138 0.539060 -0.836115 0.101612
0.162155 0.752745 0.041381 -0.032909 0.030813 0.998983
0.602166 0.025000 0.174274 -0.054122 -0.998525 -0.004325
0.473438 0.937372 0.026143 0.011481 0.054873 -0.998427
0.364919 0.250892 0.331645 -0.006258 -0.050127 0.998723
0.046581 0.415012 0.157693 -0.376086 0.922168 -0.090366
0.318001 0.207377 0.035005 0.000000 0.000000 1.000000
0.481446 0.677565 0.041381 0.012617 -0.015263 0.999804
0.577299 0.399816 0.025000 0.055749 -0.996593 -0.060778
0.643074 0.415012 0.184062 -0.813524 -0.578670 0.057613
0.537609 0.398315 0.063420 0.039532 -0.998972 -0.022202
0.275106 0.105077 0.025000 -0.400899 0.000000 -0.916122
0.601945 0.766638 0.026143 0.020038 0.038408 -0.999061
0.562215 0.415012 0.041839 -0.400631 -0.912675 -0.080741
0.035021 0.322859 0.293826 0.999032 0.000000 0.043981
0.369076 0.975000 0.100597 -0.082897 0.995884 -0.036650
0.133499 0.398315 0.038808 -0.094764 -0.986774 -0.131517
0.267140 0.078335 0.175079 -0.077311 0.997001 -0.003453
0.200119 0.574984 0.217173 0.003199 -0.996443 0.084204
0.155705 0.183611 0.331645 -0.033067 -0.110480 0.993328
0.451565 0.415012 0.040185 -0.069661 0.987615 -0.140583
0.661595 0.471389 0.130492 0.964500 0.262940 0.024528
0.640827 0.751653 0.121612 0.042510 0.996425 0.073005
0.381821 0.958337 0.185204 0.253959 -0.959108 0.124965
0.644933 0.482316 0.080072 -0.712241 -0.701207 -0.031970
0.091283 0.958337 0.121966 -0.517201 -0.855859 -0.002804
0.374795 0.815974 0.026143 0.005586 0.024697 -0.999679
0.251460 0.624602 0.125857 0.994441 -0.103768 -0.017882
0.501630 0.820807 0.041381 0.014259 0.007080 0.999873
0.512742 0.721775 0.041381 0.014706 -0.010801 0.999834
0.495588 0.078335 0.120457 -0.041773 0.996965 -0.065688
0.266872 0.230778 0.331645 -0.097110 -0.259711 0.960791
0.661595 0.037908 0.281010 -0.089970 -0.971532 0.219162
0.661595 0.145335 0.138460 -0.493732 0.000000 -0.869614
0.468137 0.958337 0.192210 0.385379 -0.913919 0.127418
0.369931 0.169462 0.035005 0.000000 0.000000 1.000000
0.518362 0.617519 0.026143 0.015157 0.004972 -0.999873
0.407154 0.182546 0.035005 0.000000 0.000000 1.000000
0.025016 0.856925 0.082354 -0.872712 -0.475060 -0.112660
0.065972 0.785706 0.026143 -0.030710 -0.011951 -0.999457
0.334534 0.078335 0.215991 -0.060361 0.997277 0.042360
0.108846 0.117761 0.025000 -0.577337 0.000000 -0.816506
0.084017 0.099794 0.025000 -0.623972 0.000000 -0.781447
0.025016 0.251482 0.118928 -0.764816 0.000000 -0.644248
0.570518 0.751653 0.125506 0.031180 0.998073 0.053657
0.035021 0.342865 0.051008 0.999962 0.000000 0.008772
0.460626 0.591648 0.116613 0.008072 0.999967 -0.000967
0.661595 0.217043 0.196366 -0.756161 0.000000 -0.654386
0.661595 0.697195 0.164647 0.840266 -0.534536 0.090686
0.651591 0.098925 0.097187 -0.999904 0.000000 0.013888
0.305005 0.871678 0.041381 -0.022665 0.037038 0.999057
0.025016 0.848485 0.064209 -0.906154 -0.399139 -0.139905
0.258767 0.070777 0.331645 -0.100853 0.966772 0.234907
0.372651 0.415012 0.299862 0.062278 0.996929 0.047486
0.432115 0.542306 0.026143 0.002384 -0.016841 -0.999855
0.519600 0.188922 0.025000 -0.068307 0.000000 -0.997664
0.379664 0.958337 0.144255 0.246816 -0.965001 0.088629
0.530134 0.695931 0.026143 0.015696 0.019426 -0.999688
0.446745 0.734990 0.186870 0.019736 -0.997049 0.074185
0.122723 0.444760 0.041381 -0.010604 -0.019895 0.999746
0.152289 0.574984 0.138738 -0.019408 -0.999666 -0.017053
0.532072 0.025000 0.066032 -0.074646 -0.989229 -0.125909
0.661595 0.930679 0.127813 0.645093 -0.761593 0.061895
0.350864 0.907088 0.026143 0.003837 0.037831 -0.999277
0.389611 0.025000 0.031595 -0.080720 -0.983209 -0.163658
0.525622 0.270532 0.025000 -0.159803 0.000000 -0.987149
0.093099 0.431674 0.085229 0.094682 0.993011 -0.070458
0.433079 0.346319 0.331645 -0.060410 0.009757 0.998126
0.184894 0.415012 0.048272 0.403942 -0.888376 -0.218217
0.461298 0.975000 0.191087 0.069868 0.991933 0.105772
0.406940 0.034216 0.331645 -0.113545 -0.960110 0.255532
0.234563 0.789153 0.192031 -0.976002 -0.144763 0.162676
0.461639 0.751653 0.090099 -0.001354 0.999046 -0.043644
0.415449 0.078335 0.266589 -0.070065 0.992597 0.099211
0.070949 0.886436 0.041381 -0.062769 0.064511 0.995941
0.341586 0.078335 0.113251 -0.081318 0.994002 -0.073133
0.165424 0.518715 0.026143 -0.044116 -0.049428 -0.997803
0.631832 0.415012 0.268508 0.153202 0.985193 0.076970
0.041215 0.893619 0.039659 -0.096874 0.079507 0.992116
0.464620 0.398315 0.101057 0.032237 -0.999402 -0.012500
0.426457 0.574984 0.211827 0.019244 -0.995787 0.089652
0.449163 0.599595 0.149211 -0.977365 -0.185566 0.101600
0.088092 0.751653 0.128167 -0.028116 0.998895 -0.037661
0.301702 0.398315 0.227908 0.020440 -0.999386 0.028442
0.275533 0.975000 0.206810 -0.029233 0.996646 0.076436
0.239903 0.280306 0.035005 0.000000 0.000000 1.000000
0.525449 0.734990 0.162700 0.024456 -0.997807 0.061510
0.651591 0.378466 0.207745 -0.999550 0.000000 0.029990
0.025016 0.234189 0.121693 -0.787501 0.000000 -0.616313
0.251460 0.955771 0.127054 0.988654 0.130036 0.075198
0.070379 0.398315 0.144383 -0.071884 -0.994798 -0.072179
0.362241 0.580013 0.225157 0.000000 0.000000 -1.000000
0.449163 0.756542 0.187978 -0.965020 -0.183873 0.186887
0.635501 0.277523 0.318328 0.022756 0.060765 -0.997893
0.106708 0.445886 0.041381 -0.011610 -0.018148 0.999768
0.601001 0.398315 0.286963 0.034581 -0.998013 0.052679
0.084425 0.314569 0.025000 -0.345282 0.000000 -0.938499
0.661595 0.232295 0.053179 0.004392 0.000000 -0.999990
0.617262 0.066135 0.331645 -0.121841 0.944982 0.303585
0.035021 0.224552 0.219176 0.999439 0.000000 0.033477
0.030242 0.398315 0.317323 -0.014324 -0.999103 0.039842
0.188809 0.110603 0.035005 0.000000 0.000000 1.000000
0.062060 0.750100 0.041381 -0.049076 0.040966 0.997955
0.292589 0.501427 0.026143 -0.025126 -0.039034 -0.998922
0.425246 0.680650 0.026143 0.009121 0.006636 -0.999936
0.399754 0.464122 0.026143 -0.011651 -0.034355 -0.999342
0.035021 0.376786 0.059058 0.999953 0.000000 0.009657
0.025016 0.087111 0.268238 -0.986636 0.000000 -0.162938
0.025016 0.457643 0.144774 -0.996556 0.048550 -0.067217
0.476018 0.574984 0.190837 0.021994 -0.996716 0.077931
0.025016 0.611701 0.069891 -0.980706 0.120485 -0.153942
0.395677 0.542110 0.026143 -0.003629 -0.020749 -0.999778
0.611279 0.415012 0.141881 -0.699786 -0.713987 0.022855
0.242610 0.431674 0.155760 0.100817 0.994729 -0.018717
0.579815 0.431674 0.160198 -0.014836 0.996845 0.077972
0.651591 0.200034 0.166979 -0.999722 0.000000 0.023591
0.075974 0.268091 0.331645 -0.026219 -0.065122 0.997533
0.378848 0.083010 0.035005 0.000000 0.000000 1.000000
0.277401 0.887301 0.026143 -0.000741 0.027332 -0.999626
0.123280 0.069447 0.025016 -0.234271 0.940304 -0.246871
0.661595 0.823546 0.025238 0.814053 -0.575767 -0.076221
0.181718 0.192247 0.331645 -0.029871 -0.102063 0.994329
0.099175 0.415012 0.135387 0.547915 -0.834720 -0.055066
0.368882 0.025000 0.200392 -0.054822 -0.998180 0.025139
0.427432 0.662904 0.041381 0.009172 -0.012500 0.999880
0.234563 0.878668 0.114860 -0.998550 0.046434 -0.027237
0.428427 0.078335 0.100815 -0.060551 0.994330 -0.087416
0.060402 0.742623 0.224992 -0.129106 -0.792547 0.595987
0.224378 0.725415 0.026143 -0.011373 -0.005971 -0.999918
0.552605 0.574984 0.097662 0.023863 -0.999515 0.020032
0.573790 0.796204 0.041381 0.018748 -0.004104 0.999816
0.230864 0.431674 0.116015 0.092074 0.994712 -0.045509
0.462247 0.574984 0.195091 0.021169 -0.996557 0.080162
0.069311 0.199224 0.035005 0.000000 0.000000 1.000000
0.361149 0.439960 0.026143 -0.020697 -0.042809 -0.998869
0.238310 0.398315 0.222830 0.011621 -0.999709 0.021132
0.514597 0.507287 0.041381 0.014257 -0.047379 0.998775
0.661595 0.163037 0.086407 0.295298 0.000000 -0.955405
0.644933 0.886208 0.069378 -0.973437 -0.227768 -0.023275
0.661595 0.149446 0.200672 -0.293389 0.000000 -0.955993
0.661595 0.753506 0.056872 0.877101 -0.479265 -0.031585
0.336943 0.092134 0.318328 -0.014075 -0.129042 -0.991539
0.530973 0.574984 0.119243 0.023157 -0.999177 0.033304
0.076324 0.221911 0.318328 -0.065597 -0.155485 -0.985658
0.364896 0.438344 0.026143 -0.020261 -0.042702 -0.998882
0.567398 0.858176 0.026143 0.017615 0.050576 -0.998565
0.449163 0.918702 0.043163 -0.983559 0.162239 -0.079313
0.268850 0.958337 0.061273 -0.290830 -0.953266 -0.081861
0.405653 0.591648 0.122887 0.000482 0.999943 -0.010635
0.035021 0.259088 0.159638 0.999670 0.000000 0.025694
0.644933 0.436916 0.056128 -0.613494 -0.787910 -0.053136
0.589205 0.751653 0.112456 0.029787 0.998793 0.039056
0.466060 0.935696 0.089656 0.997649 0.066727 -0.015597
0.441132 0.025000 0.037996 -0.079632 -0.984432 -0.156692
0.384033 0.420957 0.041162 0.005091 -0.051721 0.998649
0.655105 0.907631 0.224992 0.100090 -0.958540 0.266802
0.546223 0.847728 0.026143 0.016309 0.046748 -0.998774
0.120831 0.420957 0.040666 -0.014978 -0.029511 0.999452
0.661595 0.120495 0.314248 -0.953138 0.000000 -0.302535
0.025016 0.319011 0.309378 -0.987019 0.000000 -0.160604
0.251460 0.623795 0.220723 0.995442 0.013121 0.094466
0.316505 0.147517 0.331645 -0.023571 -0.096332 0.995070
0.575216 0.343412 0.331645 0.047458 0.091077 0.994712
0.404861 0.025000 0.203003 -0.048256 -0.998437 0.028207
0.449163 0.782070 0.132919 -0.993495 -0.097889 0.058188
0.142338 0.761985 0.026143 -0.020791 -0.008106 -0.999751
0.025016 0.079163 0.210734 -0.952083 0.000000 -0.305838
0.635115 0.150334 0.025000 -0.023616 0.000000 -0.999721
0.364712 0.465902 0.041381 0.004700 -0.039833 0.999195
0.040224 0.669455 0.224992 0.749325 -0.652000 0.115793
0.056003 0.078335 0.272307 -0.098335 0.989468 0.106225
0.643011 0.840838 0.033231 0.296698 0.358501 -0.885125
0.643011 0.594010 0.033762 0.823700 -0.566875 -0.013083
0.213487 0.737888 0.026143 -0.011774 -0.004884 -0.999919
0.125650 0.219924 0.025000 -0.424651 0.000000 -0.905357
0.658914 0.098086 0.035005 0.000000 0.000000 1.000000
0.493315 0.398315 0.302004 0.026225 -0.998178 0.054340
0.121046 0.398315 0.216710 -0.026961 -0.999588 -0.009802
0.368707 0.157052 0.025000 -0.205355 0.000000 -0.978688
0.594415 0.958337 0.058361 0.539604 -0.841879 0.008173
0.176517 0.540135 0.041381 -0.006964 -0.008944 0.999936
0.025016 0.211409 0.073078 -0.686725 0.000000 -0.726918
0.074947 0.734990 0.220750 -0.005645 -0.996651 0.081582
0.025016 0.866874 0.110491 -0.805401 -0.589095 -0.065548
0.069466 0.025000 0.307801 -0.188449 -0.971718 0.142303
0.058529 0.189303 0.035005 0.000000 0.000000 1.000000
0.129537 0.604736 0.026143 -0.040436 -0.037765 -0.998468
0.160231 0.085011 0.331645 -0.043967 -0.151329 0.987505
0.280094 0.591648 0.209831 0.009485 0.996275 0.085709
0.413657 0.941454 0.041381 -0.012565 0.038046 0.999197
0.041679 0.539937 0.031769 0.726083 -0.651364 -0.220292
0.334282 0.215022 0.025000 -0.168878 0.000000 -0.985637
0.271745 0.050971 0.025016 -0.383154 -0.140780 -0.912893
0.090662 0.161817 0.035005 0.000000 0.000000 1.000000
0.350212 0.025000 0.166114 -0.055441 -0.998370 -0.013572
0.356135 0.463518 0.041381 0.004153 -0.039404 0.999215
0.661595 0.783734 0.089886 0.770216 -0.637096 0.029587
0.651591 0.237334 0.246004 -0.999432 0.000000 0.033705
0.620507 0.135707 0.331645 0.000749 -0.030025 0.999549
0.402219 0.415012 0.278644 0.073181 0.996697 0.035207
0.661595 0.366485 0.180415 0.838423 0.000000 -0.545020
0.594493 0.025591 0.331645 -0.042289 -0.983665 0.174971
0.462231 0.415012 0.139583 0.097284 0.992422 -0.075066
0.338381 0.734990 0.062750 -0.013538 -0.997193 -0.073637
0.538464 0.165498 0.035005 0.000000 0.000000 1.000000
0.039567 0.025000 0.159563 -0.136043 -0.990444 -0.022626
0.145919 0.425250 0.225157 0.000000 0.000000 -1.000000
0.661595 0.279759 0.311330 0.896940 0.000000 0.442152
0.571990 0.544739 0.026143 0.018726 -0.002165 -0.999822
0.449163 0.700904 0.188704 -0.999022 0.023488 0.037464
0.661595 0.382381 0.280904 0.966749 0.000000 0.255726
0.661595 0.234160 0.121881 -0.515618 0.000000 -0.856818
0.449163 0.853579 0.069485 -0.996546 0.055248 -0.061999
0.036556 0.238325 0.325744 -0.283693 -0.720180 0.633135
0.025405 0.266558 0.035005 0.000000 0.000000 1.000000
0.234563 0.687742 0.136089 -0.998365 0.056083 -0.011059
0.405080 0.676699 0.026143 0.007860 0.004005 -0.999961
0.557059 0.545033 0.041381 0.017034 -0.045104 0.998837
0.628953 0.415012 0.187096 -0.802050 -0.594037 0.061924
0.035021 0.285618 0.132602 0.999770 0.000000 0.021430
0.041679 0.801659 0.063971 0.901507 -0.431224 -0.036476
0.619904 0.975000 0.164830 0.137339 0.984216 0.111611
0.571935 0.701057 0.041381 0.018385 -0.020073 0.999629
0.449163 0.808716 0.126539 -0.998250 -0.055846 0.019448
0.482811 0.415012 0.030756 -0.252754 -0.957010 -0.142293
0.365998 0.641615 0.041381 0.005243 -0.010141 0.999935
0.025016 0.363556 0.178320 -0.804709 0.000000 -0.593670
0.242040 0.227140 0.025000 -0.269640 0.000000 -0.962961
0.363126 0.206824 0.331645 -0.002149 0.077564 0.996985
0.643011 0.815109 0.034012 0.509144 0.450302 0.733485
0.037450 0.078335 0.223964 -0.125024 0.990753 0.052709
0.641801 0.372744 0.318328 0.054174 0.190977 -0.980099
0.491644 0.078335 0.176267 -0.052802 0.998602 -0.002606
0.041679 0.693763 0.071051 0.840906 -0.536197 -0.073282
0.496831 0.415012 0.272524 0.106385 0.993028 0.050779
0.169905 0.778099 0.041381 -0.034461 0.034553 0.998809
0.135636 0.398315 0.132392 -0.056575 -0.996234 -0.065704
0.546259 0.690331 0.026143 0.016728 0.020043 -0.999659
0.300456 0.751653 0.149041 -0.008875 0.999942 -0.006097
0.251460 0.790382 0.153700 0.997974 -0.063546 0.003082
0.165185 0.822325 0.041381 -0.040167 0.043012 0.998267
0.025016 0.447147 0.203660 -0.966799 -0.255394 -0.008591
0.377022 0.078335 0.201290 -0.057562 0.998010 0.025735
0.576907 0.734990 0.144298 0.027440 -0.998295 0.051512
0.415153 0.751653 0.123376 0.002361 0.999977 -0.006407
0.644933 0.742894 0.053277 -0.909788 -0.412009 -0.050348
0.373836 0.390700 0.035005 0.000000 0.000000 1.000000
0.574249 0.398315 0.309950 0.030768 -0.997808 0.058592
0.072590 0.582214 0.224992 -0.073142 -0.885674 0.458511
0.054740 0.078335 0.036264 -0.197608 0.967825 -0.155773
0.352582 0.975000 0.154564 -0.046685 0.998655 0.022567
0.067329 0.316746 0.331645 -0.014713 -0.001185 0.999891
0.644933 0.773736 0.050665 -0.926448 -0.372869 -0.051600
0.658894 0.958337 0.150542 0.459220 -0.881766 0.107732
0.506506 0.359045 0.318328 0.010741 0.115072 -0.993299
0.661595 0.228585 0.069507 0.097301 0.000000 -0.995255
0.463435 0.078335 0.173039 -0.052137 0.998620 -0.006263
0.152602 0.574984 0.075231 -0.042510 -0.991739 -0.121021
0.461713 0.415012 0.102001 -0.250135 -0.968130 -0.012523
0.041679 0.478055 0.069378 0.680022 -0.712390 -0.173407
0.634544 0.430720 0.026143 0.022958 -0.015423 -0.999617
0.025016 0.937511 0.184013 -0.462136 -0.882967 0.082457
0.294085 0.361831 0.331645 0.007558 0.063234 0.997970
0.554556 0.751653 0.102483 0.019856 0.999752 0.010056
0.311576 0.431674 0.220530 0.042979 0.995150 0.088479
0.369212 0.855401 0.041381 -0.010284 0.027281 0.999575
0.286180 0.751357 0.026143 0.000170 0.005118 -0.999987
0.623562 0.235459 0.331645 0.012033 -0.010025 0.999877
0.210568 0.078335 0.161828 -0.099982 0.994827 -0.017986
0.656235 0.305937 0.331645 0.054105 0.045248 0.997509
0.553870 0.197525 0.025000 -0.077573 0.000000 -0.996987
0.388659 0.415012 0.151803 0.057868 0.995263 -0.078123
0.661595 0.086554 0.092064 -0.214144 0.000000 -0.976802
0.090638 0.453217 0.026143 -0.063667 -0.069101 -0.995576
0.449163 0.870412 0.066253 -0.994759 0.079828 -0.063888
0.398256 0.398315 0.057396 -0.005727 -0.998282 -0.058307
0.086310 0.078335 0.277435 -0.087057 0.989926 0.111657
0.318056 0.574984 0.151146 0.009094 -0.998911 0.045763
0.208431 0.104950 0.331645 -0.037612 -0.134132 0.990249
0.661595 0.212982 0.047280 0.000574 0.000000 -1.000000
0.035021 0.081467 0.261144 0.999324 0.000000 0.036759
0.128118 0.025000 0.186570 -0.121168 -0.992598 0.008212
0.606635 0.958337 0.106243 0.558765 -0.827986 0.047126
0.025016 0.087648 0.153122 -0.891440 0.000000 -0.453138
0.524366 0.340014 0.331645 0.027147 0.090760 0.995503
0.644933 0.478337 0.072210 -0.692992 -0.719890 -0.038995
0.158512 0.431674 0.149974 0.105592 0.994087 -0.025328
0.632629 0.181580 0.025000 -0.058698 0.000000 -0.998276
0.651591 0.304961 0.073255 -0.999918 0.000000 0.012773
0.299254 0.415012 0.056383 -0.244371 0.959636 -0.139216
0.241982 0.958337 0.044952 -0.457621 -0.879513 -0.130536
0.460937 0.753708 0.206523 0.934794 -0.263968 0.237659
0.393788 0.025000 0.290311 -0.085351 -0.988428 0.125403
0.558766 0.092715 0.035005 0.000000 0.000000 1.000000
0.515345 0.415012 0.122313 0.116176 0.990115 -0.078580
0.661595 0.153068 0.255097 -0.875827 0.000000 -0.482624
0.596894 0.919349 0.026143 0.019306 0.063800 -0.997776
0.085222 0.958337 0.041009 -0.798717 -0.581513 -0.154577
0.322784 0.345068 0.331645 0.008249 0.052446 0.998590
0.136336 0.142572 0.331645 -0.039409 -0.131383 0.990548
0.536367 0.751653 0.153698 0.035290 0.995545 0.087433
0.280642 0.975000 0.060705 -0.101416 0.992794 -0.063837
0.589383 0.525882 0.026143 0.019871 -0.003674 -0.999796
0.269452 0.415012 0.308095 0.025968 0.999156 0.031834
0.061365 0.286819 0.025000 -0.410795 0.000000 -0.911728
0.237183 0.398315 0.077974 -0.047179 -0.995620 -0.080710
0.025016 0.031833 0.075511 -0.159408 -0.975244 -0.153259
0.244543 0.431674 0.075329 0.081167 0.994093 -0.072043
0.179523 0.398315 0.334114 0.002934 -0.998437 0.055811
0.644933 0.477392 0.180144 -0.862690 -0.502684 0.055450
0.584624 0.274740 0.025000 -0.163778 0.000000 -0.986497
0.499049 0.591648 0.047882 -0.001709 0.997265 -0.073893
0.045629 0.347372 0.318328 0.007856 0.038744 -0.999218
0.413973 0.078335 0.309401 -0.077936 0.986126 0.146568
0.606907 0.958337 0.222123 0.567196 -0.811316 0.141615
0.346218 0.799730 0.026143 0.003827 0.019162 -0.999809
0.251460 0.928996 0.082813 0.998079 0.051123 -0.034984
0.651591 0.119225 0.074699 -0.999937 0.000000 0.011248
0.661595 0.068801 0.109986 -0.045166 0.991767 -0.119828
0.430040 0.458865 0.041381 0.008798 -0.047374 0.998838
0.470697 0.591648 0.041492 -0.003995 0.996852 -0.079179
0.466060 0.613727 0.075992 0.979893 -0.192019 -0.054213
0.661595 0.071614 0.259955 -0.101851 0.987278 0.122098
0.058859 0.415012 0.278348 -0.128333 0.991410 -0.025234
0.251460 0.709993 0.109308 0.995964 0.089639 0.004592
0.241450 0.431674 0.204423 0.076129 0.996002 0.046732
0.342888 0.300733 0.318328 0.017102 0.040164 -0.999047
0.195774 0.591648 0.208586 -0.006088 0.998577 0.052974
0.065794 0.025000 0.197023 -0.144258 -0.989347 0.019560
0.025016 0.197408 0.157866 -0.875898 0.000000 -0.482497
0.105815 0.286887 0.035005 0.000000 0.000000 1.000000
0.241303 0.431674 0.100835 0.087621 0.994621 -0.055242
0.025016 0.150959 0.136302 -0.856893 0.000000 -0.515493
0.323266 0.418064 0.225157 0.000000 0.000000 -1.000000
0.628763 0.958337 0.127898 0.585477 -0.808185 0.063674
0.385374 0.761822 0.026143 0.006395 0.016535 -0.999843
0.025016 0.954871 0.203599 -0.360640 -0.925351 0.116894
0.644933 0.550350 0.104986 -0.823471 -0.567299 -0.008171
0.035021 0.166142 0.234488 0.999402 0.000000 0.034593
0.512528 0.958337 0.107812 0.440338 -0.896310 0.052248
0.523252 0.958337 0.083953 0.452377 -0.891272 0.031448
0.449163 0.699119 0.097014 -0.990372 0.132685 -0.039471
0.357141 0.574984 0.091613 0.000316 -0.999808 -0.019612
0.621589 0.415012 0.204661 -0.819414 -0.567857 0.078099
0.353018 0.591648 0.108269 -0.009843 0.999143 -0.040213
0.452431 0.753708 0.162578 -0.924110 -0.308311 0.225753
0.449654 0.591648 0.109338 0.003459 0.999853 -0.016784
0.328123 0.415012 0.205312 0.048941 0.997720 -0.046480
0.281732 0.431627 0.025000 0.067977 0.992145 -0.105014
0.131673 0.133608 0.035005 0.000000 0.000000 1.000000
0.651591 0.377392 0.307262 -0.999107 0.000000 0.042252
0.557557 0.431674 0.117620 0.017133 0.999777 0.012352
0.146710 0.975000 0.224144 -0.089029 0.993898 0.065122
0.095732 0.958337 0.164080 -0.334835 -0.939256 0.075384
0.587811 0.112930 0.318328 -0.009264 -0.010838 -0.999898
0.462504 0.431674 0.146215 0.033511 0.999095 0.026208
0.534209 0.958337 0.084002 0.466983 -0.883717 0.031165
0.025016 0.082287 0.145057 -0.882433 0.000000 -0.470438
0.156035 0.398315 0.061298 -0.078894 -0.990704 -0.110824
0.354195 0.415012 0.028528 -0.225758 0.962058 -0.153225
0.501921 0.574984 0.074133 0.019286 -0.999811 0.002637
0.185565 0.083947 0.025000 -0.536952 0.000000 -0.843612
0.526555 0.078335 0.313556 -0.078807 0.985370 0.151113
0.464154 0.398315 0.243962 0.029562 -0.998877 0.037026
0.489439 0.427956 0.225157 0.000000 0.000000 -1.000000
0.440354 0.166704 0.318328 0.012090 0.019839 -0.999730
0.449462 0.794297 0.041100 -0.996110 0.001864 -0.088101
0.640031 0.038295 0.331645 -0.071868 -0.942568 0.326192
0.105165 0.874355 0.041381 -0.055817 0.058725 0.996713
0.041679 0.811956 0.045343 0.906841 -0.415851 -0.068613
0.165047 0.751653 0.101397 -0.023628 0.998360 -0.052136
0.527079 0.247601 0.318328 0.005445 -0.002801 -0.999981
0.466060 0.678630 0.050682 0.995074 -0.062704 -0.076782
0.172743 0.309032 0.035005 0.000000 0.000000 1.000000
0.041679 0.597259 0.161296 0.765517 -0.640751 0.058503
0.603289 0.591648 0.095922 0.026277 0.999509 0.017059
0.369737 0.323708 0.025000 -0.220410 0.000000 -0.975407
0.661595 0.594788 0.158867 0.904511 -0.418294 0.083002
0.598009 0.961803 0.025000 0.649922 -0.754411 -0.092003
0.420151 0.415012 0.132870 0.063224 0.994207 -0.086916
0.129426 0.530062 0.026143 -0.048769 -0.051205 -0.997497
0.466060 0.693728 0.083825 0.998497 0.015535 -0.052553
0.254027 0.398315 0.192662 0.004339 -0.999984 0.003648
0.075057 0.415012 0.110534 0.584667 -0.803467 -0.112270
0.651591 0.227159 0.158177 -0.999742 0.000000 0.022734
0.348541 0.061029 0.025016 -0.188003 0.879536 -0.437116
0.477509 0.734990 0.141143 0.020168 -0.998760 0.045520
0.025016 0.700595 0.044726 -0.982029 0.042376 -0.183911
0.025016 0.610010 0.072412 -0.982589 0.108326 -0.150945
0.661595 0.311639 0.080580 0.042238 0.000000 -0.999108
0.647471 0.415012 0.211671 0.160318 0.986607 0.030072
0.234563 0.727379 0.190974 -0.995775 0.086232 0.031551
0.068378 0.660717 0.041381 -0.038075 0.024214 0.998981
0.280798 0.308349 0.035005 0.000000 0.000000 1.000000
0.041679 0.741965 0.092175 0.868101 -0.496323 -0.008044
0.025000 0.138651 0.032490 -1.000000 0.000000 0.000000
0.352797 0.751653 0.048712 -0.012181 0.996790 -0.079125
0.035021 0.099931 0.175565 0.999650 0.000000 0.026449
0.025016 0.543054 0.089733 -0.975585 0.177213 -0.129729
0.448825 0.574984 0.048248 0.001041 -0.998368 -0.057091
0.263212 0.591648 0.035370 -0.019132 0.995635 -0.091350
