0.975000 0.506956 0.334881 0.998474 -0.000780 0.055209
0.297723 0.055526 0.403294 -0.022134 0.989524 0.142661
0.830123 0.576684 0.347520 0.010065 -0.998279 0.057781
0.274425 0.708934 0.055526 0.005652 0.028871 0.999567
0.068717 0.025000 0.173721 -0.036191 -0.999254 0.013461
0.877154 0.606760 0.040263 0.034878 0.993394 -0.109326
0.171112 0.210100 0.040263 0.000527 -0.996994 -0.077472
0.055526 0.631305 0.309413 0.999601 0.025214 0.012760
0.702698 0.442921 0.055526 0.025940 0.018252 0.999497
0.055526 0.753557 0.236062 0.999164 0.037204 -0.016919
0.390260 0.228622 0.055526 -0.027357 -0.029160 0.999200
0.055526 0.652173 0.162957 0.998655 0.029673 -0.042511
0.948625 0.227444 0.408053 0.113116 0.968982 0.219726
0.246161 0.638613 0.025000 -0.014477 0.030068 -0.999443
0.215111 0.760579 0.270610 -0.038995 -0.998022 0.049304
0.975000 0.475304 0.294619 0.999590 0.003026 0.028468
0.468418 0.208895 0.335981 -0.025097 -0.997335 0.068502
0.550808 0.141865 0.025000 0.001638 -0.028048 -0.999605
0.717150 0.423316 0.209123 0.019205 0.998997 -0.040440
0.326176 0.025000 0.198090 -0.014377 -0.999778 0.015430
0.686915 0.734008 0.055526 0.056079 0.076912 0.995460
0.939205 0.191734 0.025000 0.032779 0.001842 -0.999461
0.330414 0.055526 0.275201 -0.014314 0.999083 0.040354
0.108844 0.239421 0.357431 -0.036919 0.988996 0.143261
0.766481 0.239421 0.095521 0.024115 0.996347 -0.081926
0.426971 0.791105 0.321165 -0.007634 0.998339 0.057107
0.820863 0.239421 0.283889 0.026290 0.999516 -0.016607
0.404551 0.760579 0.082411 0.019652 -0.996314 -0.083497
0.476239 0.128534 0.055526 -0.027687 -0.037581 0.998910
0.785001 0.760579 0.331929 0.008202 -0.998516 0.053832
0.945866 0.359083 0.055526 0.044875 0.026147 0.998650
0.641077 0.208895 0.307269 -0.002243 -0.998697 0.050982
0.657857 0.208895 0.135884 0.038120 -0.995063 -0.091632
0.944474 0.425486 0.359148 -0.995674 0.006898 0.092654
0.025000 0.177371 0.273922 -0.999693 -0.024433 0.004125
0.391839 0.760579 0.182196 -0.004771 -0.999966 0.006693
0.354119 0.790554 0.049069 0.035594 0.100873 0.994262
0.260727 0.274661 0.025000 -0.019847 -0.030107 -0.999350
0.028882 0.749674 0.055526 -0.017298 0.016004 0.999722
0.944474 0.398771 0.082534 -0.997723 -0.022632 -0.063527
0.463198 0.025000 0.220684 -0.004538 -0.999780 0.020497
0.060551 0.423316 0.332670 -0.040228 0.990205 0.133698
0.941722 0.025000 0.165932 0.065801 -0.989693 -0.127191
0.025000 0.079667 0.169838 -0.997566 -0.063138 -0.029593
0.599827 0.025000 0.119272 0.034886 -0.994996 -0.093625
0.025000 0.115954 0.273125 -0.999349 -0.035767 0.004720
0.959737 0.589828 0.165056 0.357736 -0.613969 -0.703610
0.657015 0.208895 0.221638 0.018163 -0.999715 -0.015464
0.923819 0.208895 0.245019 0.045336 -0.997560 -0.053100
0.272580 0.791105 0.250216 -0.018417 0.999311 0.032226
0.228293 0.111374 0.025000 -0.025618 -0.061584 -0.997773
0.148598 0.248186 0.025000 -0.029627 -0.044557 -0.998567
0.661315 0.025552 0.047436 -0.019314 -0.116570 0.992995
0.453012 0.392789 0.151362 0.009635 -0.999404 -0.033140
0.512305 0.607211 0.191400 0.003839 0.999134 -0.041419
0.496815 0.392789 0.285629 -0.012993 -0.998831 0.046569
0.814101 0.423316 0.103984 0.027641 0.996398 -0.080165
0.025000 0.605964 0.172285 -0.999571 0.023779 -0.017082
0.409069 0.760579 0.198437 -0.005986 -0.999898 0.012929
0.204420 0.423316 0.153966 -0.020571 0.999403 -0.027750
0.038945 0.201477 0.040263 -0.711814 -0.270576 -0.648159
0.180933 0.239421 0.043507 -0.019738 0.996174 -0.085135
0.975000 0.613743 0.090279 0.997234 0.027603 -0.069010
0.975000 0.673926 0.397502 0.997615 0.016839 0.066946
0.687349 0.055526 0.135154 0.017709 0.997671 -0.065875
0.334483 0.025000 0.315598 -0.035036 -0.997317 0.064281
0.904317 0.208895 0.350483 0.018374 -0.998841 0.044478
0.975000 0.354519 0.052633 0.996903 0.005693 -0.078434
0.521144 0.407815 0.040263 0.209139 -0.001694 -0.977884
0.480120 0.046634 0.025000 -0.006016 -0.050938 -0.998684
0.291914 0.760579 0.274965 -0.031952 -0.998304 0.048670
0.656707 0.025000 0.274954 0.005815 -0.999485 0.031553
0.247971 0.055526 0.351538 -0.024526 0.993270 0.113197
0.042115 0.208895 0.405045 -0.081000 -0.990550 0.110681
0.944474 0.610413 0.079672 -0.997609 0.015294 -0.067404
0.379436 0.576684 0.322299 -0.031675 -0.997340 0.065642
0.572215 0.239421 0.105589 0.009277 0.997263 -0.073356
0.913072 0.239421 0.159410 0.034586 0.997407 -0.063112
0.435642 0.791105 0.071400 -0.000728 0.996640 -0.081901
0.559785 0.668824 0.055526 0.034239 0.050227 0.998151
0.055526 0.736392 0.094780 0.996850 0.038203 -0.069506
0.547465 0.055526 0.235770 0.006044 0.999628 -0.026597
0.944474 0.739722 0.343142 -0.989265 0.031699 0.142653
0.025000 0.697753 0.113267 -0.998492 0.031780 -0.044774
0.413369 0.036338 0.025000 -0.011731 -0.058574 -0.998214
0.603840 0.760579 0.169086 0.023861 -0.998445 -0.050388
0.944474 0.478239 0.332692 -0.996518 0.011423 0.082594
0.361000 0.208895 0.261945 -0.022517 -0.998905 0.041017
0.708956 0.239421 0.363088 0.015411 0.999220 0.036361
0.812080 0.607211 0.079897 0.027729 0.995680 -0.088615
0.912997 0.179617 0.055526 0.021305 -0.014456 0.999669
0.330273 0.055526 0.396997 -0.019051 0.991069 0.131984
0.943125 0.025000 0.191231 0.060166 -0.992637 -0.105130
0.109880 0.210901 0.055526 -0.055916 -0.035197 0.997815
0.554873 0.407160 0.040263 0.219072 -0.241298 -0.945401
0.973114 0.026471 0.354681 0.967953 -0.121343 0.219870
0.632154 0.143523 0.025000 0.008396 -0.020642 -0.999752
0.398629 0.691050 0.055526 0.018041 0.038077 0.999112
0.959737 0.037972 0.051611 0.305988 -0.568439 -0.763707
0.055526 0.311525 0.103995 0.998287 0.001030 -0.058489
0.525016 0.760579 0.048973 0.041932 -0.989377 -0.139195
0.911163 0.423316 0.149207 0.034546 0.997177 -0.066675
0.260935 0.239421 0.215566 -0.018066 0.999803 0.008210
0.025000 0.278964 0.094937 -0.997455 -0.041944 -0.057663
0.821509 0.607211 0.182106 0.027408 0.998233 -0.052714
0.287166 0.210341 0.055526 -0.038876 -0.032528 0.998714
0.375983 0.708303 0.025000 -0.004818 0.037434 -0.999287
0.958867 0.025000 0.287267 0.039780 -0.998939 -0.023212
0.747352 0.071054 0.025000 0.016543 -0.023284 -0.999592
0.944474 0.556961 0.161981 -0.999195 0.020065 -0.034751
0.550327 0.576684 0.334342 -0.016444 -0.997737 0.065198
0.607365 0.686848 0.055526 0.041721 0.058905 0.997391
0.678959 0.791105 0.149465 0.016925 0.998019 -0.060591
0.551702 0.760579 0.242314 0.000643 -0.999673 0.025550
0.060355 0.392789 0.273585 -0.055331 -0.996925 0.055485
0.944474 0.291145 0.085385 -0.997266 -0.041644 -0.061049
0.824175 0.576684 0.055674 0.076441 -0.977241 -0.197881
0.942014 0.201189 0.055526 0.027038 -0.006986 0.999610
0.509639 0.025000 0.225208 -0.000503 -0.999807 0.019617
0.390520 0.219144 0.040263 0.064624 -0.922411 -0.380764
0.344584 0.392789 0.378084 -0.045396 -0.994908 0.089985
0.962198 0.578379 0.055526 0.070830 0.073276 0.994793
0.563432 0.791105 0.315272 0.004559 0.999616 0.027320
0.794346 0.593983 0.408053 0.070176 0.851835 0.519089
0.079942 0.239421 0.323017 -0.038173 0.991685 0.122899
0.944474 0.238113 0.284630 -0.999913 -0.011225 0.006879
0.844799 0.118168 0.055526 0.006957 -0.032887 0.999435
0.271317 0.025000 0.081939 0.003633 -0.998489 -0.054837
0.826005 0.337581 0.055526 0.028623 0.009227 0.999548
0.576087 0.055526 0.061152 0.010028 0.995968 -0.089148
0.325276 0.132620 0.055526 -0.041894 -0.039508 0.998341
0.339206 0.187695 0.025000 -0.015001 -0.038511 -0.999146
0.483450 0.779674 0.025000 0.003250 0.044656 -0.998997
0.761397 0.716685 0.025000 0.022815 0.042919 -0.998818
0.975000 0.649005 0.067393 0.996455 0.031070 -0.078173
0.627694 0.412197 0.055526 0.013884 0.004097 0.999895
0.900136 0.423316 0.162733 0.033572 0.997536 -0.061604
0.885460 0.423316 0.106925 0.033021 0.996170 -0.080961
0.529983 0.576684 0.303778 -0.012931 -0.998506 0.053089
0.358699 0.025000 0.406381 -0.049096 -0.993646 0.101279
0.665574 0.760579 0.198123 0.024655 -0.998968 -0.038155
0.944474 0.061896 0.199133 -0.997979 -0.060481 -0.019466
0.415466 0.423316 0.086564 -0.002417 0.997103 -0.076025
0.218058 0.392789 0.109742 -0.009151 -0.999782 -0.018772
0.360046 0.607211 0.332479 -0.013954 0.996849 0.078080
0.120574 0.607211 0.391935 -0.037151 0.985310 0.166687
0.825100 0.760579 0.360203 0.006824 -0.997719 0.067161
0.269501 0.054455 0.025000 -0.023283 -0.067955 -0.997417
0.396694 0.239421 0.180748 -0.004824 0.999098 -0.042197
0.522575 0.239421 0.141541 0.005137 0.998224 -0.059350
0.089959 0.025000 0.043821 -0.009470 -0.998756 -0.048956
0.922003 0.647205 0.055526 0.073707 0.083323 0.993793
0.055526 0.156642 0.236107 0.997205 -0.046326 0.058611
0.209238 0.303751 0.025000 -0.023557 -0.029503 -0.999287
0.975000 0.247359 0.097732 0.998208 -0.004448 -0.059678
0.025000 0.645325 0.076002 -0.997390 0.020898 -0.069111
0.699724 0.607211 0.300591 0.016918 0.999828 -0.007554
0.055526 0.144159 0.097048 0.998223 -0.013439 -0.058048
0.025000 0.690765 0.114288 -0.998483 0.031216 -0.045357
0.613156 0.760579 0.074228 0.046842 -0.989570 -0.136222
0.943883 0.025000 0.178447 0.063198 -0.991165 -0.116612
0.628618 0.037400 0.040263 0.191654 -0.678269 -0.709380
0.959737 0.214059 0.195014 0.098523 -0.979789 -0.174090
0.501558 0.423316 0.100044 0.003974 0.997288 -0.073490
0.831594 0.651337 0.025000 0.027496 0.038404 -0.998884
0.710780 0.576684 0.393169 -0.010837 -0.996359 0.084569
0.956392 0.343014 0.408053 -0.762721 -0.120519 0.635398
0.283083 0.101218 0.025000 -0.021279 -0.058581 -0.998056
0.923712 0.446213 0.025000 0.033013 0.022635 -0.999199
0.064003 0.760579 0.191961 -0.040017 -0.998973 0.021240
0.764699 0.188185 0.055526 0.005266 -0.027309 0.999613
0.055051 0.392789 0.131675 -0.029870 -0.999547 -0.003680
0.055526 0.433381 0.103064 0.998068 0.011665 -0.061019
0.869296 0.791105 0.394528 0.028148 0.999144 0.030321
0.382876 0.476190 0.025000 -0.005907 0.015941 -0.999856
0.215897 0.392789 0.155830 -0.017886 -0.999839 0.001287
0.096834 0.760579 0.181129 -0.034678 -0.999276 0.015661
0.070541 0.055526 0.243907 -0.035979 0.997232 0.065068
0.975000 0.760171 0.395066 0.998473 0.034574 0.043076
0.273266 0.790554 0.033641 0.007810 0.135941 -0.990686
0.126354 0.423316 0.374627 -0.036022 0.987596 0.152826
0.422229 0.055526 0.340673 -0.008814 0.997315 0.072700
0.975000 0.110643 0.133718 0.999397 -0.029491 -0.018343
0.523810 0.607211 0.260811 0.003217 0.999975 -0.006358
0.760268 0.222155 0.055526 0.008329 -0.021465 0.999735
0.055526 0.455740 0.193319 0.999546 0.012003 -0.027623
0.513654 0.526199 0.055526 0.013228 0.015870 0.999787
0.055526 0.419407 0.193600 0.999600 0.008829 -0.026868
0.391727 0.423316 0.344164 -0.011628 0.996646 0.080997
0.183935 0.405694 0.040263 -0.022858 -0.858573 -0.512181
0.444790 0.423316 0.314722 -0.005817 0.998785 0.048935
0.055526 0.702061 0.253785 0.999431 0.032395 -0.009354
0.098934 0.166799 0.055526 -0.060762 -0.039653 0.997364
0.038066 0.789634 0.219416 -0.962465 0.261577 -0.072377
0.656959 0.791105 0.282901 0.013860 0.999823 -0.012718
0.055526 0.470530 0.145941 0.998858 0.014140 -0.045641
0.595057 0.570511 0.025000 0.010143 0.028803 -0.999534
0.395791 0.639968 0.025000 -0.003760 0.032048 -0.999479
0.055526 0.656202 0.349765 0.999221 0.025255 0.030337
0.830853 0.392789 0.189312 0.046888 -0.995512 -0.082203
0.801529 0.576684 0.062286 0.072263 -0.979633 -0.187344
0.364059 0.423316 0.359283 -0.014644 0.995127 0.097506
0.733257 0.760579 0.295753 0.010281 -0.999392 0.033309
0.683295 0.553935 0.055526 0.035905 0.039255 0.998584
0.074862 0.423316 0.266805 -0.036487 0.996000 0.081567
0.770241 0.607211 0.160129 0.023743 0.997965 -0.059175
0.662291 0.423316 0.132887 0.015831 0.997692 -0.066031
0.597582 0.210899 0.408053 -0.025977 -0.993098 0.114376
0.055526 0.607665 0.365355 0.998362 0.011692 0.056010
0.869577 0.239421 0.054754 0.032331 0.994568 -0.098944
0.246175 0.025000 0.166100 -0.016679 -0.999850 0.004613
0.116870 0.055526 0.219472 -0.030928 0.998801 0.037949
0.944474 0.085792 0.259386 -0.999031 -0.044018 0.000512
0.944474 0.381816 0.349911 -0.997041 0.003626 0.076784
0.426438 0.760579 0.357947 -0.033387 -0.996315 0.078999
0.078286 0.065288 0.055526 -0.071460 -0.049829 0.996198
0.406796 0.164371 0.055526 -0.031298 -0.035162 0.998891
0.112436 0.239421 0.346656 -0.036208 0.990242 0.134571
0.691109 0.239421 0.266805 0.016622 0.999675 -0.019309
0.043477 0.789340 0.055526 -0.012167 0.021534 0.999694
0.941189 0.025000 0.384190 0.015042 -0.997706 0.066009
0.498302 0.791105 0.308908 -0.000895 0.999401 0.034606
0.773272 0.606824 0.040263 0.026549 0.994026 -0.105861
0.944474 0.095528 0.303453 -0.999327 -0.033371 0.015225
0.273169 0.791105 0.187067 -0.015850 0.999754 -0.015542
0.959737 0.761669 0.125479 0.083895 -0.979814 -0.181453
0.580661 0.607211 0.137377 0.009589 0.998010 -0.062330
0.563460 0.054913 0.040263 0.010843 0.994636 -0.102864
0.025000 0.347206 0.163720 -0.999249 -0.015697 -0.035441
0.807085 0.055526 0.361809 0.024001 0.999563 0.017238
0.975000 0.394067 0.162284 0.999246 0.007181 -0.038150
0.339702 0.055526 0.309121 -0.014829 0.997824 0.064245
0.673543 0.576684 0.163743 0.033595 -0.996954 -0.070389
0.148511 0.086207 0.025000 -0.032680 -0.072941 -0.996801
0.950790 0.518089 0.040263 -0.990608 0.010753 -0.136312
0.090829 0.423316 0.349024 -0.038184 0.989370 0.140319
0.715831 0.760579 0.257276 0.017062 -0.999849 0.003230
0.814942 0.576684 0.181848 0.046670 -0.995259 -0.085336
0.605074 0.055526 0.132539 0.011492 0.997840 -0.064673
0.385020 0.055526 0.171746 -0.005616 0.998967 -0.045085
0.718441 0.576684 0.093456 0.055219 -0.988287 -0.142263
0.792101 0.576684 0.237027 0.031067 -0.999026 -0.031326
0.912118 0.025000 0.184530 0.057923 -0.992861 -0.104269
0.106010 0.392789 0.221268 -0.041101 -0.998637 0.032159
0.940936 0.791105 0.400432 0.034127 0.999185 0.021558
0.588996 0.576684 0.179682 0.019603 -0.999095 -0.037759
0.645959 0.055526 0.397614 0.008560 0.997219 0.074029
0.390689 0.576684 0.180434 -0.004566 -0.999972 0.005994
0.743443 0.791105 0.396683 0.017112 0.998326 0.055248
0.975000 0.648353 0.145200 0.998354 0.029654 -0.049092
0.841011 0.423316 0.236466 0.028322 0.999022 -0.033947
0.889388 0.576684 0.242381 0.041730 -0.997981 -0.047890
0.507920 0.375519 0.055526 -0.003351 -0.013034 0.999909
0.526279 0.576684 0.365557 -0.024598 -0.996572 0.078982
0.254935 0.415372 0.025000 -0.017651 -0.005904 -0.999827
0.715438 0.791105 0.102536 0.020173 0.996739 -0.078133
0.055526 0.490746 0.275863 0.999906 0.010819 0.008432
0.070814 0.522884 0.055526 -0.032807 -0.005420 0.999447
0.097676 0.025000 0.342514 -0.064073 -0.994485 0.083027
0.310350 0.791105 0.393237 -0.020650 0.990921 0.132849
0.055526 0.228773 0.383112 0.983549 -0.068795 0.167031
0.397500 0.575998 0.025000 -0.003974 0.026793 -0.999633
0.644893 0.423316 0.259442 0.013192 0.999698 -0.020725
0.069559 0.025000 0.225062 -0.045517 -0.998353 0.034909
0.507563 0.576684 0.164338 0.013255 -0.999349 -0.033562
0.055526 0.060615 0.236825 0.994310 -0.065953 0.083653
0.587383 0.098183 0.025000 0.003835 -0.032515 -0.999464
0.589304 0.055526 0.041857 0.011227 0.995290 -0.096289
0.922528 0.607211 0.393899 0.032786 0.999262 0.020015
0.611709 0.376290 0.055526 0.008093 -0.004990 0.999955
0.959737 0.773132 0.315452 0.243938 -0.961102 -0.129528
0.793700 0.576684 0.189301 0.042348 -0.996354 -0.074061
0.166118 0.181181 0.025000 -0.029443 -0.054778 -0.998064
0.736119 0.576684 0.263887 0.017999 -0.999827 0.004660
0.959737 0.399109 0.088102 0.139753 -0.935004 -0.325940
0.164405 0.208895 0.202590 -0.031714 -0.999244 0.022480
0.486657 0.423316 0.139835 0.002429 0.998254 -0.059026
0.089735 0.239421 0.316327 -0.037064 0.992549 0.116075
0.536465 0.760579 0.051533 0.042733 -0.989308 -0.139442
0.567557 0.607211 0.248094 0.007440 0.999714 -0.022747
0.958643 0.423316 0.391396 0.035571 0.999207 0.017909
0.601398 0.055526 0.080907 0.011745 0.996494 -0.082831
0.947893 0.237820 0.025000 0.033644 0.005750 -0.999417
0.460514 0.166332 0.055526 -0.025947 -0.034143 0.999080
0.639561 0.423316 0.284225 0.012408 0.999872 -0.010119
0.862085 0.576684 0.233480 0.040457 -0.997939 -0.049813
0.291018 0.772203 0.055526 0.014514 0.043703 0.998939
0.975000 0.453737 0.402194 0.991527 -0.028453 0.126747
0.067454 0.607211 0.227509 -0.035608 0.997947 0.053237
0.944474 0.745755 0.261777 -0.996176 0.033499 0.080687
0.151862 0.055526 0.220931 -0.027897 0.999081 0.032539
0.531162 0.055526 0.242471 0.004571 0.999759 -0.021488
0.662126 0.180481 0.055526 -0.005283 -0.029649 0.999546
0.152623 0.790554 0.043557 -0.025060 0.187085 0.982024
0.025000 0.342664 0.191669 -0.999604 -0.010900 -0.025947
0.752854 0.174527 0.025000 0.018952 -0.004652 -0.999810
0.439964 0.607211 0.284854 -0.005068 0.999615 0.027288
0.243565 0.208895 0.147625 -0.013560 -0.999904 -0.003021
0.938887 0.692428 0.025000 0.035383 0.043117 -0.998443
0.829899 0.055526 0.382720 0.025181 0.999270 0.028735
0.928505 0.607211 0.190760 0.035437 0.997997 -0.052409
0.914271 0.620170 0.055526 0.069867 0.076945 0.994584
0.896403 0.760579 0.347071 0.018203 -0.998901 0.043190
0.341470 0.791105 0.059064 -0.007739 0.996451 -0.083815
0.460953 0.208895 0.382596 -0.034361 -0.995514 0.088155
0.443668 0.791105 0.057223 0.000028 0.996199 -0.087111
0.378791 0.576684 0.118587 0.008198 -0.998912 -0.045915
0.048401 0.607211 0.147063 -0.034066 0.999411 -0.004091
0.558156 0.760579 0.368027 -0.021798 -0.996637 0.078988
0.184272 0.239421 0.313353 -0.028655 0.994938 0.096319
0.444425 0.208895 0.189750 -0.000231 -0.999997 0.002566
0.975000 0.315903 0.252494 0.999307 -0.018326 0.032390
0.880773 0.025000 0.139027 0.064531 -0.988386 -0.137585
0.405477 0.423316 0.077730 -0.003082 0.996879 -0.078887
0.611738 0.075444 0.055526 -0.019190 -0.040658 0.998989
0.055526 0.249781 0.113323 0.998536 -0.004517 -0.053893
0.139331 0.031388 0.055526 -0.068498 -0.052191 0.996285
0.435175 0.165422 0.055526 -0.028470 -0.034622 0.998995
0.415719 0.055526 0.285393 -0.007218 0.999456 0.032197
0.707048 0.392789 0.157760 0.039066 -0.995781 -0.083036
0.310210 0.760579 0.286863 -0.032261 -0.998070 0.053057
0.025000 0.109176 0.113312 -0.996403 -0.069107 -0.049047
0.164545 0.392789 0.070883 -0.006698 -0.999122 -0.041348
0.025000 0.515480 0.243470 -0.999668 0.015668 0.020430
0.087031 0.355581 0.025000 -0.032689 -0.031088 -0.998982
0.347980 0.760579 0.379835 -0.045367 -0.994853 0.090602
0.550131 0.791105 0.091884 0.007743 0.996952 -0.077628
0.941357 0.607211 0.083477 0.037488 0.995175 -0.090668
0.139964 0.239421 0.262854 -0.030599 0.997319 0.066465
0.670344 0.576684 0.370564 -0.010829 -0.997014 0.076453
0.025552 0.560916 0.033795 -0.103521 0.025870 -0.994291
0.040263 0.399434 0.064654 -0.039739 -0.996692 -0.070897
0.281693 0.751682 0.055526 0.011184 0.038482 0.999197
0.975000 0.646327 0.393416 0.997441 0.012360 0.070411
0.381821 0.791105 0.057044 -0.004659 0.996321 -0.085573
0.055526 0.733597 0.073835 0.996274 0.038320 -0.077269
0.694224 0.760579 0.186562 0.030831 -0.998028 -0.054679
0.143864 0.791105 0.136165 -0.025185 0.999234 -0.029962
0.149084 0.423316 0.382821 -0.034341 0.987359 0.154737
0.974448 0.289416 0.054425 0.044564 0.016920 0.998863
0.975000 0.424903 0.234703 0.999914 0.008006 -0.010386
0.585179 0.423316 0.310625 0.006643 0.999782 0.019788
0.718525 0.392789 0.247421 0.019675 -0.999788 -0.006060
0.165920 0.423316 0.292722 -0.029475 0.996014 0.084189
0.175472 0.207843 0.055526 -0.049860 -0.034488 0.998161
0.040263 0.232146 0.285864 -0.092914 0.983281 0.156603
0.952787 0.625236 0.025000 0.036028 0.037753 -0.998637
0.108592 0.025000 0.157603 -0.029162 -0.999560 0.005449
0.844659 0.025000 0.244525 0.035751 -0.998706 -0.036176
0.770859 0.790680 0.040263 0.026499 0.993989 -0.106229
0.025552 0.291588 0.049291 -0.101604 -0.041440 0.993961
0.944474 0.336609 0.391295 -0.994996 -0.000521 0.099914
0.896431 0.239421 0.199448 0.032913 0.998281 -0.048501
0.683208 0.581110 0.025000 0.016510 0.030773 -0.999390
0.588996 0.239421 0.316305 0.006755 0.999704 0.023359
0.354153 0.055526 0.339483 -0.014744 0.996319 0.084450
0.483178 0.791105 0.110202 0.002473 0.997584 -0.069420
0.055526 0.737649 0.110247 0.997240 0.038044 -0.063752
0.471252 0.392789 0.281363 -0.014821 -0.998850 0.045605
0.318319 0.392789 0.407323 -0.053375 -0.993254 0.102949
0.781900 0.544083 0.055526 0.046236 0.047465 0.997802
0.818646 0.760579 0.086092 0.068992 -0.982957 -0.170397
0.866238 0.791105 0.299457 0.029567 0.999488 -0.012260
0.181129 0.423316 0.337339 -0.029846 0.992926 0.114923
0.858989 0.298545 0.025000 0.027605 0.009652 -0.999572
0.169854 0.524331 0.055526 -0.023129 -0.003754 0.999725
0.025000 0.345389 0.107845 -0.998155 -0.027264 -0.054256
0.332799 0.760579 0.084184 0.010550 -0.997746 -0.066263
0.923258 0.208895 0.090683 0.080534 -0.978685 -0.188918
0.325026 0.239421 0.072590 -0.009128 0.996863 -0.078614
0.121377 0.324833 0.025000 -0.030429 -0.033484 -0.998976
0.268893 0.041334 0.025000 -0.023580 -0.070303 -0.997247
0.043738 0.654956 0.025000 -0.030558 0.017680 -0.999377
0.085385 0.208895 0.206665 -0.040530 -0.998821 0.026708
0.587789 0.423316 0.371910 0.004478 0.997844 0.065484
0.975000 0.227236 0.325991 0.991440 -0.054838 0.118484
0.055526 0.728310 0.048423 0.995503 0.038294 -0.086640
0.076434 0.025000 0.222188 -0.044289 -0.998457 0.033488
0.606477 0.607211 0.236960 0.010511 0.999561 -0.027703
0.306279 0.121040 0.055526 -0.044722 -0.040926 0.998161
0.864470 0.576684 0.085430 0.074654 -0.980674 -0.180846
0.944474 0.347392 0.129194 -0.998635 -0.022608 -0.047088
0.784973 0.576684 0.201681 0.038410 -0.997389 -0.061152
0.269970 0.208895 0.333557 -0.044892 -0.996260 0.073827
0.025000 0.436339 0.387546 -0.993127 0.007313 0.116814
0.170635 0.423316 0.207496 -0.025705 0.999491 0.018883
0.288499 0.705478 0.055526 0.006898 0.029618 0.999537
0.070878 0.760579 0.156750 -0.032856 -0.999440 0.006295
0.460308 0.423316 0.318797 -0.004615 0.998782 0.049126
0.025000 0.116466 0.298290 -0.999444 -0.030604 0.013193
0.040263 0.788886 0.326250 -0.051917 0.987638 0.147903
0.032936 0.789634 0.179827 -0.996224 0.080742 -0.031929
0.309812 0.624535 0.055526 0.000479 0.015070 0.999886
0.264260 0.507381 0.055526 -0.015485 -0.003950 0.999872
0.025000 0.676162 0.385784 -0.986308 0.026025 0.162846
0.547565 0.571772 0.025000 0.006749 0.028315 -0.999576
0.320990 0.463887 0.055526 -0.013762 -0.007312 0.999879
0.386090 0.450812 0.025000 -0.006123 0.011773 -0.999912
0.601819 0.423316 0.168412 0.010873 0.998594 -0.051886
0.414148 0.787794 0.040263 0.005196 0.990815 -0.135127
0.848622 0.772624 0.025000 0.029345 0.048606 -0.998387
0.921742 0.039657 0.040263 0.349536 -0.133200 -0.927406
0.345959 0.576684 0.217530 -0.015919 -0.999610 0.022927
0.705112 0.208895 0.390184 -0.010869 -0.996448 0.083506
0.941290 0.784344 0.025000 0.036030 0.050714 -0.998063
0.808993 0.208895 0.103726 0.063849 -0.986172 -0.152932
0.025000 0.620661 0.049007 -0.996904 0.010994 -0.077860
0.763569 0.237353 0.055526 0.010378 -0.017986 0.999784
0.380646 0.790367 0.055526 0.026868 0.056782 0.998025
0.534978 0.025000 0.386828 -0.027590 -0.995778 0.087555
0.944474 0.517670 0.195194 -0.999723 0.016527 -0.016735
0.381428 0.428353 0.055526 -0.010996 -0.009840 0.999891
0.944474 0.332649 0.178570 -0.999425 -0.015360 -0.030226
0.781017 0.760579 0.350079 0.004186 -0.997918 0.064357
0.944474 0.562923 0.265178 -0.998721 0.019075 0.046832
0.186910 0.208895 0.270285 -0.041814 -0.997870 0.050069
0.829731 0.392789 0.246107 0.033556 -0.998940 -0.031501
0.498050 0.760579 0.116713 0.023096 -0.997019 -0.073620
0.351291 0.055526 0.326687 -0.014497 0.997052 0.075341
0.025000 0.333418 0.272552 -0.999975 0.001003 0.006935
0.464208 0.025000 0.300041 -0.018956 -0.998381 0.053635
0.850388 0.279097 0.055526 0.025008 -0.000359 0.999687
0.279623 0.239421 0.176325 -0.014853 0.999582 -0.024812
0.719226 0.760579 0.401004 -0.011407 -0.996094 0.087554
0.515884 0.427863 0.025000 0.003724 0.016050 -0.999864
0.855462 0.025000 0.102211 0.069806 -0.983934 -0.164322
0.408984 0.791105 0.221627 -0.005298 0.999879 -0.014623
0.040263 0.778954 0.301747 -0.247730 0.898067 0.363463
0.728487 0.208895 0.131910 0.047639 -0.992722 -0.110603
0.874685 0.076751 0.055526 0.006271 -0.036457 0.999316
0.723800 0.607211 0.338697 0.017648 0.999728 0.015261
0.548279 0.576684 0.110012 0.030750 -0.995418 -0.090536
0.877182 0.576684 0.184171 0.053739 -0.993840 -0.096928
0.944474 0.425719 0.241348 -0.999962 0.008667 0.000953
0.146867 0.423316 0.352773 -0.033426 0.990580 0.132796
0.944474 0.342990 0.266266 -0.999991 0.001843 0.003944
0.928577 0.619469 0.055526 0.071440 0.078281 0.994368
0.025000 0.420292 0.396537 -0.992686 0.005925 0.120576
0.143107 0.576684 0.183700 -0.030426 -0.999421 0.015260
0.350586 0.774398 0.055526 0.021640 0.050351 0.998497
0.054490 0.423316 0.115108 -0.032216 0.999051 -0.029309
0.831739 0.548635 0.055526 0.052502 0.053588 0.997182
0.877041 0.423316 0.376535 0.029507 0.999446 0.015378
0.635942 0.607211 0.098484 0.014185 0.996890 -0.077516
0.975000 0.533694 0.224916 0.999686 0.018234 -0.017170
0.661758 0.423316 0.077562 0.016356 0.996198 -0.085570
0.304934 0.791105 0.227060 -0.014650 0.999855 0.008724
0.721405 0.062603 0.025000 0.014239 -0.027036 -0.999533
0.334258 0.791105 0.339988 -0.016510 0.995937 0.088522
0.055526 0.666473 0.200828 0.999134 0.030246 -0.028575
0.975000 0.719646 0.166268 0.998467 0.035495 -0.042473
0.814381 0.403135 0.040263 0.181040 -0.831223 -0.525636
0.944474 0.752322 0.215790 -0.998337 0.034711 0.046035
0.552348 0.025000 0.150824 0.021819 -0.998231 -0.055304
0.065023 0.349978 0.025000 -0.034616 -0.033996 -0.998822
0.428880 0.239421 0.309402 -0.007005 0.998829 0.047875
0.143096 0.589819 0.055526 -0.020064 0.002210 0.999796
0.264695 0.025000 0.347385 -0.047949 -0.995661 0.079755
0.678546 0.644660 0.055526 0.045323 0.057563 0.997313
0.324697 0.775986 0.055526 0.018822 0.047988 0.998671
0.701857 0.791105 0.289288 0.017200 0.999785 -0.011615
0.858633 0.025000 0.176752 0.053184 -0.993622 -0.099435
0.056426 0.607211 0.051476 -0.029398 0.996579 -0.077240
0.975000 0.132816 0.347486 0.983822 -0.079168 0.160706
0.462581 0.791105 0.283440 -0.003029 0.999753 0.022023
0.975000 0.110713 0.040521 0.996791 -0.015307 -0.078570
0.944474 0.762384 0.160005 -0.999332 0.036289 0.004392
0.975000 0.376738 0.334612 0.995757 -0.026885 0.088011
0.381429 0.791105 0.145122 -0.005611 0.998502 -0.054423
0.060860 0.760579 0.191288 -0.040215 -0.998969 0.021059
0.130199 0.025000 0.098282 -0.016080 -0.999671 -0.020004
0.270672 0.025000 0.092782 0.001065 -0.998980 -0.045133
0.914677 0.750608 0.025000 0.033954 0.047609 -0.998289
0.133800 0.614403 0.025000 -0.023879 0.018432 -0.999545
0.650702 0.239421 0.062488 0.015671 0.995764 -0.090599
0.263073 0.091506 0.055526 -0.051426 -0.044462 0.997687
0.592475 0.055526 0.292745 0.007974 0.999956 0.004975
0.025000 0.245123 0.386390 -0.996930 -0.007574 0.077931
0.428346 0.576684 0.274640 -0.017968 -0.998862 0.044169
0.371929 0.682225 0.055526 0.013985 0.033472 0.999342
0.878753 0.423316 0.053070 0.033044 0.994461 -0.099775
0.920143 0.208895 0.162632 0.063928 -0.990046 -0.125385
0.342845 0.791105 0.066719 -0.007715 0.996672 -0.081149
0.431377 0.760579 0.380767 -0.037041 -0.995402 0.088337
0.963965 0.526502 0.025000 0.036312 0.029754 -0.998897
0.963328 0.736063 0.055526 0.088098 0.105849 0.990472
0.917730 0.603321 0.040263 0.057363 0.985144 -0.161869
0.944474 0.482105 0.079032 -0.997795 -0.008169 -0.065866
0.367819 0.397426 0.040263 0.032170 -0.984890 -0.170165
0.044557 0.576684 0.166672 -0.037365 -0.999238 0.011284
0.040263 0.781660 0.080402 -0.085241 0.986759 -0.137986
0.070757 0.285494 0.025000 -0.035361 -0.044812 -0.998369
0.701773 0.760579 0.321434 0.001352 -0.998488 0.054949
0.907768 0.607211 0.273136 0.033001 0.999198 -0.022667
0.975000 0.601889 0.246366 0.999663 0.023795 -0.010346
0.163760 0.576684 0.057279 -0.003678 -0.998580 -0.053156
0.883467 0.239421 0.142484 0.032512 0.997132 -0.068339
0.107708 0.042291 0.025000 -0.036865 -0.084160 -0.995770
0.047184 0.025552 0.037855 -0.310588 -0.420262 -0.852593
0.912903 0.392789 0.052868 0.087617 -0.971755 -0.219125
0.385916 0.346289 0.025000 -0.008124 -0.006581 -0.999945
0.487836 0.791105 0.373718 -0.004350 0.996338 0.085393
0.292929 0.052050 0.025000 -0.021392 -0.066333 -0.997568
0.393243 0.434026 0.055526 -0.009367 -0.009106 0.999915
0.460813 0.607211 0.196024 -0.000118 0.999261 -0.038445
0.944474 0.334233 0.209538 -0.999765 -0.008839 -0.019798
0.287116 0.055526 0.315429 -0.019698 0.996697 0.078781
0.162020 0.760579 0.122033 -0.017187 -0.999791 -0.011109
0.231274 0.392789 0.115534 -0.008887 -0.999824 -0.016543
0.153012 0.607211 0.381519 -0.033951 0.987635 0.153052
0.025000 0.725888 0.215476 -0.998646 0.032631 0.040507
0.090304 0.296210 0.025000 -0.033542 -0.041224 -0.998587
0.040263 0.396975 0.388590 -0.103763 -0.983474 0.148366
0.947112 0.026471 0.353121 -0.996877 -0.052546 0.058954
0.612174 0.604723 0.040263 0.020879 0.991482 -0.128561
0.080783 0.607211 0.119148 -0.030058 0.999064 -0.031121
0.839973 0.791105 0.220258 0.028412 0.998809 -0.039666
0.718244 0.208895 0.325834 0.002225 -0.998414 0.056257
0.779642 0.685961 0.025000 0.023960 0.040614 -0.998888
0.656370 0.762058 0.040263 0.065188 -0.978469 -0.195831
0.620676 0.392789 0.234266 0.010831 -0.999935 0.003582
0.967990 0.426205 0.055526 0.054822 0.042371 0.997597
0.444369 0.576684 0.275078 -0.016413 -0.998904 0.043839
0.293457 0.392789 0.187101 -0.015702 -0.999806 0.011882
0.581784 0.576684 0.218585 0.009735 -0.999951 -0.001804
0.448467 0.225657 0.025000 -0.005239 -0.022290 -0.999738
0.679464 0.025000 0.210425 0.023496 -0.999265 -0.030289
0.943546 0.055526 0.315171 0.035263 0.999340 -0.008688
0.239300 0.055526 0.326699 -0.024335 0.995069 0.096149
0.719956 0.791105 0.058828 0.020957 0.995383 -0.093671
0.806660 0.462346 0.025000 0.024723 0.022513 -0.999441
0.414625 0.760579 0.100998 0.016592 -0.997459 -0.069278
0.055526 0.481453 0.117263 0.998277 0.015603 -0.056569
0.319694 0.576684 0.212322 -0.017645 -0.999611 0.021588
0.944474 0.376133 0.344276 -0.997452 0.003267 0.071269
0.222096 0.509459 0.025000 -0.018576 0.007739 -0.999798
0.944474 0.275005 0.261047 -0.999956 -0.009256 -0.001589
0.867669 0.239421 0.302577 0.029642 0.999498 -0.011191
0.711588 0.759083 0.025000 0.019472 0.045794 -0.998761
0.487331 0.791105 0.080368 0.003099 0.996784 -0.080072
0.055526 0.120472 0.133998 0.999408 -0.027580 -0.020568
0.025000 0.738488 0.099001 -0.998237 0.035173 -0.047807
0.025000 0.439437 0.326811 -0.997491 0.008476 0.070285
0.857396 0.500471 0.055526 0.050182 0.046272 0.997668
0.944474 0.158692 0.061040 -0.995233 -0.070567 -0.067322
0.819460 0.208895 0.152631 0.053958 -0.992220 -0.112199
0.055526 0.776102 0.248622 0.999162 0.038942 -0.012612
0.482195 0.392789 0.328012 -0.022236 -0.997654 0.064739
0.975000 0.193977 0.144639 0.999435 -0.015495 -0.029833
0.174951 0.334779 0.025000 -0.025807 -0.027053 -0.999301
0.954097 0.239421 0.112369 0.038168 0.995999 -0.080798
0.752394 0.760579 0.092378 0.059573 -0.986802 -0.150578
0.570475 0.607211 0.085408 0.009353 0.996715 -0.080444
0.857165 0.293642 0.025000 0.027449 0.009225 -0.999581
0.055526 0.525891 0.362987 0.997199 -0.004074 0.074680
0.447484 0.576684 0.351628 -0.030089 -0.996677 0.075697
0.203533 0.397325 0.025000 -0.022251 -0.013568 -0.999660
0.793571 0.422703 0.055526 0.034237 0.023507 0.999137
0.876115 0.055526 0.056628 0.032809 0.994601 -0.098454
0.208854 0.208895 0.316866 -0.048081 -0.996470 0.068816
0.163255 0.791105 0.333220 -0.031256 0.992858 0.115138
0.087069 0.392789 0.237700 -0.046045 -0.998153 0.039637
0.486201 0.095358 0.025000 -0.004589 -0.041860 -0.999113
0.059990 0.791105 0.250912 -0.037181 0.996688 0.072327
0.055526 0.331229 0.265694 0.999030 -0.018588 0.039927
0.118638 0.423316 0.182375 -0.029288 0.999525 0.009554
0.284473 0.406827 0.055526 -0.022202 -0.013432 0.999663
0.147260 0.423316 0.170376 -0.026276 0.999643 -0.004822
0.959737 0.407569 0.155987 0.445859 -0.103084 -0.889147
0.750795 0.760579 0.103816 0.056780 -0.988493 -0.140209
0.797797 0.025000 0.104691 0.062276 -0.986774 -0.149660
0.686133 0.773978 0.055526 0.060356 0.085080 0.994544
0.604205 0.791105 0.187808 0.010852 0.998925 -0.045072
0.148772 0.653415 0.025000 -0.021892 0.026572 -0.999407
0.762104 0.791105 0.146098 0.023269 0.997683 -0.063931
0.198958 0.492860 0.025000 -0.020809 0.002805 -0.999780
0.288126 0.607211 0.122213 -0.012448 0.998114 -0.060114
0.144173 0.055526 0.406796 -0.035635 0.984218 0.173334
0.263460 0.607211 0.383528 -0.024384 0.990647 0.134253
0.373263 0.208895 0.197674 -0.009497 -0.999860 0.013753
0.582878 0.025000 0.062106 0.045941 -0.989047 -0.140268
0.901443 0.479039 0.055526 0.052925 0.046408 0.997520
0.884113 0.576684 0.169871 0.057879 -0.992121 -0.111111
0.681484 0.423316 0.073701 0.017891 0.996009 -0.087441
0.944474 0.532017 0.396570 -0.989657 0.014632 0.142708
0.678893 0.415349 0.055526 0.020152 0.010064 0.999746
0.975000 0.324311 0.206598 0.999944 -0.005023 -0.009305
0.025000 0.278056 0.228912 -0.999807 -0.015169 -0.012472
0.470410 0.025000 0.212827 -0.002366 -0.999853 0.016983
0.390604 0.607211 0.206609 -0.006317 0.999726 -0.022520
0.470216 0.661096 0.055526 0.023028 0.039312 0.998962
0.764573 0.025000 0.335139 0.005242 -0.998265 0.058653
0.174458 0.603103 0.055526 -0.015895 0.003985 0.999866
0.902521 0.055526 0.057403 0.034800 0.994493 -0.098857
0.278501 0.576684 0.100550 0.000227 -0.999200 -0.039989
0.025000 0.226188 0.346128 -0.999044 -0.008446 0.042883
0.975000 0.495753 0.231089 0.999790 0.014814 -0.014177
0.314615 0.760579 0.124390 -0.000888 -0.999640 -0.026825
0.964318 0.642251 0.040263 0.957123 0.094793 -0.273734
0.898115 0.607211 0.386424 0.030957 0.999342 0.018911
0.944474 0.103400 0.134896 -0.996959 -0.065834 -0.041701
0.959737 0.054469 0.181758 0.042745 0.996940 -0.065443
0.564651 0.471007 0.025000 0.007443 0.020216 -0.999768
0.368917 0.419178 0.025000 -0.008145 0.004726 -0.999956
0.667455 0.334779 0.025000 0.014087 0.010258 -0.999848
0.944474 0.077780 0.071490 -0.994568 -0.083136 -0.062635
0.025000 0.156759 0.050332 -0.994806 -0.073053 -0.070886
0.663076 0.239421 0.260531 0.014560 0.999677 -0.020808
0.297723 0.208895 0.206059 -0.018740 -0.999631 0.019671
0.579511 0.239421 0.122819 0.009652 0.997676 -0.067451
0.799363 0.339962 0.025000 0.023557 0.012327 -0.999647
0.473665 0.392789 0.193106 0.002525 -0.999996 -0.000810
0.947699 0.423316 0.280735 0.035950 0.999133 -0.021005
0.139515 0.423316 0.199122 -0.028117 0.999436 0.018337
0.975000 0.381979 0.351471 0.994406 -0.030093 0.101243
0.721926 0.086790 0.055526 -0.007587 -0.037848 0.999255
0.944474 0.037581 0.244693 -0.998438 -0.055736 -0.003763
0.602037 0.123655 0.025000 0.005529 -0.026763 -0.999627
0.335409 0.760579 0.101548 0.006870 -0.998649 -0.051501
0.732724 0.392789 0.040701 0.068827 -0.979132 -0.191216
0.740866 0.758522 0.025000 0.021564 0.046111 -0.998704
0.547774 0.423316 0.278321 0.004630 0.999986 0.002386
0.930526 0.760579 0.238935 0.047574 -0.997065 -0.059986
0.369643 0.055526 0.338361 -0.013340 0.996647 0.080727
0.391895 0.025000 0.329000 -0.031627 -0.997181 0.068038
0.850243 0.791105 0.131181 0.030107 0.996988 -0.071481
0.538570 0.760579 0.251001 -0.002400 -0.999524 0.030757
0.854413 0.557717 0.025000 0.028640 0.030970 -0.999110
0.180989 0.208895 0.330717 -0.053445 -0.995714 0.075474
0.146025 0.055526 0.340561 -0.033043 0.991754 0.123823
0.328618 0.423316 0.322983 -0.016345 0.996915 0.076763
0.318712 0.208895 0.206631 -0.016703 -0.999675 0.019240
0.944474 0.736531 0.204802 -0.998847 0.033624 0.034278
0.563724 0.383854 0.025000 0.006918 0.013015 -0.999891
0.620817 0.607211 0.395717 0.006435 0.996990 0.077267
0.384852 0.055526 0.099618 -0.004875 0.997492 -0.070616
0.946163 0.186245 0.408053 -0.994324 -0.019556 0.104584
0.755706 0.392789 0.375267 -0.002993 -0.997128 0.075673
0.975000 0.502135 0.121988 0.998327 0.017321 -0.055170
0.759634 0.392789 0.098877 0.058976 -0.987456 -0.146465
0.025552 0.400407 0.027630 -0.048324 -0.030373 -0.998370
0.213961 0.208895 0.304216 -0.045253 -0.996963 0.063376
0.102032 0.790554 0.054855 -0.005886 0.029603 0.999544
0.566765 0.379091 0.025000 0.007111 0.012660 -0.999895
0.144775 0.165305 0.025000 -0.031505 -0.059423 -0.997736
0.209976 0.025000 0.112290 -0.010515 -0.999805 -0.016696
0.559223 0.576684 0.106970 0.032782 -0.994878 -0.095618
0.874404 0.208895 0.186147 0.052942 -0.994110 -0.094564
0.944474 0.358525 0.202063 -0.999726 -0.005921 -0.022661
0.183374 0.392789 0.112335 -0.013234 -0.999787 -0.015833
0.886789 0.526689 0.055526 0.056461 0.054760 0.996902
0.191484 0.025000 0.137747 -0.017062 -0.999839 -0.005488
0.079184 0.791105 0.280679 -0.036639 0.995156 0.091226
0.053424 0.055526 0.198538 -0.035698 0.998787 0.033917
0.126074 0.239421 0.217856 -0.030050 0.998935 0.035011
0.178165 0.180247 0.025000 -0.028464 -0.053890 -0.998141
0.083393 0.055526 0.359395 -0.039211 0.987999 0.149397
0.975000 0.137567 0.088708 0.998037 -0.013846 -0.061077
0.025000 0.049715 0.316911 -0.999031 -0.038987 0.020399
0.941806 0.025000 0.324588 0.028973 -0.999488 0.013594
0.539949 0.706599 0.025000 0.006911 0.039337 -0.999202
0.372132 0.248676 0.055526 -0.027378 -0.027486 0.999247
0.573983 0.791105 0.259723 0.007638 0.999836 -0.016428
0.372225 0.025000 0.224602 -0.014534 -0.999581 0.025043
0.789922 0.662007 0.025000 0.024570 0.038767 -0.998946
0.025000 0.306378 0.041195 -0.995956 -0.047727 -0.076115
0.055526 0.617936 0.340606 0.999286 0.019941 0.032100
0.465471 0.055526 0.241247 -0.001122 0.999946 -0.010298
0.529141 0.239421 0.267939 0.003405 0.999992 -0.001982
0.826560 0.791105 0.336879 0.026152 0.999656 0.002026
0.533056 0.545950 0.025000 0.005574 0.026005 -0.999646
0.806921 0.543079 0.025000 0.025165 0.029174 -0.999258
0.859365 0.571562 0.025000 0.029067 0.032173 -0.999060
0.025000 0.451944 0.261148 -0.999713 0.010431 0.021581
0.975000 0.029685 0.386917 0.969510 -0.109166 0.219392
0.389903 0.576684 0.082894 0.017766 -0.996647 -0.079874
0.602858 0.607211 0.320783 0.007792 0.999678 0.024165
0.025000 0.601912 0.329303 -0.994290 0.021155 0.104592
0.137298 0.576684 0.385514 -0.067830 -0.992710 0.099625
0.957857 0.055526 0.122201 0.038356 0.996260 -0.077423
0.025000 0.151565 0.255098 -0.999456 -0.032920 -0.001859
0.954322 0.764592 0.055526 0.090148 0.110768 0.989749
0.721471 0.239421 0.250833 0.019095 0.999486 -0.025759
0.175966 0.760579 0.065945 -0.004193 -0.998830 -0.048177
0.944474 0.291122 0.059625 -0.996469 -0.046810 -0.069708
0.351542 0.415465 0.025000 -0.009653 0.002556 -0.999950
0.772894 0.219890 0.025000 0.021029 0.002094 -0.999777
0.666051 0.208895 0.262697 0.009768 -0.999776 0.018785
0.051180 0.296444 0.025000 -0.036773 -0.044601 -0.998328
0.071383 0.239421 0.137276 -0.031632 0.999376 -0.015736
0.025000 0.463636 0.376052 -0.993509 0.009619 0.113343
0.396638 0.760579 0.371506 -0.038895 -0.995571 0.085592
0.944474 0.225559 0.078191 -0.996526 -0.055007 -0.062531
0.463367 0.791105 0.228148 -0.000793 0.999805 -0.019752
0.478576 0.055526 0.244850 -0.000116 0.999950 -0.010008
0.335745 0.392789 0.406919 -0.051529 -0.993425 0.102230
0.975000 0.605196 0.225297 0.999533 0.024463 -0.018305
0.842801 0.622411 0.025000 0.028147 0.036159 -0.998950
0.590034 0.607211 0.110315 0.010580 0.997338 -0.072148
0.975000 0.506723 0.076832 0.997224 0.018519 -0.072125
0.873001 0.760579 0.044338 0.084743 -0.972276 -0.217939
0.328225 0.607211 0.388736 -0.018916 0.991824 0.126200
0.795337 0.546207 0.055526 0.048024 0.049302 0.997629
0.944474 0.642018 0.379016 -0.988264 0.023483 0.150937
0.577294 0.760579 0.048670 0.048323 -0.987382 -0.150805
0.810483 0.627033 0.055526 0.058640 0.067611 0.995987
0.055526 0.327386 0.176527 0.999499 0.001111 -0.031619
0.137536 0.613539 0.025000 -0.023586 0.018607 -0.999549
0.781101 0.025000 0.320076 0.010462 -0.998963 0.044323
0.055526 0.161766 0.058559 0.997286 -0.011193 -0.072767
0.055526 0.650193 0.219371 0.999366 0.028494 -0.021332
0.505907 0.025000 0.283507 -0.011678 -0.998901 0.045390
0.536763 0.364546 0.055526 -0.001516 -0.013658 0.999906
0.944474 0.789168 0.256838 -0.995651 0.036990 0.085503
0.517019 0.055526 0.352459 -0.000960 0.997951 0.063972
0.400714 0.424827 0.025000 -0.005407 0.008493 -0.999949
0.384852 0.055526 0.125569 -0.005147 0.998098 -0.061436
0.238851 0.392789 0.109956 -0.006702 -0.999711 -0.023091
0.944474 0.295245 0.166964 -0.999134 -0.024506 -0.033617
0.219433 0.239421 0.373661 -0.027861 0.990453 0.135003
0.959737 0.403971 0.064351 0.236482 -0.782808 -0.575576
0.630301 0.055526 0.232840 0.012363 0.999480 -0.029781
0.219124 0.025000 0.211794 -0.027815 -0.999311 0.024582
0.066725 0.423316 0.319796 -0.039211 0.991640 0.122933
0.463507 0.055526 0.361270 -0.005997 0.996733 0.080546
0.025000 0.425392 0.080200 -0.997739 -0.018256 -0.064686
0.049603 0.789634 0.211301 0.997012 0.065267 -0.041314
0.531087 0.433279 0.025000 0.004841 0.016686 -0.999849
0.484406 0.621967 0.025000 0.002490 0.031668 -0.999495
0.654798 0.791105 0.278894 0.013738 0.999806 -0.014083
0.759457 0.147748 0.055526 0.001281 -0.031329 0.999508
0.025000 0.413188 0.123492 -0.998683 -0.011775 -0.049932
0.251983 0.239421 0.313645 -0.022716 0.996210 0.083963
0.471336 0.607211 0.117498 0.001499 0.997783 -0.066535
0.236886 0.038852 0.408053 -0.251742 -0.546345 0.798833
0.355416 0.607211 0.230236 -0.010339 0.999945 0.001763
0.178107 0.405333 0.025000 -0.024204 -0.014386 -0.999604
0.432598 0.752919 0.055526 0.028764 0.054427 0.998103
0.206917 0.025000 0.332984 -0.051216 -0.995822 0.075596
0.262493 0.441941 0.025000 -0.016520 -0.000579 -0.999863
0.916046 0.239421 0.368824 0.032591 0.999408 0.011024
0.451300 0.764481 0.408053 -0.046919 -0.988214 0.145708
0.591582 0.420485 0.055526 0.010621 0.002067 0.999941
0.613012 0.705642 0.055526 0.044435 0.063382 0.997000
0.170270 0.392789 0.314217 -0.051534 -0.996289 0.068941
0.944474 0.444654 0.215252 -0.999823 0.010525 -0.015583
0.249682 0.576684 0.073566 0.002944 -0.998341 -0.057510
0.560822 0.760579 0.267333 -0.003119 -0.999315 0.036870
0.116926 0.791105 0.053755 -0.024694 0.996500 -0.079856
0.513399 0.418358 0.408053 -0.010777 0.985216 0.170976
0.446209 0.076401 0.055526 -0.035073 -0.043119 0.998454
0.158260 0.392789 0.330290 -0.055685 -0.995550 0.076021
0.468389 0.213844 0.408053 -0.047072 -0.985483 0.163116
0.244713 0.213259 0.055526 -0.042719 -0.032897 0.998545
0.954176 0.142272 0.408053 -0.935285 -0.111858 0.335752
0.040790 0.157318 0.040263 0.391080 -0.387275 -0.834910
0.209331 0.208895 0.200267 -0.026701 -0.999442 0.020073
0.884983 0.392789 0.266446 0.035582 -0.999041 -0.025534
0.244295 0.239421 0.164551 -0.017487 0.999478 -0.027146
0.038902 0.776593 0.025000 -0.028618 0.038550 -0.998847
0.263909 0.239421 0.115624 -0.014215 0.997986 -0.061814
0.162093 0.482891 0.055526 -0.027450 -0.007909 0.999592
0.832289 0.608776 0.055526 0.059160 0.066096 0.996058
0.548363 0.423316 0.251708 0.005714 0.999827 -0.017724
0.203823 0.229882 0.025000 -0.025405 -0.042943 -0.998754
0.588194 0.318063 0.025000 0.008067 0.006139 -0.999949
0.852589 0.137499 0.025000 0.026295 -0.003708 -0.999647
0.718525 0.791105 0.204364 0.019359 0.998923 -0.042161
0.409431 0.039396 0.055526 -0.041804 -0.047284 0.998006
0.055526 0.505372 0.333299 0.998527 -0.000699 0.054245
0.959737 0.606477 0.250362 0.040450 0.998495 -0.037039
0.055526 0.220528 0.049692 0.997003 -0.005919 -0.077130
0.160703 0.727728 0.025000 -0.020122 0.036345 -0.999137
0.429413 0.025000 0.246422 -0.012694 -0.999396 0.032337
0.135334 0.607211 0.293935 -0.032211 0.995349 0.090787
0.885712 0.791105 0.343030 0.030573 0.999529 0.002677
0.538486 0.208895 0.375356 -0.025141 -0.996260 0.082669
0.701047 0.373161 0.025000 0.016694 0.013842 -0.999765
0.975000 0.526474 0.253291 0.999833 0.017093 -0.006401
0.944771 0.180469 0.040263 -0.994539 -0.071402 -0.076124
0.624212 0.760579 0.099831 0.042324 -0.992333 -0.116118
0.119648 0.576684 0.290399 -0.052352 -0.996787 0.060617
0.025000 0.456276 0.050949 -0.997015 -0.018511 -0.074955
0.189054 0.380025 0.055526 -0.033718 -0.017513 0.999278
0.257315 0.392789 0.169950 -0.016248 -0.999851 0.005866
0.792915 0.423316 0.270094 0.024316 0.999488 -0.020777
0.055526 0.543406 0.306124 0.999681 0.013733 0.021208
0.975000 0.129509 0.350416 0.983161 -0.080553 0.164029
0.959737 0.592893 0.198707 0.425616 0.509140 -0.748083
0.445379 0.576684 0.076956 0.025862 -0.994925 -0.097234
0.319021 0.043310 0.040263 0.038816 0.853906 -0.518978
0.572917 0.791105 0.302903 0.005871 0.999851 0.016242
0.944474 0.060732 0.348642 -0.999054 -0.030592 0.030917
0.885404 0.607211 0.293822 0.031082 0.999408 -0.014754
0.055526 0.775893 0.322164 0.999182 0.037580 0.014953
0.098268 0.077825 0.025000 -0.036982 -0.078777 -0.996206
0.200828 0.576684 0.069705 -0.002061 -0.998733 -0.050275
0.285979 0.342670 0.055526 -0.027588 -0.019658 0.999426
0.808514 0.466431 0.025000 0.024877 0.022873 -0.999429
0.803677 0.435941 0.055526 0.036865 0.027303 0.998947
0.795580 0.594393 0.040263 0.212304 0.717841 -0.663047
0.110112 0.640505 0.025000 -0.025340 0.020939 -0.999460
0.695375 0.607211 0.075744 0.018924 0.996022 -0.087078
0.025000 0.292380 0.300905 -0.999779 -0.002617 0.020850
0.195721 0.607211 0.225028 -0.024191 0.999330 0.027477
0.191680 0.760579 0.147950 -0.018912 -0.999820 -0.001233
0.349467 0.423316 0.256501 -0.011900 0.999672 0.022687
0.748915 0.576684 0.045202 0.069763 -0.979146 -0.190805
0.753545 0.392789 0.367802 -0.001849 -0.997357 0.072632
0.055526 0.321190 0.226768 0.999903 -0.010744 0.008838
0.040263 0.232039 0.082344 -0.065981 0.992153 -0.106207
0.296897 0.547024 0.055526 -0.008922 0.000411 0.999960
0.027214 0.437410 0.040263 -0.995534 -0.021691 -0.091880
0.119255 0.576684 0.077135 -0.013323 -0.999506 -0.028465
0.493528 0.248886 0.025000 -0.001070 -0.014270 -0.999898
0.126691 0.025000 0.124009 -0.021153 -0.999734 -0.009162
0.975000 0.133398 0.138780 0.999463 -0.026193 -0.019699
0.869296 0.760579 0.306136 0.024413 -0.999617 0.013041
0.365658 0.055526 0.196484 -0.008103 0.999641 -0.025526
0.769989 0.208895 0.301825 0.013330 -0.999439 0.030725
0.359962 0.025000 0.110315 0.007823 -0.998762 -0.049115
0.860626 0.760579 0.322063 0.019654 -0.999388 0.028950
0.089145 0.785262 0.040263 -0.034499 0.989968 -0.137015
0.382607 0.025000 0.105095 0.011767 -0.998208 -0.058666
0.655247 0.423316 0.324083 0.012238 0.999781 0.016947
0.130441 0.323993 0.055526 -0.044199 -0.023873 0.998737
0.800295 0.208895 0.314105 0.014167 -0.999288 0.034970
0.502848 0.760579 0.063823 0.035850 -0.991964 -0.121339
0.025000 0.443932 0.177122 -0.999469 0.004609 -0.032268
0.944474 0.523888 0.086946 -0.997964 0.001025 -0.063777
0.344528 0.423316 0.301432 -0.014104 0.998243 0.057544
0.025000 0.500039 0.123728 -0.998687 0.004081 -0.051055
0.531522 0.522020 0.055526 0.014834 0.016860 0.999748
0.087686 0.576684 0.237790 -0.045998 -0.998154 0.039654
0.431787 0.303098 0.025000 -0.005149 -0.010152 -0.999935
0.144482 0.239421 0.079605 -0.022884 0.997182 -0.071446
0.408002 0.392789 0.278972 -0.020837 -0.998695 0.046632
0.952850 0.252273 0.040263 -0.982376 -0.080714 -0.168589
0.255575 0.576684 0.341885 -0.047878 -0.995822 0.077757
0.240085 0.576684 0.379566 -0.056303 -0.993987 0.093914
0.552208 0.025000 0.152518 0.021410 -0.998324 -0.053772
0.521088 0.208895 0.355096 -0.023217 -0.996929 0.074787
0.169316 0.392789 0.077652 -0.007672 -0.999307 -0.036427
0.897638 0.208895 0.230079 0.045603 -0.997117 -0.060640
0.649972 0.030905 0.040263 0.089558 -0.952454 -0.291223
0.869633 0.208895 0.159320 0.058535 -0.991374 -0.117265
0.912258 0.607211 0.196395 0.034146 0.998166 -0.049993
0.408760 0.423316 0.186618 -0.003970 0.999174 -0.040430
0.944474 0.661769 0.165404 -0.999536 0.028268 -0.011385
