0.038204 0.250011 0.143501 0.999209 -0.021723 0.033303
0.330733 0.368059 0.031970 -0.081278 0.990951 -0.106820
0.364479 0.961806 0.131277 0.026793 -0.999628 0.005093
0.310332 0.810070 0.151236 0.023063 -0.999619 0.015191
0.025010 0.186720 0.083131 -0.999421 -0.014295 -0.030876
0.228147 0.823265 0.103059 -0.015947 0.999100 -0.039312
0.339315 0.507539 0.183328 0.002709 -0.079739 0.996812
0.375349 0.216324 0.093195 0.023345 0.999070 -0.036259
0.038205 0.168368 0.070540 0.998118 -0.009874 -0.060526
0.387013 0.035631 0.148988 0.035942 -0.375207 -0.926244
0.025008 0.350295 0.173738 -0.999216 -0.011520 0.037864
0.405360 0.975000 0.068763 0.017827 0.997724 -0.065033
0.272381 0.671530 0.175072 0.041272 0.997346 0.059974
0.326405 0.975000 0.073798 -0.004321 0.997758 -0.066786
0.038205 0.102063 0.149897 0.998214 -0.028583 0.052450
0.038202 0.368010 0.127143 0.999899 -0.013948 0.002658
0.119638 0.975000 0.034749 -0.220857 0.969733 -0.104111
0.025012 0.061878 0.152499 -0.999137 -0.015833 0.038392
0.038197 0.738998 0.153918 0.999900 -0.005471 0.013047
0.486796 0.789384 0.115982 -0.997138 0.033147 -0.067947
0.124074 0.064589 0.028386 -0.182999 0.963969 -0.193070
0.323776 0.966166 0.183328 0.002601 -0.053652 0.998556
0.362192 0.671530 0.113015 0.029703 0.999496 -0.011170
0.486805 0.361752 0.165353 0.584603 0.409985 0.700108
0.499998 0.214640 0.178308 0.996092 -0.030076 0.083049
0.025010 0.162714 0.096444 -0.999739 -0.014596 -0.017585
0.370489 0.203130 0.171888 0.026809 -0.998773 0.041633
0.264934 0.354865 0.091261 0.006564 -0.998603 -0.052427
0.356223 0.519794 0.116608 0.030246 0.999516 -0.007325
0.499992 0.681100 0.180299 0.998510 -0.013007 0.052990
0.297041 0.658335 0.025405 -0.056937 -0.987748 -0.145303
0.025005 0.604558 0.099883 -0.998135 0.014662 -0.059263
0.156273 0.203130 0.054507 -0.091314 -0.983826 -0.154103
0.257597 0.064589 0.054670 -0.056024 0.984822 -0.164275
0.486806 0.667673 0.075977 0.099543 0.992225 -0.074703
0.486802 0.321764 0.031791 -0.992730 0.032991 -0.115754
0.499997 0.284570 0.103992 0.999657 -0.012354 -0.023086
0.486799 0.565906 0.029117 -0.982694 0.083076 -0.165562
0.385740 0.658335 0.121615 0.028277 -0.999600 -0.000384
0.167743 0.354865 0.162398 0.013613 -0.999896 0.004794
0.399131 0.025019 0.160308 0.106017 -0.923100 -0.369657
0.486805 0.060226 0.171474 -0.998353 -0.015767 0.055158
0.435739 0.961806 0.135038 0.031436 -0.999336 0.018446
0.499997 0.282280 0.119844 0.999876 -0.015684 -0.001277
0.279995 0.051395 0.066853 0.000000 -1.000000 0.000000
0.236391 0.354865 0.044210 -0.064196 -0.988195 -0.139104
0.130574 0.975000 0.114019 -0.062195 0.997638 -0.029162
0.492601 0.253197 0.025010 -0.639814 0.180259 -0.747091
0.038197 0.817999 0.122469 0.998218 0.055750 -0.021291
0.109423 0.810070 0.087731 -0.074386 -0.990054 -0.119414
0.111725 0.961806 0.032517 -0.139242 -0.968630 -0.205832
0.025003 0.728412 0.106876 -0.996977 0.031117 -0.071197
0.245520 0.519794 0.155415 0.028339 0.999176 0.029058
0.416284 0.810070 0.132932 0.030181 -0.999446 0.014032
0.300763 0.975000 0.065251 -0.038224 0.996440 -0.075135
0.405086 0.051395 0.103819 0.000000 -1.000000 0.000000
0.256024 0.968668 0.025001 -0.444304 0.282059 -0.850316
0.499996 0.378795 0.091694 0.998900 -0.006291 -0.046461
0.126139 0.810070 0.089193 -0.064345 -0.991793 -0.110481
0.454673 0.368059 0.149284 0.060858 0.996804 0.051749
0.091312 0.064589 0.025183 -0.208481 0.958374 -0.195078
0.299270 0.961806 0.099981 0.022774 -0.999241 -0.031607
0.025012 0.026885 0.081828 -0.999632 -0.016648 -0.021411
0.025000 0.968724 0.058348 -0.972525 0.129500 -0.193457
0.464435 0.216324 0.042493 0.016398 0.995632 -0.091913
0.480604 0.064589 0.095167 0.112909 0.985505 -0.126614
0.300680 0.506600 0.158378 0.022364 -0.999550 0.019970
0.230764 0.354865 0.055815 -0.052966 -0.991023 -0.122750
0.249096 0.658335 0.039843 -0.063190 -0.987977 -0.141095
0.038206 0.812724 0.142741 -0.968498 0.240228 -0.065597
0.115763 0.658335 0.056065 -0.109363 -0.979805 -0.167400
0.338071 0.203130 0.049693 -0.007442 -0.995897 -0.090192
0.176986 0.671530 0.073754 -0.107490 0.991915 -0.067464
0.100480 0.064589 0.179881 0.029956 0.999223 0.025630
0.217618 0.203130 0.159436 0.016908 -0.999815 0.009166
0.303542 0.506600 0.081609 0.013886 -0.998515 -0.052682
0.159915 0.368059 0.059436 -0.146725 0.985844 -0.081135
0.038196 0.857161 0.032232 0.969145 0.222094 -0.106919
0.486802 0.318056 0.117420 -0.999880 -0.012234 -0.009452
0.207706 0.368059 0.122489 0.006991 0.999754 -0.021057
0.256256 0.025019 0.150472 -0.091056 -0.579246 -0.810051
0.113281 0.203130 0.163418 0.010035 -0.999948 -0.002023
0.400720 0.817342 0.025001 -0.113042 0.645877 -0.755026
0.490459 0.198375 0.183336 -0.062810 -0.001592 0.998024
0.486794 0.961040 0.045628 -0.967020 0.141319 -0.211900
0.380183 0.064589 0.052175 0.019134 0.984464 -0.174541
0.025011 0.096350 0.039394 -0.997874 -0.015777 -0.063236
0.383577 0.054900 0.183328 0.003121 -0.062783 0.998022
0.441435 0.368059 0.080897 0.029160 0.998635 -0.043327
0.115814 0.051395 0.173412 0.000000 -1.000000 0.000000
0.372789 0.064589 0.172240 0.142571 0.989705 -0.012560
0.234281 0.354865 0.093651 -0.005587 -0.998143 -0.060661
0.288523 0.368059 0.131911 0.025452 0.999670 0.003478
0.038199 0.620443 0.069482 0.993355 0.090065 -0.071648
0.370147 0.519794 0.103737 0.027030 0.999375 -0.022787
0.219702 0.203130 0.052665 -0.062236 -0.989272 -0.132164
0.045211 0.216324 0.162326 -0.028454 0.999459 0.016492
0.499989 0.905384 0.156463 0.999691 0.022333 0.010926
0.344518 0.064589 0.064314 0.015406 0.987801 -0.154957
0.229532 0.823265 0.035668 -0.144102 0.984130 -0.103554
0.288660 0.064589 0.107258 0.040150 0.995072 -0.090665
0.486797 0.710056 0.046922 -0.982175 0.091920 -0.163958
0.386069 0.671530 0.061063 0.011260 0.996868 -0.078273
0.499994 0.532918 0.090611 0.998297 0.028004 -0.051178
0.025011 0.078230 0.137811 -0.999579 -0.015661 0.024406
0.499989 0.920140 0.139024 0.998371 0.056778 -0.005647
0.274614 0.658335 0.060259 -0.025948 -0.994818 -0.098309
0.463107 0.354865 0.040267 0.034006 -0.997558 -0.060998
0.351186 0.368059 0.051318 -0.030145 0.995646 -0.088201
0.025001 0.916539 0.067332 -0.979332 0.110014 -0.169726
0.025011 0.109107 0.116216 -0.999877 -0.015302 0.003366
0.390930 0.961806 0.036828 0.003046 -0.995943 -0.089934
0.203517 0.368059 0.134018 0.012071 0.999908 -0.006244
0.025005 0.579764 0.026442 -0.981040 0.088595 -0.172370
0.443858 0.975000 0.102386 0.038871 0.999152 -0.013572
0.486805 0.071504 0.146916 -0.999336 -0.015719 0.032871
0.025009 0.233601 0.138845 -0.999798 -0.013381 0.014982
0.499990 0.825447 0.073201 0.987310 0.143317 -0.068405
0.025005 0.600089 0.048854 -0.987711 0.068589 -0.140436
0.025011 0.135693 0.043564 -0.997949 -0.015185 -0.062185
0.025006 0.546893 0.111460 -0.999512 -0.008769 -0.029981
0.040917 0.658335 0.037038 -0.168014 -0.959648 -0.225491
0.210297 0.666151 0.025000 -0.458887 0.670598 -0.582856
0.430318 0.051395 0.080301 0.000000 -1.000000 0.000000
0.245152 0.975000 0.053824 -0.098571 0.991380 -0.086305
0.038203 0.268566 0.126417 0.999808 -0.017544 0.008677
0.294026 0.506600 0.100019 0.022429 -0.999227 -0.032282
0.486804 0.159496 0.150177 -0.999449 -0.014417 0.029886
0.344491 0.658335 0.065834 0.015040 -0.997975 -0.061796
0.091217 0.661330 0.025000 -0.294250 -0.882247 -0.367500
0.499989 0.920426 0.085350 0.987056 0.149932 -0.056923
0.038202 0.369371 0.050980 0.994853 0.048965 -0.088717
0.025008 0.358471 0.118044 -0.999865 -0.011638 -0.011604
0.133273 0.961806 0.049264 -0.108899 -0.979172 -0.171355
0.492379 0.500239 0.025010 -0.571694 0.335290 -0.748830
0.252146 0.064589 0.145883 0.062966 0.997392 -0.035291
0.176371 0.823265 0.040602 -0.171257 0.980253 -0.098866
0.363192 0.216324 0.169431 0.054080 0.996371 0.065735
0.025007 0.418251 0.053740 -0.994734 0.028117 -0.098562
0.477399 0.354865 0.180748 0.033710 -0.997352 0.064442
0.025006 0.473948 0.102475 -0.999407 -0.010006 -0.032939
0.500000 0.038801 0.117323 0.999626 -0.024349 0.012454
0.486804 0.169904 0.111749 -0.999885 -0.014430 -0.004592
0.025009 0.282423 0.059454 -0.997944 -0.004172 -0.063963
0.038201 0.454640 0.159901 0.998999 -0.017363 0.041219
0.025011 0.098525 0.102923 -0.999851 -0.015512 -0.007622
0.049692 0.671530 0.054194 -0.231793 0.968980 -0.085731
0.486805 0.517362 0.166271 0.113412 0.985350 0.127371
0.233595 0.203130 0.177063 0.017797 -0.999480 0.026904
0.499992 0.658833 0.126813 0.999855 0.002101 -0.016878
0.298998 0.051395 0.036928 0.000000 -1.000000 0.000000
0.438314 0.823265 0.026843 -0.016987 0.993682 -0.110942
0.440736 0.368059 0.153136 0.060160 0.996677 0.054909
0.362521 0.354865 0.075400 0.027127 -0.998651 -0.044286
0.210679 0.368059 0.064140 -0.102629 0.991765 -0.076609
0.400417 0.823265 0.126665 0.042024 0.999029 0.013255
0.359181 0.368059 0.076285 0.013315 0.998007 -0.061678
0.499996 0.349482 0.046499 0.994367 0.050928 -0.092953
0.147193 0.658335 0.168675 0.012213 -0.999898 0.007426
0.290768 0.810070 0.174500 0.021567 -0.999225 0.032915
0.148649 0.658335 0.028290 -0.126309 -0.971956 -0.198361
0.168361 0.216324 0.069570 -0.121490 0.990016 -0.071474
0.446501 0.519794 0.027098 -0.010901 0.993804 -0.110611
0.499991 0.770358 0.030137 0.973522 0.200940 -0.108987
0.485176 0.203130 0.076925 0.035187 -0.999050 -0.025727
0.353651 0.975000 0.029017 -0.071100 0.991440 -0.109510
0.369916 0.658335 0.032807 -0.012095 -0.994431 -0.104689
0.038201 0.430808 0.178557 0.997426 -0.022032 0.068228
0.486800 0.388450 0.170021 -0.999425 -0.010979 0.032095
0.097181 0.213799 0.183327 0.000678 0.003741 0.999993
0.439805 0.064589 0.066007 0.065288 0.984788 -0.161031
0.030019 0.462549 0.025008 -0.773080 0.248142 -0.583758
0.025008 0.324318 0.152692 -0.999705 -0.011993 0.021116
0.238553 0.064589 0.064684 -0.052463 0.987509 -0.148570
0.486806 0.211424 0.091060 0.191706 0.981052 -0.028031
0.323762 0.038693 0.162180 -0.000002 0.000455 1.000000
0.115997 0.064090 0.025000 -0.194669 0.953642 -0.229502
0.232513 0.972675 0.183327 0.002140 -0.001753 0.999996
0.270971 0.506600 0.146090 0.020526 -0.999777 0.004982
0.486801 0.334553 0.150461 -0.999759 -0.011854 0.018498
0.274684 0.051395 0.028387 0.000000 -1.000000 0.000000
0.025008 0.358761 0.077389 -0.998739 -0.008609 -0.049470
0.107108 0.368059 0.121945 -0.063185 0.997764 -0.021771
0.340575 0.354865 0.147403 0.025080 -0.999558 0.015937
0.454728 0.961806 0.118734 0.032831 -0.999438 0.006777
0.214307 0.506600 0.079786 -0.032130 -0.995352 -0.090786
0.286115 0.975000 0.033331 -0.109513 0.988351 -0.105684
0.395093 0.064589 0.026603 -0.011648 0.977100 -0.212462
0.025007 0.460984 0.036734 -0.989491 0.054638 -0.133872
0.025011 0.091393 0.104885 -0.999863 -0.015609 -0.005422
0.228119 0.209712 0.183327 0.001786 -0.032716 0.999463
0.192756 0.658335 0.150577 0.015358 -0.999880 -0.002073
0.226957 0.823265 0.081469 -0.058082 0.996510 -0.059945
0.080372 0.810070 0.062259 -0.119315 -0.977966 -0.171309
0.499991 0.701626 0.146815 0.999967 -0.005424 0.005995
0.039888 0.203130 0.090611 -0.105253 -0.984235 -0.142136
0.332333 0.216324 0.092074 0.015622 0.998903 -0.044134
0.038200 0.561621 0.099917 0.998898 0.020270 -0.042335
0.398187 0.211087 0.025001 -0.085820 0.849479 -0.520597
0.399431 0.519780 0.182667 0.051611 0.986074 0.158098
0.025001 0.878300 0.091981 -0.989439 0.076266 -0.123263
0.443050 0.519794 0.045889 0.014274 0.995796 -0.090477
0.025012 0.062690 0.030717 -0.997493 -0.015722 -0.068995
0.182296 0.064589 0.154054 0.040216 0.999044 -0.017125
0.079355 0.354865 0.171291 0.007745 -0.999970 0.000177
0.382715 0.671530 0.082518 0.019970 0.998566 -0.049679
0.477783 0.216324 0.118292 0.051459 0.998588 0.013186
0.377184 0.658335 0.089997 0.027979 -0.999176 -0.029406
0.354470 0.203130 0.176414 0.025717 -0.998729 0.043349
0.249600 0.051395 0.145888 0.000000 -1.000000 0.000000
0.499995 0.449972 0.171277 0.998177 -0.019844 0.056997
0.423638 0.059875 0.025001 0.141890 0.849543 -0.508078
0.038197 0.758828 0.182164 0.998691 -0.010474 0.050066
0.300079 0.051395 0.060461 0.000000 -1.000000 0.000000
0.431550 0.823265 0.128540 0.048075 0.998634 0.020467
0.499992 0.663006 0.104545 0.998402 0.041703 -0.038145
0.271890 0.025050 0.162187 -0.000002 0.000455 1.000000
0.317547 0.823265 0.096249 0.014939 0.999064 -0.040596
0.083685 0.810070 0.074043 -0.103592 -0.983035 -0.151362
0.218017 0.354865 0.070017 -0.042101 -0.993580 -0.105003
0.025006 0.509489 0.045819 -0.990239 0.054290 -0.128375
0.429852 0.051395 0.099635 0.000000 -1.000000 0.000000
0.097894 0.368059 0.135311 -0.043890 0.998995 -0.009106
0.025011 0.106759 0.096829 -0.999790 -0.015416 -0.013529
0.025008 0.359515 0.168246 -0.999409 -0.011410 0.032433
0.499990 0.778827 0.064034 0.986339 0.145580 -0.077080
0.122198 0.975000 0.031421 -0.225320 0.968370 -0.107197
0.370133 0.658335 0.165381 0.026852 -0.998994 0.035911
0.038198 0.738411 0.058935 0.986383 0.142631 -0.081887
0.426333 0.671530 0.176540 0.067669 0.994103 0.084733
0.086794 0.658335 0.030194 -0.153977 -0.963537 -0.218834
0.489126 0.464874 0.183336 -0.066639 -0.001040 0.997777
0.303515 0.064589 0.054209 -0.027031 0.985491 -0.167559
0.486797 0.698632 0.036076 -0.978618 0.101245 -0.179040
0.215962 0.823265 0.148273 0.020298 0.999678 0.015228
0.038199 0.641580 0.093669 0.997346 0.054299 -0.048514
0.153932 0.519794 0.062837 -0.144352 0.986454 -0.077921
0.381264 0.064589 0.104209 0.078148 0.991461 -0.104394
0.171306 0.671530 0.040405 -0.175101 0.979556 -0.099042
0.397720 0.810070 0.139520 0.028903 -0.999434 0.017216
0.170400 0.961806 0.116256 -0.009791 -0.998719 -0.049649
0.190373 0.368059 0.175904 0.027873 0.998425 0.048683
0.051566 0.658335 0.102630 -0.084992 -0.989329 -0.118339
0.499992 0.622818 0.034744 0.983022 0.150681 -0.104705
0.160928 0.823265 0.047360 -0.169029 0.981262 -0.092491
0.314439 0.368059 0.172480 0.047213 0.996933 0.062412
0.216183 0.671530 0.061336 -0.104204 0.991396 -0.079218
0.383428 0.519794 0.026251 -0.055842 0.992142 -0.111966
0.038199 0.657725 0.043992 0.984776 0.144926 -0.095988
0.486802 0.365541 0.026746 -0.990136 0.046869 -0.132041
0.038204 0.204435 0.109767 0.999817 -0.016556 -0.009550
0.136832 0.975000 0.060110 -0.161332 0.983616 -0.080450
0.330334 0.064589 0.122672 0.074247 0.994456 -0.074458
0.486805 0.064014 0.151078 0.198706 0.976897 -0.078664
0.038196 0.856879 0.142106 0.999450 0.033053 -0.002631
0.113066 0.051395 0.034528 0.000000 -1.000000 0.000000
0.038207 0.816704 0.030367 -0.835060 0.123122 -0.536206
0.486794 0.951299 0.052155 -0.970778 0.132667 -0.199976
0.394490 0.203130 0.031282 -0.001861 -0.995242 -0.097416
0.064120 0.810070 0.099057 -0.083102 -0.989399 -0.119097
0.038204 0.185300 0.141000 0.999126 -0.023649 0.034457
0.499996 0.351398 0.174932 0.997329 -0.024277 0.068883
0.499990 0.802889 0.048884 0.979686 0.178488 -0.091420
0.038195 0.936898 0.152918 0.999265 0.037585 0.007546
0.083150 0.051395 0.111480 0.000000 -1.000000 0.000000
0.486805 0.820520 0.140757 0.114816 0.989125 0.091921
0.052166 0.658335 0.156694 -0.019251 -0.999322 -0.031380
0.486804 0.143463 0.119738 -0.999882 -0.014785 0.004193
0.151972 0.216324 0.133652 -0.009897 0.999896 -0.010496
0.486800 0.507665 0.088356 -0.998184 0.008310 -0.059656
0.123567 0.961806 0.025015 -0.142312 -0.966642 -0.212957
0.423760 0.823265 0.056994 0.015833 0.996808 -0.078249
0.486806 0.028189 0.051779 -0.998713 -0.016739 -0.047882
0.499988 0.973457 0.147859 0.998372 0.056973 0.002701
0.315633 0.358902 0.025001 -0.135918 -0.918472 -0.371397
0.275641 0.051395 0.065627 0.000000 -1.000000 0.000000
0.415846 0.064589 0.102824 0.092063 0.989680 -0.109809
0.368422 0.519794 0.088179 0.020010 0.998822 -0.044196
0.371969 0.975000 0.035731 -0.045618 0.993638 -0.102969
0.316890 0.368059 0.112818 0.021986 0.999591 -0.018305
0.495979 0.840229 0.025010 0.836081 0.433055 -0.336797
0.349201 0.519794 0.043041 -0.047330 0.994242 -0.096142
0.268933 0.519794 0.046432 -0.096295 0.990970 -0.093301
0.486805 0.515713 0.173164 0.169125 0.962696 0.211216
0.283445 0.975000 0.055584 -0.068701 0.994054 -0.084480
0.321777 0.658335 0.142103 0.023897 -0.999677 0.008636
0.428908 0.658335 0.046043 0.031715 -0.997650 -0.060727
0.025008 0.331131 0.125946 -0.999924 -0.012007 -0.002842
0.303009 0.506600 0.041093 -0.035069 -0.992414 -0.117834
0.405332 0.216324 0.153343 0.054296 0.997264 0.050163
0.499991 0.744680 0.180169 0.998774 -0.010598 0.048345
0.363836 0.506600 0.078819 0.027187 -0.998785 -0.041101
0.396214 0.519794 0.058081 0.011675 0.996657 -0.080865
0.028943 0.746324 0.025008 -0.838822 0.290169 -0.460629
0.038201 0.444492 0.085055 0.998345 0.011968 -0.056245
0.387328 0.203130 0.169580 0.027934 -0.998728 0.041977
0.301859 0.368059 0.050486 -0.065749 0.993833 -0.089297
0.499991 0.761989 0.179169 0.998904 -0.009747 0.045771
0.206023 0.368059 0.111168 -0.015669 0.999372 -0.031791
0.112021 0.359563 0.183327 0.000763 -0.041349 0.999144
0.334920 0.506600 0.165602 0.024541 -0.999214 0.031138
0.143428 0.064589 0.170512 0.039542 0.999179 0.008800
0.029159 0.380042 0.183335 -0.055050 -0.001212 0.998483
0.322284 0.519794 0.127405 0.029190 0.999571 0.002346
0.478413 0.354865 0.160356 0.033988 -0.998330 0.046718
0.330252 0.658335 0.078179 0.022811 -0.998602 -0.047674
0.486804 0.140419 0.173811 -0.998547 -0.014586 0.051885
0.374788 0.961806 0.154964 0.027253 -0.999254 0.027376
0.048415 0.810070 0.153159 -0.025360 -0.998938 -0.038455
0.026458 0.025000 0.114239 -0.999606 -0.024237 0.014154
0.119801 0.064589 0.059792 -0.137003 0.979422 -0.148196
0.038202 0.345164 0.148882 0.999239 -0.019238 0.033929
0.399048 0.368059 0.088020 0.025100 0.998889 -0.039896
0.281376 0.658335 0.115309 0.021475 -0.999557 -0.020620
0.447678 0.051395 0.066743 0.000000 -1.000000 0.000000
0.499992 0.656106 0.100158 0.997984 0.047289 -0.042331
0.319930 0.506600 0.063256 -0.000058 -0.997139 -0.075597
0.499995 0.449245 0.073615 0.997188 0.033069 -0.067243
0.499996 0.313099 0.157642 0.998595 -0.022221 0.048103
0.070239 0.671530 0.122561 -0.087513 0.995940 -0.021094
0.038207 0.215442 0.056541 -0.489545 0.865805 -0.103571
0.081384 0.519794 0.114832 -0.094676 0.995098 -0.028573
0.115434 0.203130 0.053044 -0.113130 -0.978527 -0.172297
0.486794 0.952434 0.107464 -0.990921 0.074017 -0.112237
0.499991 0.763525 0.170310 0.999403 -0.007889 0.033625
0.406482 0.216324 0.154281 0.054889 0.997158 0.051608
0.083288 0.064589 0.064212 -0.153499 0.978271 -0.139372
0.181173 0.517557 0.183327 0.001592 0.001498 0.999998
0.071868 0.961806 0.131829 -0.039567 -0.997197 -0.063497
0.025006 0.512853 0.060849 -0.993729 0.038804 -0.104863
0.364492 0.051395 0.133571 0.000000 -1.000000 0.000000
0.377472 0.368059 0.044494 -0.025103 0.995204 -0.094544
0.092991 0.051395 0.170747 0.000000 -1.000000 0.000000
0.179381 0.064589 0.098071 -0.037676 0.994655 -0.096139
0.338728 0.658335 0.034793 -0.025054 -0.993184 -0.113832
0.294615 0.671530 0.093526 0.009911 0.998813 -0.047698
0.314344 0.975000 0.059374 -0.040110 0.995932 -0.080687
0.138160 0.823265 0.083546 -0.115554 0.991595 -0.058190
0.167376 0.671530 0.071215 -0.119017 0.990429 -0.069900
0.039233 0.026377 0.148991 -0.203433 -0.487581 -0.849046
0.436492 0.368059 0.114944 0.043058 0.999070 0.002317
0.025007 0.406077 0.150585 -0.999846 -0.010805 0.013831
0.434494 0.051395 0.027122 0.000000 -1.000000 0.000000
0.328309 0.354865 0.063082 0.003839 -0.997356 -0.072569
0.499993 0.608877 0.091429 0.997533 0.048662 -0.050588
0.499989 0.861540 0.047614 0.975926 0.197470 -0.092591
0.301542 0.671530 0.179391 0.047999 0.996382 0.070142
0.038196 0.824523 0.133930 0.999232 0.037796 -0.010367
0.486799 0.579535 0.071431 -0.994135 0.040361 -0.100335
0.500000 0.037960 0.040972 0.995762 -0.008717 -0.091552
0.409234 0.975000 0.105892 0.034547 0.999306 -0.013929
0.383168 0.671530 0.039728 -0.030280 0.994621 -0.099054
0.295231 0.506600 0.176039 0.021844 -0.999158 0.034719
0.038204 0.198548 0.038398 0.994748 0.021120 -0.100147
0.411356 0.203130 0.089689 0.030226 -0.999233 -0.024891
0.407687 0.823265 0.095913 0.029968 0.999168 -0.027677
0.209527 0.518776 0.183327 0.002007 0.008818 0.999959
0.441777 0.961806 0.084504 0.032270 -0.999162 -0.025169
0.348613 0.970600 0.025001 -0.124370 0.907457 -0.401314
0.108041 0.354865 0.053218 -0.116544 -0.977669 -0.174871
0.265922 0.671530 0.035817 -0.118710 0.987533 -0.103376
0.499993 0.555006 0.042064 0.988146 0.118418 -0.097698
0.377075 0.216324 0.077290 0.016757 0.998198 -0.057625
0.038205 0.124735 0.084194 0.999142 -0.014320 -0.038868
0.025012 0.033582 0.098128 -0.999836 -0.016485 -0.007522
0.135913 0.975000 0.108142 -0.069800 0.996956 -0.034753
0.025000 0.959368 0.160796 -0.999455 0.017916 -0.027722
0.434438 0.810070 0.164424 0.031071 -0.998533 0.044334
0.378937 0.368059 0.054560 -0.004944 0.996379 -0.084878
0.479549 0.051395 0.145831 0.000000 -1.000000 0.000000
0.048131 0.051395 0.070849 0.000000 -1.000000 0.000000
0.190127 0.519794 0.157627 0.019987 0.999516 0.023852
0.452031 0.051395 0.165050 0.000000 -1.000000 0.000000
0.109726 0.025018 0.149419 -0.175390 -0.527272 -0.831398
0.337686 0.368059 0.088602 0.015022 0.998728 -0.048142
0.316371 0.810070 0.042228 -0.027109 -0.993480 -0.110735
0.038206 0.036134 0.078615 0.999053 -0.016517 -0.040261
0.427087 0.025019 0.155673 0.067275 -0.791988 -0.606818
0.173975 0.368059 0.067526 -0.121528 0.989866 -0.073458
0.025011 0.138100 0.043337 -0.997914 -0.014690 -0.062855
0.499999 0.070664 0.055310 0.997173 -0.010428 -0.074407
0.399199 0.216324 0.080907 0.022045 0.998533 -0.049456
0.283306 0.519794 0.153006 0.033653 0.998941 0.031388
0.426580 0.810070 0.102723 0.031123 -0.999453 -0.011156
0.477249 0.961806 0.174255 0.033767 -0.997703 0.058721
0.499990 0.845862 0.138365 0.999321 0.036324 -0.006177
0.179328 0.506600 0.064193 -0.068265 -0.989214 -0.129598
0.152372 0.368059 0.041074 -0.186780 0.977463 -0.098386
0.408439 0.961806 0.172389 0.029288 -0.998446 0.047412
0.263920 0.961806 0.165395 0.019890 -0.999583 0.020926
0.405757 0.506600 0.084298 0.029902 -0.999090 -0.030402
0.433782 0.810070 0.048390 0.032019 -0.997804 -0.057974
0.486803 0.224090 0.041424 -0.996626 0.003836 -0.081986
0.372939 0.961806 0.162611 0.027059 -0.999061 0.033834
0.409508 0.203130 0.074476 0.030225 -0.998801 -0.038520
0.256476 0.514853 0.025001 -0.319939 0.803397 -0.502188
0.486806 0.358366 0.031403 0.067918 -0.985718 -0.154104
0.377377 0.064589 0.031220 -0.015757 0.978658 -0.204892
0.079935 0.506600 0.047316 -0.137241 -0.971172 -0.194912
0.025001 0.913875 0.112181 -0.993345 0.061432 -0.097430
0.486803 0.167266 0.159229 -0.999202 -0.014262 0.037317
0.384481 0.035117 0.162182 -0.000002 0.000455 1.000000
0.486798 0.616533 0.160253 -0.999936 -0.007685 0.008363
0.486795 0.852209 0.111066 -0.994864 0.050642 -0.087644
0.367162 0.810070 0.095128 0.027278 -0.999283 -0.026240
0.447787 0.354865 0.090401 0.032618 -0.999285 -0.019124
0.184062 0.506600 0.161764 0.014689 -0.999871 0.006532
0.087789 0.662081 0.183327 0.000545 -0.047311 0.998880
0.475497 0.961806 0.131638 0.034076 -0.999197 0.021060
0.231816 0.216324 0.133354 0.016537 0.999859 -0.002825
0.262798 0.203130 0.131979 0.020112 -0.999761 -0.008614
0.486797 0.634972 0.177712 -0.999721 -0.007342 0.022470
0.499989 0.866245 0.154852 0.999860 0.013791 0.009435
0.408535 0.354865 0.139867 0.029607 -0.999383 0.018880
0.443173 0.658335 0.122538 0.032041 -0.999450 0.008521
0.499996 0.310719 0.039381 0.993665 0.051956 -0.099647
0.443092 0.810070 0.026555 0.016263 -0.996180 -0.085793
0.499989 0.878500 0.046638 0.974504 0.203965 -0.093492
0.038195 0.923726 0.030929 0.963994 0.243014 -0.107985
0.261308 0.823265 0.050053 -0.094627 0.991450 -0.089847
0.025010 0.165584 0.103750 -0.999830 -0.014525 -0.011353
0.025002 0.799992 0.080549 -0.989191 0.073346 -0.126973
0.188582 0.368059 0.079463 -0.088487 0.994142 -0.062063
0.349104 0.064589 0.155204 0.115257 0.992792 -0.032868
0.107095 0.064589 0.091775 -0.094576 0.990388 -0.100932
0.499990 0.802395 0.036601 0.974541 0.199183 -0.102932
0.486796 0.729227 0.147696 -0.999930 -0.006088 -0.010152
0.475182 0.658335 0.082393 0.034488 -0.999156 -0.022311
0.486805 0.810847 0.165348 0.042109 -0.997202 0.061766
0.115119 0.961806 0.056353 -0.109333 -0.979843 -0.167195
0.499997 0.291006 0.071176 0.997656 -0.005392 -0.068218
0.476209 0.354865 0.050939 0.034794 -0.998152 -0.049810
0.025009 0.274159 0.041822 -0.995791 0.013052 -0.090719
0.499996 0.369720 0.077318 0.997980 0.003675 -0.063424
0.085119 0.368059 0.168439 0.007025 0.999711 0.022976
0.025011 0.062487 0.160175 -0.998858 -0.015788 0.045084
0.459561 0.810070 0.067267 0.033578 -0.998723 -0.037750
0.025009 0.271233 0.137469 -0.999854 -0.012836 0.011270
0.298229 0.810070 0.098697 0.022718 -0.999203 -0.032815
0.025004 0.642304 0.085580 -0.995302 0.037321 -0.089340
0.268657 0.810070 0.130021 0.020515 -0.999745 -0.009394
0.214213 0.216324 0.026905 -0.171266 0.978865 -0.111765
0.038197 0.786304 0.030347 0.972672 0.205130 -0.108771
0.401499 0.506600 0.113862 0.029377 -0.999556 -0.004995
0.222971 0.961806 0.166290 0.017198 -0.999725 0.015945
0.126112 0.064589 0.078328 -0.103649 0.987133 -0.121763
0.486800 0.449129 0.071407 -0.996998 0.015152 -0.075936
0.156560 0.368059 0.068661 -0.131391 0.988683 -0.072399
0.499995 0.432660 0.043632 0.992159 0.080090 -0.095948
0.025005 0.616910 0.134848 -0.999872 -0.007784 -0.014002
0.038204 0.231368 0.053389 0.996294 0.004841 -0.085873
0.499996 0.324783 0.131665 0.999793 -0.016498 0.011870
0.453346 0.064589 0.058447 0.063589 0.982984 -0.172332
0.419406 0.051395 0.081801 0.000000 -1.000000 0.000000
0.298133 0.671530 0.128511 0.025605 0.999672 0.000453
0.189648 0.051395 0.153193 0.000000 -1.000000 0.000000
0.435397 0.671530 0.138217 0.052893 0.998018 0.034095
0.038202 0.395901 0.161387 0.998679 -0.019870 0.047378
0.123453 0.671530 0.149975 0.001605 0.999987 0.004897
0.025001 0.946376 0.113893 -0.992725 0.065910 -0.100767
0.025004 0.645758 0.171170 -0.999846 -0.007211 0.015982
0.185488 0.064589 0.065973 -0.084815 0.986011 -0.143486
0.311906 0.975000 0.107397 0.018805 0.999477 -0.026302
0.113107 0.823265 0.056161 -0.185097 0.979113 -0.084127
0.315274 0.506600 0.182036 0.023099 -0.998817 0.042800
0.038197 0.774044 0.079577 0.991137 0.117348 -0.062260
0.486801 0.334350 0.143545 -0.999852 -0.011886 0.012434
0.025001 0.927553 0.025561 -0.959000 0.155699 -0.236805
0.267959 0.975000 0.164481 0.035994 0.998343 0.044904
0.499994 0.491020 0.029829 0.986638 0.120900 -0.109217
0.140046 0.367068 0.183327 0.001258 0.012616 0.999920
0.499988 0.956375 0.078857 0.983161 0.171494 -0.063118
0.455536 0.823265 0.127074 0.051485 0.998430 0.022046
0.499993 0.603134 0.058864 0.991272 0.103408 -0.081770
0.150181 0.823265 0.043478 -0.183739 0.978265 -0.096113
0.190415 0.506600 0.114741 -0.001790 -0.999022 -0.044172
0.185898 0.064589 0.102717 -0.026058 0.995628 -0.089699
0.055727 0.064589 0.112735 -0.094409 0.993275 -0.067017
0.151549 0.658335 0.092632 -0.047609 -0.994343 -0.094953
0.486804 0.131576 0.148932 -0.999420 -0.014831 0.030648
0.486795 0.851803 0.116304 -0.995852 0.044918 -0.079128
0.038198 0.723218 0.035248 0.978351 0.178782 -0.104243
0.173713 0.203130 0.111850 -0.013461 -0.998374 -0.055396
0.084163 0.506600 0.101688 -0.069998 -0.991791 -0.107006
0.410274 0.216324 0.104344 0.034053 0.999294 -0.015891
0.109257 0.368059 0.130328 -0.045606 0.998864 -0.013813
0.091268 0.810070 0.126024 -0.037003 -0.997193 -0.065086
0.306868 0.506600 0.178030 0.022587 -0.999019 0.038103
0.428209 0.203130 0.154459 0.030758 -0.998933 0.034457
0.383933 0.817175 0.183328 0.003443 -0.036741 0.999319
0.482848 0.213901 0.183328 0.004839 -0.015368 0.999870
0.099210 0.031096 0.162183 -0.000002 0.000455 1.000000
0.093352 0.961806 0.029521 -0.151608 -0.964238 -0.217394
0.499995 0.448464 0.141943 0.999755 -0.013941 0.017177
0.494332 0.974984 0.132175 0.411849 0.909448 -0.057322
0.065241 0.064589 0.157925 -0.016269 0.999866 -0.001638
0.309058 0.050499 0.162175 -0.000002 0.000455 1.000000
0.265991 0.216324 0.027401 -0.134736 0.984607 -0.111331
0.486805 0.051180 0.107108 -0.999869 -0.016191 -0.000780
0.486806 0.666755 0.082437 0.164645 0.983885 -0.069727
0.499992 0.631204 0.177510 0.998507 -0.014311 0.052713
0.499997 0.239603 0.084826 0.998887 -0.010121 -0.046069
0.025012 0.026914 0.026615 -0.997417 -0.016839 -0.069826
0.095484 0.975000 0.145584 -0.025894 0.999664 0.000732
0.216731 0.354865 0.061745 -0.052736 -0.991519 -0.118781
0.407125 0.210890 0.183328 0.003754 -0.033233 0.999441
0.206300 0.052065 0.025000 0.071586 0.372702 -0.925186
0.448827 0.658335 0.128170 0.032361 -0.999374 0.014275
0.025006 0.559848 0.050085 -0.989604 0.059472 -0.130949
0.135994 0.810070 0.159234 0.011561 -0.999930 -0.002385
0.500000 0.044049 0.098831 0.999705 -0.020367 -0.013204
0.146714 0.975000 0.172287 0.019000 0.999116 0.037507
0.451771 0.823265 0.163621 0.066447 0.995243 0.071245
0.486798 0.586729 0.115972 -0.999528 -0.005933 -0.030151
0.329677 0.671530 0.141199 0.036380 0.999086 0.022436
0.211843 0.961806 0.057291 -0.060532 -0.989944 -0.127856
0.030251 0.266215 0.025008 -0.821006 0.141321 -0.553152
0.364453 0.051395 0.044268 0.000000 -1.000000 0.000000
0.366424 0.506600 0.050308 0.007197 -0.996927 -0.077998
0.025001 0.913472 0.150864 -0.999190 0.019697 -0.035093
0.499996 0.324638 0.079453 0.998222 -0.005822 -0.059324
0.499988 0.957826 0.089698 0.986770 0.153281 -0.052814
0.038198 0.660399 0.144419 0.999963 -0.006484 0.005635
0.275629 0.216324 0.029796 -0.123516 0.986332 -0.109057
0.065925 0.975000 0.159724 -0.019206 0.999717 0.014039
0.486804 0.171499 0.081858 -0.999415 -0.014523 -0.030976
0.025008 0.398507 0.045507 -0.993588 0.033129 -0.108097
0.486794 0.945680 0.115635 -0.993151 0.063897 -0.097814
0.486806 0.966734 0.052310 0.148366 -0.970746 -0.188783
0.250301 0.671530 0.028733 -0.143009 0.983580 -0.110090
0.061901 0.368059 0.127587 -0.083607 0.996363 -0.016466
0.145866 0.051395 0.107478 0.000000 -1.000000 0.000000
0.271698 0.823265 0.077140 -0.035504 0.997325 -0.063891
0.278652 0.519794 0.121816 0.019437 0.999742 -0.011723
0.025006 0.516390 0.068458 -0.995147 0.031318 -0.093287
0.028466 0.025000 0.083208 -0.998641 -0.046860 -0.022831
0.499988 0.974093 0.130848 0.996143 0.086698 -0.013519
0.486805 0.081506 0.062726 -0.998999 -0.015916 -0.041809
0.049895 0.961806 0.130439 -0.052124 -0.995866 -0.074397
0.148045 0.354865 0.056584 -0.092870 -0.983697 -0.154001
0.025005 0.607482 0.046372 -0.986643 0.072679 -0.145783
0.216621 0.658335 0.073124 -0.039035 -0.994164 -0.100573
0.237278 0.671530 0.111576 0.006485 0.999493 -0.031179
0.202216 0.216324 0.121532 0.001433 0.999760 -0.021869
0.331224 0.975000 0.163260 0.046090 0.997550 0.052636
0.123138 0.354865 0.175990 0.010572 -0.999889 0.010463
0.025010 0.210639 0.177215 -0.998648 -0.013543 0.050182
0.499994 0.509957 0.104256 0.999273 -0.002116 -0.038053
0.025008 0.343946 0.122570 -0.999908 -0.011833 -0.006661
0.223231 0.216324 0.130434 0.013837 0.999872 -0.008072
0.025003 0.699249 0.180568 -0.999766 -0.006389 0.020679
0.293452 0.658335 0.064756 -0.011254 -0.996432 -0.083647
0.118897 0.506600 0.093290 -0.062970 -0.992287 -0.106781
0.057564 0.051395 0.061437 0.000000 -1.000000 0.000000
0.064340 0.975000 0.068704 -0.194671 0.978205 -0.072235
0.038206 0.039787 0.163523 0.996590 -0.033662 0.075336
0.499999 0.132650 0.160859 0.997433 -0.029646 0.065179
0.025009 0.263869 0.157948 -0.999475 -0.012854 0.029751
0.486800 0.475339 0.090765 -0.998761 -0.000480 -0.049759
0.038200 0.541965 0.160546 0.999253 -0.014215 0.035945
0.486803 0.226353 0.130511 -0.999875 -0.013524 0.008156
0.038195 0.961479 0.098815 0.989365 0.138599 -0.044120
0.486803 0.238298 0.075611 -0.999072 -0.013565 -0.040889
0.153956 0.049441 0.162175 -0.000002 0.000455 1.000000
0.025005 0.627839 0.102952 -0.998150 0.015871 -0.058686
0.067282 0.368059 0.119901 -0.094680 0.995224 -0.023765
0.074441 0.368059 0.141299 -0.048580 0.998813 -0.003460
0.120691 0.354865 0.069681 -0.090601 -0.985443 -0.143852
0.499988 0.970672 0.127308 0.995629 0.091852 -0.016897
0.181723 0.671530 0.092641 -0.067905 0.996467 -0.049418
0.272206 0.975000 0.032316 -0.121063 0.986896 -0.106677
0.360221 0.368059 0.162755 0.050746 0.997139 0.056023
0.402059 0.216324 0.181892 0.065853 0.993914 0.088307
0.130383 0.519794 0.079809 -0.128106 0.989831 -0.061838
0.057866 0.519794 0.038765 -0.254801 0.961806 -0.100023
0.103889 0.506600 0.180020 0.009275 -0.999893 0.011297
0.486796 0.730763 0.136133 -0.999695 0.000243 -0.024675
0.315452 0.215525 0.183328 0.003172 0.004999 0.999982
0.363274 0.051395 0.143325 0.000000 -1.000000 0.000000
0.500000 0.034191 0.175610 0.995093 -0.036286 0.092051
0.025001 0.922482 0.054539 -0.973641 0.124669 -0.190998
0.200561 0.810070 0.098677 -0.016114 -0.997698 -0.065869
0.486801 0.370474 0.152096 -0.999782 -0.011321 0.017547
0.356963 0.029138 0.148991 -0.016424 -0.454275 -0.890710
0.079438 0.823265 0.152793 -0.023152 0.999703 0.007566
0.482589 0.519794 0.071048 0.031831 0.998209 -0.050649
0.417626 0.810070 0.182566 0.029788 -0.997878 0.057899
0.454632 0.823265 0.162178 0.066316 0.995360 0.069715
0.445377 0.671530 0.098957 0.037652 0.999129 -0.018005
0.499988 0.958608 0.084220 0.984929 0.162935 -0.058027
0.494491 0.931217 0.183336 -0.016548 -0.000154 0.999863
0.486805 0.206450 0.155936 0.091896 -0.990235 0.104834
0.261745 0.368059 0.078449 -0.039859 0.997232 -0.062763
0.038197 0.802112 0.130197 0.999191 0.037742 -0.013890
0.141516 0.354865 0.031378 -0.126129 -0.972407 -0.196256
0.399418 0.025019 0.157036 0.067237 -0.839901 -0.538559
0.486804 0.118965 0.139832 -0.999611 -0.015057 0.023492
0.486805 0.075795 0.104371 -0.999863 -0.015841 -0.004825
0.475223 0.506600 0.121663 0.034151 -0.999341 0.012258
0.038206 0.033032 0.149099 0.997936 -0.031016 0.056229
0.375309 0.216324 0.061635 0.005997 0.996929 -0.078085
0.114801 0.974860 0.183001 0.005433 0.786130 0.618038
0.082326 0.671530 0.172888 0.008469 0.999549 0.028813
0.486798 0.617251 0.030425 -0.980658 0.091582 -0.172981
0.431536 0.216324 0.152492 0.058333 0.996895 0.052897
0.486806 0.663389 0.075665 0.201827 -0.976558 -0.074831
0.500000 0.056284 0.100533 0.999726 -0.020254 -0.011739
0.055520 0.961806 0.182074 0.006090 -0.999962 0.006240
0.038203 0.293905 0.066149 0.997268 0.000978 -0.073864
0.120975 0.203130 0.167838 0.010501 -0.999941 0.002943
0.499995 0.419646 0.119348 0.999878 -0.010411 -0.011626
0.437327 0.961806 0.159932 0.031302 -0.998687 0.040548
0.217797 0.519794 0.107878 -0.013863 0.999295 -0.034882
0.025003 0.760567 0.142101 -0.999786 -0.000391 -0.020695
0.421158 0.810070 0.117012 0.030644 -0.999530 0.000681
0.025006 0.513666 0.079467 -0.996998 0.018981 -0.075069
0.442858 0.810070 0.116892 0.032070 -0.999479 0.003643
0.237405 0.211281 0.025001 -0.367183 0.771889 -0.519004
0.227067 0.216324 0.049625 -0.119130 0.988760 -0.090343
0.349405 0.203130 0.113260 0.025959 -0.999580 -0.012881
0.298640 0.963885 0.183328 0.002364 -0.069432 0.997584
0.038198 0.726125 0.153504 0.999893 -0.005869 0.013389
0.230214 0.810070 0.105829 0.007015 -0.999061 -0.042760
0.043133 0.658335 0.076895 -0.120098 -0.979352 -0.162626
0.354676 0.810070 0.137313 0.026098 -0.999617 0.009186
0.038198 0.701737 0.074263 0.992146 0.105483 -0.067227
0.486798 0.604327 0.152135 -0.999967 -0.007898 0.002041
0.116635 0.810070 0.180015 0.010111 -0.999862 0.013183
0.220003 0.203130 0.047091 -0.068812 -0.987622 -0.140953
0.142251 0.354865 0.173157 0.011848 -0.999873 0.010663
0.255665 0.203130 0.127097 0.019685 -0.999709 -0.013910
0.148699 0.671530 0.134474 -0.010573 0.999897 -0.009689
0.025004 0.683501 0.073753 -0.991542 0.058036 -0.116091
0.055082 0.360103 0.183327 0.000272 -0.034701 0.999398
0.276858 0.519794 0.131233 0.023197 0.999731 0.000823
0.183324 0.368059 0.091925 -0.068172 0.996410 -0.050191
0.310113 0.216324 0.076727 -0.009903 0.997895 -0.064088
0.093092 0.810070 0.043295 -0.135595 -0.971150 -0.196168
0.055881 0.053209 0.025000 -0.195694 0.424150 -0.884195
0.499996 0.350032 0.043637 0.993832 0.056032 -0.095699
0.499999 0.104150 0.118944 0.999703 -0.022215 0.010057
0.184668 0.975000 0.037250 -0.171921 0.979813 -0.102023
0.176166 0.961806 0.049914 -0.087035 -0.984288 -0.153633
0.298394 0.506600 0.112659 0.022613 -0.999533 -0.020561
0.038196 0.872856 0.174416 0.999492 -0.004628 0.031525
0.038201 0.420921 0.154005 0.999215 -0.017432 0.035567
0.073418 0.051395 0.051308 0.000000 -1.000000 0.000000
0.210485 0.051395 0.168112 0.000000 -1.000000 0.000000
0.025012 0.042946 0.025258 -0.997160 -0.013708 -0.074052
0.499988 0.955831 0.172378 0.999619 0.009531 0.025894
0.263332 0.671530 0.145989 0.027281 0.999445 0.019101
0.134858 0.368059 0.150634 0.007705 0.999951 0.006174
0.446213 0.975000 0.069821 0.025163 0.998023 -0.057592
0.373172 0.671530 0.159610 0.051583 0.997210 0.053950
0.470787 0.658335 0.151708 0.033577 -0.998711 0.038067
0.183407 0.506600 0.089972 -0.035079 -0.995622 -0.086636
0.487769 0.453509 0.183336 -0.076923 -0.001057 0.997037
0.147688 0.823265 0.091232 -0.094178 0.994256 -0.050842
0.499990 0.817277 0.176254 0.999255 -0.007083 0.037925
0.419556 0.961806 0.130310 0.030417 -0.999465 0.012006
0.499996 0.334379 0.118723 0.999888 -0.013493 -0.006478
0.188813 0.510984 0.183327 0.001428 -0.047240 0.998883
0.486795 0.851893 0.149687 -0.999634 0.009076 -0.025498
0.105002 0.975000 0.057609 -0.187894 0.978697 -0.082754
0.134871 0.203130 0.173927 0.011358 -0.999883 0.010249
0.157202 0.671530 0.117987 -0.036204 0.999024 -0.025308
0.281540 0.354865 0.121927 0.021428 -0.999661 -0.014782
0.499996 0.370214 0.143064 0.999560 -0.017113 0.024220
0.486794 0.958408 0.123513 -0.994481 0.057876 -0.087504
0.220808 0.354865 0.159801 0.017115 -0.999804 0.009978
0.359988 0.354865 0.098283 0.026779 -0.999340 -0.024540
0.499989 0.925789 0.086826 0.987286 0.148942 -0.055521
0.298106 0.216324 0.171325 0.043977 0.997309 0.058656
0.047497 0.658335 0.182550 0.005561 -0.999969 0.005595
0.208254 0.512063 0.183327 0.001606 -0.040128 0.999193
0.499992 0.650802 0.133296 0.999950 -0.004573 -0.008857
0.038203 0.354865 0.122532 -0.067505 -0.993499 -0.091672
0.143729 0.671530 0.150394 0.009090 0.999932 0.007344
0.275766 0.971236 0.025001 -0.213800 0.922430 -0.321577
0.096130 0.368059 0.078174 -0.154878 0.985897 -0.063397
0.319053 0.354865 0.095989 0.024107 -0.999187 -0.032308
0.038206 0.057472 0.110507 0.999751 -0.022251 0.001827
0.197852 0.354865 0.043209 -0.084410 -0.984174 -0.155807
0.486799 0.509087 0.144507 -0.999955 -0.009323 0.001665
0.291659 0.658335 0.066872 -0.009590 -0.996671 -0.080961
0.213894 0.810070 0.177515 0.016504 -0.999558 0.024714
0.038203 0.312084 0.080150 0.998325 -0.006437 -0.057497
0.499990 0.805708 0.144680 0.999905 0.013798 -0.000131
0.355032 0.671530 0.077641 0.013205 0.998089 -0.060374
0.337469 0.810070 0.035688 -0.024597 -0.993303 -0.112891
0.490505 0.130937 0.025010 -0.973335 0.014544 -0.228926
0.459150 0.368059 0.088679 0.035521 0.998915 -0.030120
0.499994 0.502332 0.099172 0.999070 0.004410 -0.042894
0.410151 0.354865 0.129430 0.029808 -0.999506 0.009925
0.257883 0.810070 0.098370 0.011615 -0.998972 -0.043817
0.486804 0.115196 0.089294 -0.999668 -0.015322 -0.020705
0.486801 0.411846 0.088500 -0.999083 -0.010243 -0.041566
0.055465 0.519794 0.176216 0.004945 0.999560 0.029259
0.025011 0.097394 0.122358 -0.999835 -0.015448 0.009546
0.302323 0.658335 0.129487 0.022730 -0.999728 -0.005202
0.300995 0.354865 0.118733 0.022733 -0.999631 -0.014854
0.486803 0.218264 0.159258 -0.999332 -0.013516 0.033954
0.420063 0.354865 0.086774 0.030823 -0.999181 -0.026214
0.428455 0.368059 0.170465 0.065454 0.994916 0.076534
0.486805 0.055437 0.161318 0.969941 0.230179 -0.078937
0.269015 0.368059 0.058845 -0.072423 0.994041 -0.081465
0.062342 0.051395 0.064303 0.000000 -1.000000 0.000000
0.473060 0.671530 0.102377 0.043804 0.998998 -0.009222
0.483041 0.519794 0.093542 0.041660 0.998932 -0.019959
0.038740 0.368059 0.031950 -0.279809 0.954181 -0.106050
0.486800 0.500214 0.086427 -0.998076 0.008936 -0.061360
0.486805 0.051586 0.143285 -0.999391 -0.016027 0.031006
0.025004 0.635289 0.097247 -0.997324 0.023427 -0.069249
0.481631 0.203130 0.079878 0.034930 -0.999110 -0.023629
0.321517 0.354865 0.099803 0.024238 -0.999297 -0.028611
0.025009 0.267986 0.069097 -0.998733 -0.013152 -0.048571
0.235649 0.961806 0.115741 0.018466 -0.999473 -0.026703
0.258420 0.519794 0.029661 -0.135645 0.984720 -0.109210
0.282595 0.961806 0.087678 0.010910 -0.998627 -0.051239
0.499999 0.140304 0.124317 0.999649 -0.021948 0.014846
0.499994 0.532194 0.180097 0.997830 -0.018545 0.063180
0.025002 0.854704 0.130731 -0.997956 0.029946 -0.056457
0.038199 0.602495 0.046113 0.987671 0.125244 -0.093917
0.116268 0.823265 0.090294 -0.117738 0.991693 -0.051787
0.486803 0.246848 0.031122 -0.994517 0.019231 -0.102795
0.188472 0.519794 0.093507 -0.061572 0.996915 -0.048668
0.387616 0.063026 0.183328 0.003886 -0.004271 0.999983
0.038196 0.853140 0.156481 0.999914 0.007206 0.010987
0.499990 0.840848 0.171204 0.999554 -0.005173 0.029403
0.237004 0.519794 0.118108 0.010837 0.999679 -0.022918
0.025003 0.703163 0.172608 -0.999890 -0.006366 0.013432
0.069102 0.671530 0.156463 -0.023245 0.999669 0.011013
0.463873 0.658335 0.139025 0.033247 -0.999110 0.025945
0.281554 0.058306 0.183328 0.002320 -0.032913 0.999456
0.466119 0.658335 0.120720 0.033564 -0.999385 0.010154
0.417174 0.354865 0.149034 0.030088 -0.999151 0.028157
0.356540 0.519794 0.026396 -0.074122 0.990940 -0.111997
0.339701 0.508036 0.025001 -0.049584 -0.984146 -0.170288
0.223971 0.051395 0.157911 0.000000 -1.000000 0.000000
0.289618 0.064589 0.089054 0.019203 0.993100 -0.115688
0.316671 0.961806 0.151424 0.023475 -0.999595 0.016076
0.499989 0.893404 0.067329 0.982124 0.173069 -0.074020
0.308621 0.368059 0.071542 -0.020803 0.997392 -0.069114
0.038202 0.326174 0.172324 0.997438 -0.024696 0.067135
0.397694 0.819404 0.025001 -0.054560 0.950856 -0.304788
0.038196 0.853837 0.181400 0.999080 -0.006760 0.042349
0.038202 0.391204 0.153788 0.999130 -0.018505 0.037367
0.499995 0.412920 0.141919 0.999690 -0.015273 0.019649
0.181518 0.203130 0.068310 -0.062208 -0.990559 -0.122162
0.355100 0.666377 0.183328 0.003217 -0.028568 0.999587
0.349092 0.823265 0.042079 -0.049245 0.994061 -0.097043
0.075550 0.203130 0.161292 -0.002257 -0.999885 -0.014976
0.400102 0.823265 0.125982 0.041677 0.999056 0.012275
0.486800 0.434837 0.172392 -0.999463 -0.010291 0.031094
0.302254 0.671095 0.183259 0.006735 0.375036 0.926986
0.423842 0.658335 0.117325 0.030817 -0.999524 0.001207
0.425130 0.506600 0.028151 0.009394 -0.995868 -0.090323
0.438162 0.064589 0.104305 0.103431 0.988522 -0.110120
0.133671 0.354865 0.041064 -0.118474 -0.975741 -0.184103
0.038195 0.963512 0.135296 0.997074 0.075883 -0.009255
0.457055 0.203130 0.148289 0.032708 -0.998917 0.033099
0.025009 0.281436 0.033016 -0.994055 0.023882 -0.106230
0.104592 0.961806 0.031272 -0.144149 -0.966917 -0.210460
0.466338 0.658335 0.131244 0.033482 -0.999250 0.019447
0.112090 0.810070 0.168208 0.009917 -0.999949 0.002145
0.167745 0.671530 0.087687 -0.087105 0.994724 -0.054187
0.436259 0.671530 0.159259 0.062019 0.996095 0.062831
0.122070 0.365939 0.183327 0.000963 0.005409 0.999985
0.038199 0.613054 0.128245 0.999902 -0.004960 -0.013085
0.041161 0.961806 0.099278 -0.094185 -0.987316 -0.127814
0.422897 0.203130 0.089198 0.030990 -0.999239 -0.023698
0.290879 0.203130 0.066343 -0.010611 -0.996565 -0.082131
0.240180 0.203130 0.161057 0.018373 -0.999736 0.013768
0.038199 0.598529 0.145049 0.999901 -0.008935 0.010849
0.294149 0.064589 0.145037 0.080747 0.995900 -0.040785
0.489648 0.748005 0.025010 -0.908185 0.210505 -0.361784
0.491015 0.025000 0.063577 -0.994476 -0.058331 -0.087259
0.499989 0.856094 0.112533 0.995979 0.084103 -0.030859
0.394653 0.506600 0.059567 0.029360 -0.998127 -0.053669
0.038197 0.780942 0.047623 0.980325 0.174318 -0.092607
0.200070 0.961806 0.032181 -0.096545 -0.980279 -0.172430
0.292643 0.209747 0.183328 0.002414 -0.035593 0.999363
0.486802 0.316577 0.116525 -0.999873 -0.012259 -0.010140
0.305925 0.051395 0.064314 0.000000 -1.000000 0.000000
0.499996 0.349310 0.108190 0.999702 -0.010776 -0.021907
0.401498 0.658335 0.136649 0.029177 -0.999461 0.015068
0.038207 0.962705 0.054987 -0.466015 -0.845081 -0.262045
0.192731 0.216324 0.054439 -0.133637 0.987308 -0.085818
0.039093 0.216324 0.134623 -0.085846 0.996261 -0.009682
0.025003 0.782219 0.075783 -0.988501 0.075015 -0.131298
0.107042 0.671530 0.044637 -0.210915 0.972889 -0.094883
0.170659 0.658335 0.152087 0.013896 -0.999896 -0.003855
0.193180 0.203130 0.158450 0.015315 -0.999871 0.004858
0.038202 0.364008 0.062071 0.996549 0.028261 -0.078047
0.025003 0.788857 0.048974 -0.978916 0.104920 -0.175259
0.216907 0.823265 0.090857 -0.047014 0.997591 -0.051004
0.344081 0.671530 0.043820 -0.049369 0.994213 -0.095409
0.425307 0.064589 0.052858 0.045540 0.983207 -0.176719
0.447376 0.051395 0.147639 0.000000 -1.000000 0.000000
0.486800 0.396654 0.166688 -0.999531 -0.010874 0.028624
0.486805 0.044599 0.142189 -0.999404 -0.016135 0.030507
0.486794 0.956779 0.049923 -0.969377 0.136040 -0.204451
0.464790 0.059126 0.183328 0.004376 -0.036442 0.999326
0.349419 0.203130 0.088751 0.026160 -0.999065 -0.034425
0.268700 0.961806 0.060163 -0.028982 -0.994483 -0.100810
0.084202 0.810070 0.179097 0.007995 -0.999938 0.007796
0.499994 0.494910 0.096763 0.998958 0.006407 -0.045179
0.074539 0.506600 0.085547 -0.094261 -0.986128 -0.136625
0.038199 0.575364 0.162931 0.999231 -0.013446 0.036839
0.139773 0.354865 0.163240 0.011773 -0.999929 0.001599
0.298161 0.975000 0.144488 0.032486 0.999226 0.022197
0.320354 0.354865 0.113428 0.024049 -0.999570 -0.016796
0.027678 0.545234 0.025008 -0.946459 0.140909 -0.290449
0.270889 0.823265 0.109638 0.012876 0.999488 -0.029276
0.346434 0.203130 0.160249 0.025345 -0.999286 0.028026
0.025009 0.288250 0.042534 -0.995626 0.015008 -0.092215
0.471868 0.667473 0.183328 0.004578 -0.026702 0.999633
0.243137 0.358445 0.183327 0.001895 -0.055707 0.998445
0.119186 0.823265 0.043584 -0.204653 0.974124 -0.095913
0.170590 0.671530 0.171137 0.022514 0.998965 0.039533
0.154833 0.810070 0.122792 -0.009578 -0.998930 -0.045240
0.025011 0.103425 0.072219 -0.999269 -0.015559 -0.034934
0.025002 0.862324 0.064653 -0.981136 0.102415 -0.163963
0.132065 0.823265 0.159161 0.010904 0.999786 0.017562
0.038198 0.703302 0.066635 0.990077 0.119140 -0.074515
0.038205 0.134882 0.092303 0.999472 -0.015601 -0.028512
0.486799 0.553098 0.122725 -0.999754 -0.008767 -0.020396
0.369134 0.368059 0.127684 0.037200 0.999261 0.009678
0.220617 0.506600 0.135605 0.017313 -0.999786 -0.011323
0.038195 0.952728 0.158011 0.999367 0.033375 0.012356
0.493629 0.558113 0.183336 -0.031194 -0.000875 0.999513
0.105274 0.354865 0.106637 -0.053550 -0.994435 -0.090729
0.140635 0.052698 0.183327 0.000985 -0.067910 0.997691
0.487363 0.941788 0.025010 -0.949289 0.174238 -0.261709
0.409398 0.064589 0.078031 0.064050 0.987785 -0.142054
0.126862 0.823265 0.147700 -0.000380 0.999996 0.002769
0.025011 0.076897 0.147579 -0.999331 -0.015636 0.033075
0.025008 0.380501 0.025047 -0.989150 0.051584 -0.137555
0.499989 0.920165 0.088716 0.988112 0.144049 -0.053715
0.067310 0.961806 0.116208 -0.060752 -0.994053 -0.090379
0.038205 0.118501 0.099623 0.999692 -0.017719 -0.017358
0.138132 0.975000 0.088226 -0.106576 0.992851 -0.053746
0.125397 0.506600 0.176803 0.010712 -0.999877 0.011495
0.345736 0.975000 0.135778 0.036743 0.999173 0.017402
0.206242 0.064589 0.098427 -0.019716 0.995070 -0.097200
0.289277 0.203130 0.047283 -0.034374 -0.992961 -0.113342
0.263457 0.671530 0.057758 -0.078355 0.993507 -0.082484
0.499996 0.346353 0.113182 0.999818 -0.011909 -0.014885
