0.139670 0.157978 0.025000 -0.023752 -0.013615 -0.999625
0.459524 0.093581 0.751572 0.972386 -0.115746 -0.202651
0.167873 0.967157 0.814796 -0.076030 0.996965 0.016763
0.452778 0.380478 0.387730 0.524722 0.000126 -0.851273
0.423993 0.558725 0.055246 0.067225 -0.012031 0.997665
0.425282 0.101255 0.025000 0.162581 -0.075812 -0.983779
0.127340 0.127317 0.388649 -0.739860 -0.010505 -0.672679
0.387053 0.193965 0.408112 0.000000 0.000000 1.000000
0.360511 0.640529 0.760981 0.000000 0.000000 1.000000
0.377631 0.684543 0.025000 0.021592 0.010353 -0.999713
0.225678 0.786200 0.025000 -0.035239 0.026899 -0.999017
0.128988 0.754752 0.387788 -0.686874 -0.006135 -0.726750
0.381238 0.967157 0.542077 -0.195335 0.980685 0.010077
0.258664 0.329570 0.025000 0.016525 -0.013763 -0.999769
0.301319 0.394637 0.025000 0.030302 -0.013339 -0.999452
0.127340 0.693104 0.415699 -0.858672 -0.000073 0.512526
0.127340 0.461795 0.414791 -0.876901 -0.000075 0.480672
0.309532 0.936504 0.740689 0.000000 0.387915 -0.921695
0.158822 0.746612 0.422266 0.670441 -0.009083 0.741907
0.288573 0.823485 0.025000 -0.020554 0.027556 -0.999409
0.171620 0.780351 0.760981 0.000000 0.000000 1.000000
0.441547 0.926822 0.025000 0.014874 0.029795 -0.999445
0.354920 0.607859 0.055246 0.049244 -0.008002 0.998755
0.241360 0.096813 0.408112 0.000000 0.000000 1.000000
0.033193 0.414743 0.025000 -0.074714 0.011273 -0.997141
0.145421 0.946266 0.398640 -0.511126 0.672489 -0.535265
0.401493 0.952034 0.402005 -0.044481 -0.999005 -0.003312
0.079823 0.325891 0.025000 -0.061422 0.005615 -0.998096
0.465077 0.410165 0.034859 0.390408 -0.135861 -0.910562
0.158835 0.042642 0.867443 -0.108788 0.993886 0.018884
0.194547 0.025729 0.038030 0.375863 -0.342513 -0.861053
0.313877 0.035434 0.025000 0.107215 -0.063453 -0.992209
0.219651 0.626033 0.408112 0.000000 0.000000 1.000000
0.187965 0.027519 0.170029 0.151464 -0.988309 -0.017452
0.251097 0.062197 0.387675 0.000000 -0.214375 -0.976752
0.184644 0.952034 0.516105 0.122330 -0.992469 -0.006343
0.124666 0.963831 0.276365 -0.392204 0.919805 0.011575
0.160559 0.180147 0.764667 0.924411 0.050173 0.378082
0.400502 0.952034 0.152549 0.014852 -0.999763 -0.015932
0.296497 0.787417 0.025000 -0.017850 0.025484 -0.999516
0.357376 0.702195 0.408112 0.000000 0.000000 1.000000
0.184251 0.042642 0.814223 -0.021597 0.999640 0.015894
0.379941 0.897649 0.055246 0.031373 0.015205 0.999392
0.410444 0.042642 0.427795 -0.113703 0.993500 0.005364
0.025000 0.751899 0.040940 -0.895685 0.355026 0.267778
0.160559 0.263617 0.765501 0.919199 0.003803 0.393776
0.448254 0.524451 0.422232 0.316504 -0.000146 0.948591
0.459524 0.687803 0.763158 0.959231 -0.000046 0.282625
0.394191 0.446581 0.025000 0.077556 -0.024301 -0.996692
0.427815 0.717381 0.760981 0.000000 0.000000 1.000000
0.115038 0.439860 0.025000 -0.055169 0.010902 -0.998417
0.462197 0.952380 0.652503 0.205888 -0.978568 -0.003902
0.141259 0.027519 0.099042 0.000499 -0.999849 -0.017351
0.160309 0.760351 0.422268 0.702854 -0.010973 0.711249
0.270440 0.564879 0.760981 0.000000 0.000000 1.000000
0.203765 0.933983 0.387822 0.036662 0.357775 -0.933088
0.189815 0.625266 0.760981 0.000000 0.000000 1.000000
0.299613 0.076977 0.055246 0.046773 -0.034898 0.998296
0.212825 0.728202 0.055246 -0.038966 0.024916 0.998930
0.427633 0.042642 0.133585 0.125785 0.991820 -0.021697
0.250377 0.975000 0.048545 -0.133269 0.099729 0.986049
0.455772 0.042642 0.662429 0.079436 0.996826 0.005213
0.438609 0.042642 0.275037 0.141340 0.989830 -0.016113
0.415034 0.027519 0.168283 0.042175 -0.998984 -0.015880
0.208132 0.959263 0.429827 0.959584 -0.273832 -0.064922
0.180794 0.872822 0.055246 -0.086610 0.050307 0.994971
0.398955 0.027519 0.547443 -0.188834 -0.981932 0.012319
0.168081 0.929801 0.422301 0.135953 0.412483 0.900763
0.426305 0.401118 0.408916 -0.976581 -0.000033 0.215150
0.109666 0.172000 0.025000 -0.044754 -0.006003 -0.998980
0.439413 0.225252 0.775053 -0.175909 0.024726 0.984096
0.139045 0.390123 0.422212 -0.293024 -0.000143 0.956105
0.426305 0.602742 0.409744 -0.966662 -0.000039 0.256054
0.131759 0.955010 0.055246 -0.132460 0.070529 0.988676
0.311084 0.257164 0.760981 0.000000 0.000000 1.000000
0.458344 0.204272 0.422184 0.699164 0.008556 0.714910
0.032266 0.468193 0.025000 -0.076059 0.014114 -0.997003
0.157331 0.771107 0.055246 -0.081481 0.041300 0.995819
0.208132 0.034788 0.209911 0.965922 -0.245137 -0.083085
0.031850 0.892464 0.025000 -0.085012 0.036506 -0.995711
0.162760 0.027519 0.783744 -0.117919 -0.992848 0.018666
0.464526 0.238835 0.025000 0.160290 -0.065130 -0.984919
0.048718 0.436470 0.025000 -0.071365 0.012099 -0.997377
0.337541 0.564114 0.025000 0.020045 0.002136 -0.999797
0.359360 0.315404 0.408112 0.000000 0.000000 1.000000
0.295460 0.532410 0.408112 0.000000 0.000000 1.000000
0.425891 0.952034 0.259407 0.093504 -0.995523 -0.013845
0.113561 0.742890 0.025000 -0.061876 0.026937 -0.997720
0.460202 0.780754 0.025000 0.053888 0.007257 -0.998521
0.204861 0.499307 0.025000 -0.034346 0.012174 -0.999336
0.165514 0.967157 0.908212 -0.088797 0.995852 0.019852
0.051230 0.869954 0.055246 -0.165196 0.074480 0.983444
0.426305 0.437761 0.749295 -0.902241 0.000066 -0.431233
0.439170 0.381630 0.025000 0.117664 -0.041517 -0.992185
0.160559 0.832100 0.398978 0.932019 -0.107170 -0.346201
0.461034 0.449420 0.055246 0.078586 -0.018567 0.996734
0.127340 0.392125 0.392137 -0.812582 0.000086 -0.582847
0.101043 0.237560 0.025000 -0.054362 0.000510 -0.998521
0.164046 0.641233 0.025000 -0.047352 0.020522 -0.998667
0.213134 0.821254 0.025000 -0.039057 0.029013 -0.998816
0.138019 0.610461 0.740633 -0.347497 0.000138 -0.937681
0.328489 0.212993 0.055246 0.051022 -0.028312 0.998296
0.174401 0.970712 0.055246 -0.109360 0.064513 0.991907
0.418981 0.767517 0.760981 0.000000 0.000000 1.000000
0.417170 0.364305 0.025000 0.107504 -0.039610 -0.993415
0.142074 0.739152 0.025000 -0.054799 0.026150 -0.998155
0.446194 0.532797 0.025000 0.092960 -0.022849 -0.995408
0.181991 0.168424 0.760981 0.000000 0.000000 1.000000
0.393851 0.027519 0.524337 -0.217674 -0.975934 0.013104
0.404697 0.042642 0.092347 -0.040765 0.999087 -0.012781
0.435261 0.914365 0.055246 0.061913 0.006798 0.998058
0.459524 0.864099 0.771121 0.805031 0.009801 0.593152
0.140905 0.025729 0.028580 0.010718 -0.044792 -0.998939
0.465077 0.681009 0.037759 0.539399 -0.091939 -0.837016
0.149581 0.967157 0.885418 -0.140287 0.989911 0.019893
0.156232 0.042642 0.061087 0.070719 0.997263 -0.021565
0.155964 0.027519 0.204545 0.043736 -0.998934 -0.014783
0.365638 0.561146 0.760981 0.000000 0.000000 1.000000
0.459524 0.204947 0.747130 0.866231 0.016495 -0.499371
0.272726 0.175659 0.760981 0.000000 0.000000 1.000000
0.160559 0.107219 0.748446 0.803421 0.115649 -0.584072
0.198351 0.027519 0.060462 0.191033 -0.981351 -0.021373
0.112339 0.430474 0.055246 -0.043609 0.004755 0.999037
0.135291 0.495483 0.055246 -0.041976 0.008955 0.999079
0.329732 0.074008 0.740547 0.000000 0.235000 -0.971995
0.136600 0.967157 0.271624 -0.150594 0.988595 0.001110
0.459524 0.505479 0.409542 0.969127 -0.000040 0.246563
0.357727 0.732229 0.025000 0.000261 0.020407 -0.999792
0.141328 0.967157 0.905372 -0.168382 0.985500 0.020898
0.277346 0.521411 0.055246 0.031993 -0.010953 0.999428
0.126673 0.042642 0.680533 -0.204124 0.978838 0.014452
0.268522 0.107165 0.025000 0.065460 -0.045230 -0.996830
0.182639 0.952034 0.739198 0.066275 -0.997790 0.004704
0.302923 0.118493 0.760981 0.000000 0.000000 1.000000
0.363234 0.756129 0.025000 -0.000790 0.022431 -0.999748
0.137583 0.027519 0.724975 -0.290248 -0.956576 0.026788
0.160559 0.523252 0.421105 0.743131 -0.000103 0.669146
0.211323 0.659065 0.760981 0.000000 0.000000 1.000000
0.185387 0.957647 0.055246 -0.100100 0.060686 0.993125
0.334373 0.179699 0.408112 0.000000 0.000000 1.000000
0.426305 0.099392 0.417227 -0.399494 0.077954 0.913416
0.451993 0.260113 0.775058 0.497800 0.008949 0.867246
0.392701 0.113508 0.760981 0.000000 0.000000 1.000000
0.393303 0.027519 0.263809 -0.087912 -0.996106 -0.006661
0.213020 0.686523 0.408112 0.000000 0.000000 1.000000
0.430463 0.318815 0.740588 -0.614107 0.000130 -0.789223
0.170234 0.952034 0.392471 0.081203 -0.996652 -0.009545
0.127340 0.813726 0.415941 -0.874217 0.002402 0.485530
0.206700 0.535810 0.760981 0.000000 0.000000 1.000000
0.193995 0.952034 0.446186 0.156701 -0.987605 -0.009005
0.147148 0.967157 0.696372 -0.138335 0.990286 0.014017
0.427713 0.028025 0.763084 0.467609 0.792361 0.391799
0.384780 0.033182 0.184148 -0.559003 -0.829074 -0.012330
0.391272 0.096430 0.408112 0.000000 0.000000 1.000000
0.149716 0.055047 0.025000 0.002131 -0.029224 -0.999571
0.141214 0.454200 0.025000 -0.049042 0.011115 -0.998735
0.444783 0.027519 0.806147 0.049100 -0.998754 0.008874
0.275457 0.145287 0.760981 0.000000 0.000000 1.000000
0.191911 0.952034 0.719192 0.135538 -0.990772 -0.000288
0.125608 0.967815 0.055246 -0.138651 0.073376 0.987619
0.060631 0.174376 0.055246 -0.026236 -0.019128 0.999473
0.463909 0.741934 0.055246 0.073168 -0.003189 0.997315
0.208132 0.955748 0.730315 0.413331 -0.910529 -0.009672
0.190174 0.027519 0.534053 0.139571 -0.990194 -0.006046
0.195780 0.042642 0.629475 0.097272 0.995254 0.002647
0.086109 0.149751 0.055246 -0.007234 -0.026584 0.999620
0.107383 0.936527 0.025000 -0.067434 0.037287 -0.997027
0.266406 0.103742 0.760981 0.000000 0.000000 1.000000
0.252808 0.139437 0.055246 0.033962 -0.030626 0.998954
0.403450 0.743382 0.408112 0.000000 0.000000 1.000000
0.449621 0.952034 0.805783 0.133868 -0.990994 0.003228
0.180395 0.952034 0.248544 0.122424 -0.992370 -0.014608
0.190450 0.800222 0.025000 -0.044192 0.028373 -0.998620
0.405284 0.959356 0.055246 0.035130 0.018503 0.999211
0.145922 0.320787 0.775067 0.122322 -0.000150 0.992490
0.272081 0.064810 0.025000 0.075824 -0.051550 -0.995788
0.279051 0.774757 0.025000 -0.021875 0.025180 -0.999444
0.396113 0.027519 0.281341 -0.074426 -0.997204 -0.006738
0.036913 0.032363 0.055246 -0.016857 -0.031742 0.999354
0.132835 0.027519 0.343939 -0.131794 -0.991277 -0.000388
0.047227 0.246048 0.055246 -0.048227 -0.007137 0.998811
0.325319 0.696479 0.025000 -0.008860 0.020075 -0.999759
0.462197 0.964029 0.486121 0.478456 0.877665 -0.028005
0.253051 0.763349 0.408112 0.000000 0.000000 1.000000
0.093549 0.872619 0.025000 -0.069493 0.034198 -0.996996
0.310344 0.735937 0.055246 0.019580 0.007175 0.999783
0.157136 0.531032 0.422233 0.635962 -0.000119 0.771721
0.268986 0.097580 0.760981 0.000000 0.000000 1.000000
0.298738 0.171722 0.408112 0.000000 0.000000 1.000000
0.296538 0.910020 0.055246 -0.022307 0.032949 0.999208
0.458174 0.950549 0.055246 0.067386 0.007938 0.997695
0.421290 0.042642 0.315336 -0.020361 0.999785 -0.003930
0.293830 0.579043 0.760981 0.000000 0.000000 1.000000
0.208608 0.384758 0.055246 0.017955 -0.016739 0.999699
0.132006 0.109143 0.740556 -0.598543 -0.013477 -0.800977
0.378731 0.961241 0.747977 -0.777484 0.625502 0.065320
0.127340 0.130196 0.411644 -0.916834 -0.028785 0.398230
0.445200 0.856135 0.055246 0.066188 0.003227 0.997802
0.234385 0.130663 0.408112 0.000000 0.000000 1.000000
0.465077 0.504609 0.046798 0.238335 -0.065711 0.968957
0.410294 0.737617 0.055246 0.060115 -0.002302 0.998189
0.267616 0.186193 0.408112 0.000000 0.000000 1.000000
0.154224 0.234758 0.740575 0.538120 0.005005 -0.842853
0.175005 0.952034 0.083516 0.113321 -0.993365 -0.019586
0.457253 0.967157 0.587482 0.178214 0.983982 -0.004325
0.187714 0.769894 0.408112 0.000000 0.000000 1.000000
0.143780 0.193691 0.740569 -0.013320 0.007403 -0.999884
0.459524 0.788002 0.407885 0.988028 -0.000021 0.154276
0.296032 0.506332 0.408112 0.000000 0.000000 1.000000
0.200563 0.903530 0.055246 -0.080337 0.050593 0.995483
0.397365 0.410919 0.408112 0.000000 0.000000 1.000000
0.430206 0.952034 0.199856 0.110937 -0.993699 -0.015947
0.158649 0.042642 0.575786 -0.094006 0.995525 0.009638
0.411328 0.042642 0.110869 0.003428 0.999884 -0.014842
0.233183 0.864694 0.408112 0.000000 0.000000 1.000000
0.443815 0.874589 0.775154 0.108997 -0.023395 0.993767
0.127340 0.495972 0.773661 -0.749506 -0.000107 0.661998
0.084900 0.156443 0.055246 -0.007927 -0.026087 0.999628
0.159519 0.511634 0.422230 0.697352 -0.000110 0.716729
0.153170 0.042642 0.538534 -0.110165 0.993875 0.008728
0.237545 0.140199 0.408112 0.000000 0.000000 1.000000
0.468246 0.038731 0.705437 0.378405 0.925637 -0.002253
0.429846 0.193410 0.422182 -0.589973 0.029567 0.806881
0.318270 0.673689 0.760981 0.000000 0.000000 1.000000
0.127340 0.440322 0.750881 -0.931845 0.000055 -0.362855
0.405781 0.081004 0.025000 0.154615 -0.074819 -0.985138
0.392203 0.209198 0.055246 0.066740 -0.029829 0.997324
0.356544 0.896750 0.745222 0.000000 -0.692419 -0.721496
0.359854 0.081643 0.422161 0.000000 0.469452 0.882958
0.251269 0.434082 0.408112 0.000000 0.000000 1.000000
0.229345 0.148418 0.055246 0.028004 -0.029662 0.999168
0.203565 0.967157 0.822741 0.061045 0.998046 0.013306
0.308116 0.946295 0.753044 0.000000 0.924190 -0.381933
0.203527 0.952034 0.803542 0.169044 -0.985607 0.001790
0.430585 0.027519 0.581100 0.048643 -0.998815 -0.001244
0.266628 0.292835 0.025000 0.028499 -0.020171 -0.999390
0.402920 0.952034 0.291084 0.015614 -0.999810 -0.011665
0.083073 0.409557 0.025000 -0.062378 0.009965 -0.998003
0.160559 0.097822 0.757358 0.963584 0.265734 0.029868
0.287493 0.719554 0.760981 0.000000 0.000000 1.000000
0.442259 0.337913 0.025000 0.127916 -0.047882 -0.990629
0.421596 0.967157 0.700071 -0.071109 0.997382 0.013136
0.177687 0.072557 0.740547 0.134549 0.069025 -0.988500
0.273936 0.524714 0.760981 0.000000 0.000000 1.000000
0.202338 0.620511 0.760981 0.000000 0.000000 1.000000
0.391995 0.139100 0.408112 0.000000 0.000000 1.000000
0.380143 0.357555 0.025000 0.086044 -0.033414 -0.995731
0.143860 0.247033 0.025000 -0.038135 -0.002649 -0.999269
0.459524 0.464925 0.407770 0.988088 -0.000025 0.153887
0.289106 0.874997 0.760981 0.000000 0.000000 1.000000
0.444353 0.329828 0.422203 0.089507 -0.000148 0.995986
0.389060 0.435167 0.055246 0.061244 -0.017832 0.997964
0.124666 0.032106 0.366212 -0.563413 -0.825898 0.021393
0.194945 0.027519 0.799869 0.132023 -0.991242 0.003087
0.034428 0.228434 0.055246 -0.052714 -0.007012 0.998585
0.247812 0.934992 0.055246 -0.057231 0.045686 0.997315
0.223164 0.854978 0.408112 0.000000 0.000000 1.000000
0.410821 0.967157 0.808414 -0.112550 0.993499 0.017110
0.127340 0.258425 0.409521 -0.968921 -0.000032 0.247370
0.440078 0.042642 0.265424 0.158401 0.987217 -0.017639
0.419099 0.080553 0.408112 0.000000 0.000000 1.000000
0.160559 0.665976 0.767532 0.880177 -0.000075 0.474646
0.310925 0.367968 0.408112 0.000000 0.000000 1.000000
0.401817 0.089023 0.408398 -0.355659 0.885775 0.298176
0.440836 0.813665 0.740664 -0.124509 -0.015516 -0.992097
0.224671 0.557914 0.025000 -0.030704 0.014857 -0.999418
0.129457 0.027519 0.627600 -0.303766 -0.952464 0.023202
0.190639 0.656074 0.408112 0.000000 0.000000 1.000000
0.442944 0.975000 0.052790 0.061071 0.018123 0.997969
0.155131 0.042642 0.370797 -0.094835 0.995487 0.003324
0.204055 0.796630 0.025000 -0.040773 0.027901 -0.998779
0.426305 0.191917 0.748551 -0.879809 0.024728 -0.474684
0.426305 0.845733 0.396046 -0.809538 -0.132791 -0.571852
0.412560 0.683915 0.760981 0.000000 0.000000 1.000000
0.124666 0.957772 0.821204 -0.902218 -0.423323 0.082465
0.225235 0.046867 0.754172 0.000000 -0.970856 -0.239665
0.247134 0.377070 0.760981 0.000000 0.000000 1.000000
0.387430 0.967157 0.810602 -0.189307 0.981748 0.018254
0.247958 0.873233 0.760981 0.000000 0.000000 1.000000
0.236374 0.088865 0.753041 0.000000 0.945553 -0.325470
0.249867 0.234547 0.055246 0.031247 -0.025539 0.999185
0.449869 0.777082 0.387793 0.391448 -0.004847 -0.920187
0.468246 0.035217 0.632445 0.997781 -0.054868 -0.037724
0.456336 0.916855 0.422297 0.648643 0.133963 0.749210
0.183874 0.967157 0.576072 0.029193 0.999563 0.004560
0.409555 0.109048 0.025000 0.151587 -0.071847 -0.985829
0.460800 0.027519 0.319192 0.185114 -0.982627 -0.013321
0.169956 0.042642 0.650263 -0.060431 0.998107 0.011432
0.198670 0.032189 0.025000 0.036757 -0.041738 -0.998452
0.427216 0.637995 0.387769 -0.700296 0.000115 -0.713853
0.351146 0.186167 0.025000 0.101167 -0.050593 -0.993582
0.133618 0.304552 0.740586 -0.542380 0.000139 -0.840133
0.168973 0.027519 0.471429 0.072858 -0.997318 -0.006980
0.127340 0.496617 0.390678 -0.781004 0.000092 -0.624526
0.041479 0.975000 0.041225 -0.843011 0.399791 0.359861
0.158315 0.952034 0.563672 -0.039534 -0.999212 0.003586
0.102736 0.650851 0.055246 -0.091951 0.035813 0.995119
0.378917 0.952034 0.670869 -0.359743 -0.932612 0.028646
0.313715 0.695436 0.025000 -0.011691 0.020263 -0.999726
0.199288 0.931805 0.055246 -0.086570 0.054595 0.994749
0.174323 0.088787 0.749003 0.562017 0.531767 -0.633531
0.027135 0.797731 0.025000 -0.084193 0.031607 -0.995948
0.136537 0.459444 0.387742 -0.420311 0.000134 -0.907380
0.244478 0.197160 0.408112 0.000000 0.000000 1.000000
0.365680 0.547494 0.408112 0.000000 0.000000 1.000000
0.274418 0.970365 0.055246 -0.047612 0.045263 0.997840
0.377051 0.396858 0.760981 0.000000 0.000000 1.000000
0.465077 0.858945 0.031508 0.091849 0.020526 -0.995561
0.304394 0.485649 0.760981 0.000000 0.000000 1.000000
0.123244 0.603166 0.055246 -0.070140 0.025549 0.997210
0.398111 0.089050 0.409782 -0.243581 0.885423 0.395845
0.300438 0.046815 0.398608 0.000000 -0.916548 -0.399925
0.059906 0.416915 0.025000 -0.068214 0.010835 -0.997612
0.148534 0.427779 0.025000 -0.046690 0.009567 -0.998864
0.432065 0.027519 0.063718 0.104253 -0.994348 -0.020068
0.144581 0.656912 0.740640 0.039409 0.000148 -0.999223
0.314429 0.906009 0.408112 0.000000 0.000000 1.000000
0.201728 0.027519 0.085236 0.200649 -0.979444 -0.020734
0.313891 0.475116 0.760981 0.000000 0.000000 1.000000
0.449471 0.641977 0.740638 0.379155 0.000137 -0.925333
0.381791 0.271533 0.408112 0.000000 0.000000 1.000000
0.384780 0.033984 0.391090 -0.931207 -0.361876 0.043574
0.141657 0.112495 0.025000 -0.013842 -0.020030 -0.999704
0.240280 0.089186 0.416888 0.000000 0.768428 0.639936
0.234046 0.818039 0.025000 -0.033849 0.028407 -0.999023
0.399346 0.926481 0.387820 -0.018024 0.152880 -0.988080
0.367974 0.839613 0.760981 0.000000 0.000000 1.000000
0.292275 0.360554 0.408112 0.000000 0.000000 1.000000
0.160559 0.444867 0.767987 0.870035 -0.000080 0.492990
0.160559 0.654800 0.772865 0.766706 -0.000100 0.641998
0.124923 0.206794 0.055246 0.001108 -0.024388 0.999702
0.386186 0.892406 0.055246 0.036191 0.013310 0.999256
0.157358 0.473871 0.055246 -0.024230 0.001862 0.999705
0.354720 0.859146 0.408112 0.000000 0.000000 1.000000
0.254303 0.225539 0.408112 0.000000 0.000000 1.000000
0.028170 0.787301 0.025000 -0.083723 0.031036 -0.996006
0.168686 0.316989 0.408112 0.000000 0.000000 1.000000
0.409193 0.042642 0.720520 -0.133253 0.990973 0.014690
0.295838 0.846030 0.408112 0.000000 0.000000 1.000000
0.362418 0.941251 0.387825 0.000000 0.484774 -0.874639
0.253975 0.396014 0.408112 0.000000 0.000000 1.000000
0.276835 0.159311 0.055246 0.039453 -0.030076 0.998769
0.379164 0.967157 0.127072 -0.180433 0.983583 -0.002864
0.145087 0.967157 0.769990 -0.148975 0.988704 0.016444
0.160559 0.339008 0.760480 0.989209 -0.000021 0.146512
0.257106 0.192598 0.025000 0.041931 -0.031660 -0.998619
0.384780 0.038537 0.717056 -0.509290 0.859640 0.040532
0.397216 0.042642 0.083881 -0.095787 0.995357 -0.009487
0.151488 0.089087 0.055246 0.010101 -0.031165 0.999463
0.127340 0.055448 0.768369 -0.614895 -0.557298 0.557963
0.459524 0.185629 0.759541 0.994448 0.010492 0.104703
0.335526 0.671072 0.025000 -0.001663 0.016602 -0.999861
0.130639 0.042642 0.187196 -0.165604 0.986192 -0.001252
0.468246 0.029114 0.601471 0.270772 -0.962601 -0.009028
0.160559 0.482961 0.389542 0.757045 0.000096 -0.653363
0.181747 0.952034 0.095916 0.134930 -0.990663 -0.019513
0.426714 0.338695 0.760981 0.000000 0.000000 1.000000
0.192556 0.952034 0.428785 0.152908 -0.988195 -0.009486
0.347533 0.484069 0.025000 0.041581 -0.010368 -0.999081
0.202712 0.221163 0.055246 0.019932 -0.025261 0.999482
0.239176 0.189209 0.025000 0.031512 -0.028652 -0.999093
0.300473 0.355296 0.055246 0.041159 -0.020212 0.998948
0.459524 0.686137 0.411021 0.948048 -0.000044 0.318128
0.291678 0.251412 0.760981 0.000000 0.000000 1.000000
0.412333 0.812999 0.408112 0.000000 0.000000 1.000000
0.195631 0.573878 0.408112 0.000000 0.000000 1.000000
0.142724 0.952034 0.578026 -0.173476 -0.984756 0.012733
0.127340 0.144509 0.766827 -0.873239 -0.020447 0.486862
0.111009 0.629905 0.055246 -0.082828 0.031447 0.996068
0.459524 0.626430 0.750493 0.924407 0.000054 -0.381408
0.111936 0.155893 0.025000 -0.040315 -0.008564 -0.999150
0.160559 0.717589 0.421019 0.741529 -0.003928 0.670909
0.447401 0.751140 0.775135 0.269970 -0.000147 0.962869
0.025000 0.739471 0.041121 -0.877448 0.344688 0.333579
0.160559 0.159280 0.409451 0.967740 0.075369 0.240413
0.135761 0.848081 0.055246 -0.109550 0.055639 0.992423
0.407209 0.027519 0.478254 -0.086250 -0.996270 0.002708
0.455230 0.967157 0.808622 0.049190 0.998699 0.013431
0.382136 0.517658 0.408112 0.000000 0.000000 1.000000
0.395256 0.514335 0.408112 0.000000 0.000000 1.000000
0.390399 0.027519 0.471038 -0.217631 -0.975972 0.010709
0.439704 0.027519 0.147417 0.125100 -0.991985 -0.017777
0.170318 0.288577 0.055246 0.010555 -0.021020 0.999723
0.060698 0.454142 0.055246 -0.079968 0.017799 0.996638
0.355216 0.135498 0.055246 0.059205 -0.032958 0.997702
0.248295 0.623706 0.025000 -0.026274 0.017841 -0.999496
0.450230 0.244826 0.387710 0.421496 0.010284 -0.906772
0.136508 0.042642 0.718515 -0.174302 0.984575 0.015210
0.260947 0.367144 0.025000 0.010716 -0.009223 -0.999900
0.191807 0.418798 0.055246 0.007470 -0.011980 0.999900
0.252701 0.936846 0.025000 -0.031749 0.034296 -0.998907
0.400280 0.030475 0.912536 -0.587025 -0.807031 0.064056
0.433672 0.317138 0.387721 -0.500140 0.000129 -0.865945
0.236259 0.418155 0.408112 0.000000 0.000000 1.000000
0.264425 0.848689 0.055246 -0.030323 0.030987 0.999060
0.450028 0.042642 0.891279 -0.006861 0.999814 0.018038
0.181977 0.967157 0.181204 0.218983 0.975399 -0.025361
0.445522 0.942582 0.025000 0.015520 0.030543 -0.999413
0.200711 0.037491 0.055246 0.023285 -0.034924 0.999119
0.256416 0.063730 0.740544 0.000000 -0.157457 -0.987526
0.245322 0.946366 0.756718 0.000000 0.994323 -0.106399
0.143401 0.967157 0.807710 -0.156483 0.987522 0.017716
0.413804 0.830844 0.760981 0.000000 0.000000 1.000000
0.387456 0.355338 0.760981 0.000000 0.000000 1.000000
0.224795 0.388242 0.760981 0.000000 0.000000 1.000000
0.312101 0.159323 0.408112 0.000000 0.000000 1.000000
0.168209 0.337247 0.055246 0.008576 -0.018200 0.999798
0.206647 0.421811 0.055246 0.015976 -0.014407 0.999769
0.180148 0.967157 0.729612 -0.030773 0.999436 0.013425
0.297138 0.078892 0.775029 0.000000 0.389944 0.920839
0.432070 0.642541 0.387769 -0.560991 0.000133 -0.827822
0.417909 0.354716 0.055246 0.070002 -0.022676 0.997289
0.068663 0.367550 0.055246 -0.058401 0.004807 0.998282
0.447664 0.027519 0.163125 0.150465 -0.988458 -0.017652
0.307981 0.600327 0.055246 0.037868 -0.007423 0.999255
0.302514 0.619853 0.025000 -0.012101 0.016152 -0.999796
0.390116 0.027519 0.184799 -0.073144 -0.997261 -0.011007
0.305603 0.249380 0.025000 0.060930 -0.033455 -0.997581
0.445382 0.027519 0.727919 0.092279 -0.995730 0.002494
0.156565 0.143667 0.055246 0.010207 -0.028388 0.999545
0.147989 0.027519 0.559322 -0.121051 -0.992609 0.008561
0.127340 0.649119 0.766801 -0.894939 -0.000070 0.446189
0.398937 0.625701 0.408112 0.000000 0.000000 1.000000
0.319961 0.364305 0.025000 0.047640 -0.020950 -0.998645
0.127340 0.560997 0.420591 -0.753923 -0.000101 0.656963
0.285333 0.210966 0.408112 0.000000 0.000000 1.000000
0.365705 0.107014 0.760981 0.000000 0.000000 1.000000
0.185112 0.072861 0.740547 0.079758 0.142153 -0.986626
0.147286 0.027519 0.415056 -0.052272 -0.998630 -0.002246
0.173702 0.297094 0.025000 -0.029424 -0.001755 -0.999565
0.149555 0.227592 0.422188 0.320943 0.015028 0.946979
0.147906 0.869031 0.775153 -0.010404 -0.110864 0.993781
0.264372 0.413091 0.055246 0.031073 -0.016406 0.999382
0.334183 0.663424 0.055246 0.042984 -0.004635 0.999065
0.430829 0.569270 0.055246 0.068680 -0.011616 0.997571
0.126610 0.027519 0.059498 -0.045677 -0.998798 -0.017784
0.451741 0.707082 0.055246 0.070917 -0.004775 0.997471
0.147719 0.042642 0.435349 -0.122709 0.992426 0.005731
0.415771 0.414217 0.408112 0.000000 0.000000 1.000000
0.429518 0.642748 0.387769 -0.641930 0.000124 -0.766763
0.329066 0.835247 0.025000 -0.010843 0.027329 -0.999568
0.074182 0.380036 0.025000 -0.063941 0.008591 -0.997917
0.146779 0.027519 0.426414 -0.062146 -0.998066 -0.001122
0.435159 0.290575 0.387717 -0.436095 0.000148 -0.899900
0.396669 0.967157 0.658860 -0.151277 0.988405 0.013045
0.156975 0.042642 0.356444 -0.073803 0.997272 0.001344
0.300634 0.973580 0.055246 -0.032026 0.040625 0.998661
0.431337 0.952034 0.724220 0.031219 -0.999493 0.006311
0.025000 0.836840 0.053126 -0.206384 0.088762 0.974437
0.046408 0.365261 0.055246 -0.071659 0.008772 0.997391
0.068998 0.825368 0.025000 -0.074523 0.032208 -0.996699
0.128133 0.437658 0.025000 -0.051908 0.010513 -0.998597
0.462673 0.259143 0.025000 0.155325 -0.062117 -0.985909
0.171454 0.952034 0.151325 0.097979 -0.995039 -0.017259
0.436191 0.042642 0.298039 0.109488 0.993903 -0.013030
0.398220 0.743585 0.025000 0.022923 0.014197 -0.999636
0.279987 0.946071 0.741355 0.000000 0.582587 -0.812768
0.390256 0.133904 0.025000 0.135124 -0.064941 -0.988698
0.426305 0.431774 0.401405 -0.980642 0.000026 -0.195809
0.371265 0.251842 0.055246 0.060712 -0.027145 0.997786
0.465077 0.656297 0.027456 0.101211 -0.014294 -0.994762
0.178167 0.284086 0.760981 0.000000 0.000000 1.000000
0.159082 0.892468 0.387810 0.162630 -0.042229 -0.985783
0.299805 0.422066 0.760981 0.000000 0.000000 1.000000
0.224362 0.718960 0.055246 -0.030066 0.021465 0.999317
0.450843 0.557464 0.740626 0.443961 0.000132 -0.896046
0.180731 0.952034 0.529000 0.108744 -0.994053 -0.005743
0.040660 0.246019 0.055246 -0.052261 -0.005884 0.998616
0.175381 0.288635 0.025000 -0.026788 -0.003192 -0.999636
0.071550 0.485488 0.025000 -0.066795 0.014214 -0.997665
0.361380 0.129008 0.025000 0.118412 -0.060113 -0.991143
0.340335 0.435862 0.055246 0.049266 -0.016784 0.998645
0.441534 0.542706 0.422235 -0.085936 -0.000154 0.996301
0.462197 0.956535 0.564298 0.534416 -0.844818 -0.026093
0.229174 0.825424 0.408112 0.000000 0.000000 1.000000
0.046596 0.399012 0.055246 -0.078037 0.013203 0.996863
0.399508 0.075977 0.760981 0.000000 0.000000 1.000000
0.447107 0.029901 0.025000 0.189082 -0.089149 -0.977906
0.445898 0.304221 0.025000 0.136567 -0.053019 -0.989211
0.181279 0.027519 0.792106 0.029069 -0.999532 0.009548
0.035556 0.368419 0.025000 -0.073165 0.008779 -0.997281
0.127340 0.199551 0.417402 -0.813852 -0.000091 0.581072
0.211966 0.534390 0.025000 -0.033335 0.013879 -0.999348
0.211297 0.946438 0.760480 0.037917 0.982329 0.183282
0.327935 0.765164 0.408112 0.000000 0.000000 1.000000
0.424099 0.027519 0.179615 0.071697 -0.997298 -0.015987
0.174575 0.958835 0.055246 -0.106973 0.062907 0.992270
0.439452 0.800309 0.025000 0.037376 0.013797 -0.999206
0.453701 0.182024 0.025000 0.164487 -0.070547 -0.983853
0.244730 0.246605 0.408112 0.000000 0.000000 1.000000
0.213491 0.206390 0.408112 0.000000 0.000000 1.000000
0.192589 0.255324 0.408112 0.000000 0.000000 1.000000
0.056360 0.221018 0.055246 -0.037805 -0.012180 0.999211
0.155944 0.027519 0.579641 -0.066963 -0.997737 0.006049
0.213443 0.081671 0.055246 0.025491 -0.032856 0.999135
0.348917 0.606005 0.025000 0.019004 0.005488 -0.999804
0.197421 0.378877 0.055246 0.015328 -0.016816 0.999741
0.258363 0.434696 0.760981 0.000000 0.000000 1.000000
0.240694 0.340521 0.025000 0.003362 -0.008858 -0.999955
0.173687 0.824427 0.408112 0.000000 0.000000 1.000000
0.432293 0.346449 0.775071 -0.552993 -0.000131 0.833186
0.347977 0.858365 0.025000 -0.006678 0.028153 -0.999581
0.391724 0.027519 0.592354 -0.269304 -0.962859 0.019441
0.451080 0.643864 0.387769 0.454525 0.000140 -0.890734
0.155209 0.129761 0.025000 -0.008819 -0.020351 -0.999754
0.309176 0.107091 0.760981 0.000000 0.000000 1.000000
0.145461 0.704066 0.387779 0.088141 -0.003552 -0.996102
0.413813 0.224581 0.055246 0.071716 -0.029461 0.996990
0.443059 0.027519 0.431155 0.121206 -0.992587 -0.008947
0.160559 0.612691 0.393910 0.849906 0.000079 -0.526934
0.147594 0.636511 0.055246 -0.061551 0.025295 0.997783
0.124666 0.964782 0.265268 -0.313952 0.949411 0.007336
0.144921 0.481201 0.055246 -0.033296 0.005216 0.999432
0.145981 0.027519 0.386688 -0.048267 -0.998827 -0.003751
0.164333 0.608162 0.408112 0.000000 0.000000 1.000000
0.431965 0.027519 0.705880 -0.003005 -0.999966 0.007692
0.435132 0.527814 0.740621 -0.437356 0.000133 -0.899288
0.321545 0.886322 0.025000 -0.013762 0.030186 -0.999450
0.224064 0.480715 0.408112 0.000000 0.000000 1.000000
0.445616 0.314013 0.055246 0.077639 -0.025395 0.996658
0.378731 0.956158 0.401823 -0.528642 -0.848514 0.023710
0.191524 0.952034 0.394737 0.151319 -0.988429 -0.010512
0.202615 0.745811 0.760981 0.000000 0.000000 1.000000
0.391563 0.027519 0.551116 -0.249515 -0.968233 0.016329
0.162004 0.337826 0.025000 -0.041494 0.004536 -0.999128
0.355739 0.564230 0.055246 0.050360 -0.010323 0.998678
0.350272 0.082284 0.740551 0.000000 0.490622 -0.871372
0.447168 0.967157 0.568961 0.106875 0.994272 -0.000633
0.415636 0.361295 0.408112 0.000000 0.000000 1.000000
0.200108 0.967157 0.675506 0.108338 0.994106 0.003974
0.168237 0.027519 0.099693 0.090035 -0.995762 -0.018741
0.128665 0.967157 0.648231 -0.196039 0.980505 0.013348
0.212886 0.316248 0.408112 0.000000 0.000000 1.000000
0.252648 0.671720 0.408112 0.000000 0.000000 1.000000
0.187818 0.967157 0.859732 -0.012157 0.999779 0.017149
0.378522 0.106963 0.408112 0.000000 0.000000 1.000000
0.205860 0.856538 0.408112 0.000000 0.000000 1.000000
0.141383 0.515610 0.387750 -0.158359 0.000146 -0.987382
0.425209 0.733820 0.760981 0.000000 0.000000 1.000000
0.154999 0.952034 0.105190 0.045758 -0.998792 -0.017891
0.161517 0.027519 0.672927 -0.069992 -0.997492 0.010487
0.235362 0.129588 0.055246 0.029878 -0.030782 0.999079
0.426305 0.369368 0.421269 -0.739269 -0.000100 0.673411
0.280567 0.195882 0.408112 0.000000 0.000000 1.000000
0.435181 0.271861 0.055246 0.075964 -0.027405 0.996734
0.057623 0.495222 0.025000 -0.070413 0.015016 -0.997405
0.209266 0.698681 0.025000 -0.037441 0.022617 -0.999043
0.160559 0.261321 0.411526 0.939002 0.004224 0.343885
0.159974 0.027519 0.417844 0.045827 -0.998916 -0.008223
0.323741 0.187496 0.408112 0.000000 0.000000 1.000000
0.349252 0.547427 0.055246 0.049119 -0.011076 0.998732
0.379278 0.344754 0.760981 0.000000 0.000000 1.000000
0.336426 0.390437 0.025000 0.052763 -0.020649 -0.998394
0.302380 0.944595 0.775171 0.000000 0.543014 0.839724
0.160559 0.570807 0.397180 0.916346 0.000058 -0.400387
0.145389 0.591679 0.775111 0.089569 -0.000155 0.995981
0.143470 0.042642 0.582246 -0.144410 0.989461 0.010581
0.337998 0.853354 0.025000 -0.009026 0.028098 -0.999564
0.450314 0.967157 0.624187 0.103745 0.994602 0.002007
0.197353 0.897301 0.773878 0.049039 -0.569466 0.820551
0.388232 0.967157 0.654952 -0.178589 0.983834 0.013311
0.426305 0.364505 0.399139 -0.950824 0.000046 -0.309733
0.111009 0.722900 0.055246 -0.100715 0.043781 0.993951
0.217016 0.555625 0.025000 -0.032539 0.014896 -0.999359
0.208132 0.955501 0.541113 0.417481 -0.908463 -0.020112
0.459524 0.549427 0.748907 0.894222 0.000065 -0.447624
0.433491 0.834200 0.740667 -0.411013 -0.055827 -0.909919
0.421771 0.042642 0.777023 -0.094661 0.995383 0.015873
0.444537 0.952034 0.871820 0.062450 -0.997987 0.011000
0.359646 0.259542 0.408112 0.000000 0.000000 1.000000
0.100896 0.464427 0.025000 -0.059155 0.012493 -0.998171
0.424204 0.042642 0.193135 0.066123 0.997697 -0.015095
0.137963 0.967157 0.694522 -0.168313 0.985629 0.014387
0.105167 0.673158 0.055246 -0.094745 0.038305 0.994764
0.419258 0.967157 0.502898 -0.068472 0.997629 0.007002
0.358185 0.046885 0.402259 0.000000 -0.984262 -0.176715
0.434248 0.042642 0.397525 0.041995 0.999109 -0.004206
0.465077 0.294371 0.027166 0.178803 -0.069344 -0.981438
0.430807 0.812027 0.760981 0.000000 0.000000 1.000000
0.462197 0.959229 0.863249 0.947366 -0.316419 0.048762
0.156281 0.611793 0.760981 0.000000 0.000000 1.000000
0.429311 0.729423 0.408112 0.000000 0.000000 1.000000
0.443132 0.869635 0.055246 0.065398 0.003983 0.997851
0.427319 0.539185 0.760981 0.000000 0.000000 1.000000
0.275210 0.419581 0.025000 0.009432 -0.005021 -0.999943
0.190128 0.567532 0.025000 -0.039398 0.016085 -0.999094
0.124666 0.041218 0.511260 -0.269712 0.962842 0.013792
0.389100 0.027519 0.740866 -0.363295 -0.931124 0.032021
0.193702 0.027519 0.596704 0.147842 -0.989002 -0.004240
0.170909 0.191729 0.055246 0.012727 -0.026150 0.999577
0.328932 0.387655 0.025000 0.048676 -0.019577 -0.998623
0.193967 0.088862 0.760981 0.000000 0.000000 1.000000
0.400409 0.595344 0.055246 0.060673 -0.009608 0.998111
0.307000 0.072545 0.025000 0.095857 -0.057219 -0.993749
0.368915 0.510026 0.055246 0.054731 -0.013460 0.998410
0.297552 0.088655 0.742134 0.000000 0.664814 -0.747009
0.336898 0.077610 0.775029 0.000000 0.349543 0.936920
0.192841 0.029089 0.055246 0.021525 -0.035203 0.999148
0.428648 0.969087 0.761387 0.658662 0.700661 0.274297
0.411530 0.816127 0.055246 0.058771 0.001817 0.998270
0.192115 0.952034 0.278319 0.159362 -0.987118 -0.014219
0.401367 0.906340 0.422294 -0.124880 -0.315861 0.940551
0.455178 0.780963 0.387793 0.599472 0.000137 -0.800395
0.383640 0.129103 0.760981 0.000000 0.000000 1.000000
0.176419 0.898620 0.760981 0.000000 0.000000 1.000000
0.220828 0.267212 0.760981 0.000000 0.000000 1.000000
0.025000 0.266414 0.035728 -0.311851 0.046551 -0.948990
0.388940 0.866072 0.055246 0.042873 0.009299 0.999037
0.361133 0.129487 0.760981 0.000000 0.000000 1.000000
0.081019 0.560087 0.025000 -0.066035 0.017957 -0.997656
0.465077 0.445306 0.045519 0.302694 -0.093076 0.948532
0.437752 0.161127 0.740564 -0.189648 0.074554 -0.979018
0.245206 0.728144 0.025000 -0.029222 0.023424 -0.999298
0.287029 0.424303 0.055246 0.036408 -0.016286 0.999204
0.074720 0.960167 0.055246 -0.168041 0.081897 0.982372
0.429381 0.283895 0.422196 -0.642431 0.002239 0.766340
0.362427 0.131174 0.760981 0.000000 0.000000 1.000000
0.462596 0.027519 0.490706 0.181988 -0.983268 -0.008003
0.309487 0.474912 0.760981 0.000000 0.000000 1.000000
0.146676 0.161463 0.387697 0.163961 0.002698 -0.986463
0.189033 0.027519 0.908889 0.032280 -0.999370 0.014724
0.412478 0.052241 0.422151 0.029916 -0.591400 0.805824
0.171166 0.359480 0.760981 0.000000 0.000000 1.000000
0.435491 0.313395 0.422200 -0.420827 -0.000135 0.907141
0.124666 0.031289 0.249925 -0.348597 -0.937273 -0.000421
0.048248 0.117681 0.025000 -0.064797 -0.004718 -0.997887
0.391585 0.154183 0.055246 0.067737 -0.032720 0.997167
0.414182 0.635646 0.408112 0.000000 0.000000 1.000000
0.180117 0.501500 0.760981 0.000000 0.000000 1.000000
0.390306 0.952034 0.848479 -0.362143 -0.931394 0.036854
0.025000 0.375546 0.026823 -0.093696 0.014178 -0.995500
0.316556 0.556033 0.408112 0.000000 0.000000 1.000000
0.421212 0.952034 0.575109 0.025396 -0.999677 -0.000030
0.127340 0.768471 0.773450 -0.761876 -0.012088 0.647610
0.354662 0.258391 0.408112 0.000000 0.000000 1.000000
0.449366 0.547524 0.422236 0.373913 -0.000143 0.927464
0.322447 0.454816 0.408112 0.000000 0.000000 1.000000
0.187823 0.911147 0.760981 0.000000 0.000000 1.000000
0.307025 0.075108 0.408112 0.000000 0.000000 1.000000
0.207628 0.027519 0.842175 0.180318 -0.983604 0.002798
0.190709 0.042642 0.386401 0.182270 0.983154 -0.013610
0.080414 0.761431 0.055246 -0.126850 0.054713 0.990412
0.154362 0.967157 0.756418 -0.117721 0.992925 0.015576
0.253917 0.587888 0.408112 0.000000 0.000000 1.000000
0.444703 0.433660 0.025000 0.111081 -0.035689 -0.993170
0.431008 0.124369 0.775038 -0.198083 0.039725 0.979380
0.124666 0.028399 0.280117 -0.193850 -0.981031 -0.000439
0.199051 0.042642 0.159817 0.362630 0.931268 -0.035199
0.446805 0.145816 0.422174 0.416440 0.016759 0.909009
0.321177 0.089157 0.768216 0.000000 0.809540 0.587065
0.252404 0.711680 0.760981 0.000000 0.000000 1.000000
0.444509 0.952034 0.600221 0.136978 -0.990566 -0.003970
0.160559 0.543784 0.772452 0.775068 -0.000102 0.631878
0.287072 0.269589 0.760981 0.000000 0.000000 1.000000
0.459983 0.027519 0.565131 0.169619 -0.985494 -0.005534
0.343813 0.105021 0.055246 0.057043 -0.034332 0.997781
0.269734 0.268490 0.408112 0.000000 0.000000 1.000000
0.034227 0.963875 0.025000 -0.085915 0.040222 -0.995490
0.285879 0.896268 0.760981 0.000000 0.000000 1.000000
0.127340 0.592560 0.407459 -0.990708 -0.000021 0.136005
0.132407 0.150104 0.775042 -0.531039 -0.019700 0.847119
0.230359 0.118340 0.408112 0.000000 0.000000 1.000000
0.195404 0.573980 0.408112 0.000000 0.000000 1.000000
0.177049 0.562834 0.760981 0.000000 0.000000 1.000000
0.453809 0.774844 0.025000 0.051093 0.007700 -0.998664
0.070583 0.200681 0.025000 -0.061062 -0.000803 -0.998134
0.449632 0.561535 0.055246 0.073449 -0.012414 0.997222
0.438065 0.293438 0.422197 -0.290025 -0.000142 0.957019
0.175932 0.903154 0.055246 -0.095441 0.055265 0.993900
0.392827 0.027519 0.151221 -0.034848 -0.999283 -0.014810
0.465077 0.123214 0.049592 0.168253 -0.071436 0.983152
0.146922 0.329309 0.025000 -0.045020 0.004400 -0.998976
0.355780 0.374271 0.055246 0.054349 -0.020359 0.998314
0.384780 0.035799 0.748160 -0.919427 0.385481 0.077843
0.025000 0.704939 0.026238 -0.094955 0.031390 -0.994987
0.127340 0.660681 0.415177 -0.869520 -0.000074 0.493898
0.187853 0.042642 0.837147 -0.010858 0.999806 0.016430
0.161140 0.952034 0.475805 0.027374 -0.999615 -0.004560
0.187583 0.027519 0.684571 0.123136 -0.992389 -0.001166
0.212933 0.699579 0.055246 -0.033386 0.021093 0.999220
0.058684 0.962369 0.025000 -0.079902 0.039645 -0.996014
0.451288 0.168534 0.422178 0.535962 0.019091 0.844026
0.169996 0.029176 0.055246 0.015905 -0.034720 0.999270
0.147314 0.967157 0.890784 -0.148021 0.988779 0.020167
0.146414 0.027519 0.239088 0.010251 -0.999861 -0.013184
0.162803 0.453794 0.408112 0.000000 0.000000 1.000000
0.140049 0.135993 0.775040 -0.165520 -0.021612 0.985970
0.034401 0.170812 0.055246 -0.041663 -0.014598 0.999025
0.350569 0.827454 0.055246 0.026767 0.011559 0.999575
0.199665 0.593922 0.760981 0.000000 0.000000 1.000000
0.242503 0.497384 0.760981 0.000000 0.000000 1.000000
0.361780 0.327088 0.760981 0.000000 0.000000 1.000000
0.117160 0.622431 0.055246 -0.077600 0.029275 0.996555
0.449247 0.967157 0.369182 0.227060 0.973728 -0.017226
0.101312 0.226291 0.055246 -0.011215 -0.020049 0.999736
0.196797 0.952034 0.542806 0.160784 -0.986971 -0.006090
0.338669 0.482446 0.025000 0.036431 -0.008880 -0.999297
0.127340 0.540583 0.763868 -0.948043 -0.000053 0.318141
0.223637 0.954605 0.055246 -0.075945 0.052951 0.995705
0.252488 0.090319 0.408112 0.000000 0.000000 1.000000
0.194359 0.245237 0.055246 0.017373 -0.023814 0.999565
0.168451 0.763024 0.025000 -0.048819 0.026865 -0.998446
0.384699 0.967157 0.566642 -0.185434 0.982599 0.010691
0.312090 0.272353 0.025000 0.060505 -0.031650 -0.997666
0.208132 0.966358 0.440820 0.331847 0.943102 -0.020867
0.428327 0.237197 0.760981 0.000000 0.000000 1.000000
0.261632 0.849840 0.408112 0.000000 0.000000 1.000000
0.174981 0.546113 0.760981 0.000000 0.000000 1.000000
0.059328 0.501654 0.055246 -0.089951 0.024356 0.995648
0.179376 0.042642 0.739120 -0.033833 0.999333 0.013767
0.403220 0.027519 0.553383 -0.157547 -0.987455 0.010606
0.440667 0.042642 0.832302 -0.034821 0.999255 0.016665
0.160559 0.161075 0.414347 0.858387 0.080507 0.506647
0.463425 0.576223 0.055246 0.076520 -0.011924 0.996997
0.313541 0.570980 0.055246 0.039850 -0.009089 0.999164
0.445069 0.901086 0.740678 0.230173 -0.024286 -0.972847
0.378141 0.214992 0.055246 0.063170 -0.029233 0.997575
0.110713 0.731012 0.025000 -0.062326 0.026369 -0.997707
0.403097 0.470898 0.408112 0.000000 0.000000 1.000000
0.449672 0.849182 0.025000 0.034279 0.018276 -0.999245
0.166661 0.077332 0.408112 0.000000 0.000000 1.000000
0.244193 0.226153 0.760981 0.000000 0.000000 1.000000
0.424705 0.906920 0.025000 0.011156 0.029100 -0.999514
0.188765 0.027519 0.601002 0.131422 -0.991319 -0.003863
0.456226 0.413062 0.055246 0.078169 -0.020386 0.996732
0.145062 0.042642 0.410993 -0.130171 0.991479 0.005092
0.447819 0.305756 0.055246 0.078351 -0.025876 0.996590
0.257697 0.748771 0.055246 -0.015244 0.019001 0.999703
0.459524 0.639447 0.419772 0.771399 -0.000097 0.636352
0.120262 0.364885 0.055246 -0.026129 -0.005428 0.999644
0.156500 0.723875 0.408112 0.000000 0.000000 1.000000
0.109155 0.761402 0.055246 -0.109246 0.049237 0.992795
0.468246 0.040780 0.456867 0.389553 0.920691 -0.024004
0.132884 0.460135 0.422222 -0.568749 -0.000126 0.822511
0.462100 0.967157 0.466896 0.277981 0.960453 -0.016047
0.430511 0.042642 0.590478 -0.055820 0.998396 0.009513
0.442272 0.042642 0.560364 0.023447 0.999716 0.004227
0.162971 0.594504 0.025000 -0.046637 0.018075 -0.998748
0.296183 0.391054 0.408112 0.000000 0.000000 1.000000
0.080871 0.645955 0.055246 -0.104446 0.039350 0.993752
0.157035 0.184226 0.055246 0.009474 -0.026255 0.999610
0.179436 0.602487 0.760981 0.000000 0.000000 1.000000
0.252706 0.445741 0.760981 0.000000 0.000000 1.000000
0.444439 0.573454 0.422240 0.094825 -0.000154 0.995494
0.208132 0.963709 0.093728 0.670433 0.739196 -0.064097
0.146374 0.042642 0.819303 -0.147346 0.988922 0.017946
0.451251 0.647757 0.740639 0.462051 0.000131 -0.886853
0.127873 0.027519 0.206812 -0.101229 -0.994828 -0.008306
0.124666 0.042144 0.820084 -0.239841 0.970586 0.020931
0.204645 0.940012 0.422304 0.035489 0.475835 0.878818
0.380085 0.261459 0.760981 0.000000 0.000000 1.000000
0.158226 0.860188 0.387806 0.295706 -0.039090 -0.954479
0.402957 0.042642 0.397186 -0.136735 0.990596 0.004764
0.148900 0.047126 0.767661 -0.189602 -0.822946 0.535548
0.245891 0.747090 0.025000 -0.029450 0.024411 -0.999268
0.366336 0.491121 0.760981 0.000000 0.000000 1.000000
0.334506 0.600558 0.025000 0.011193 0.007523 -0.999909
0.141241 0.952034 0.461764 -0.125017 -0.992145 0.004420
0.389269 0.952034 0.418261 -0.151119 -0.988507 0.004130
0.025000 0.347734 0.033976 -0.254431 0.054669 -0.965545
0.205646 0.027519 0.466636 0.193465 -0.981067 -0.008908
0.127340 0.833389 0.402713 -0.984337 0.030856 -0.173576
0.433570 0.027519 0.679023 0.023490 -0.999713 0.004762
0.025000 0.549339 0.053305 -0.141300 0.044346 0.988973
0.290481 0.379515 0.025000 0.026530 -0.013260 -0.999560
0.122922 0.967468 0.025000 -0.064269 0.038600 -0.997186
0.459524 0.256982 0.744731 0.810696 0.006314 -0.585433
0.172100 0.061668 0.387674 0.028342 -0.269694 -0.962529
0.283013 0.619846 0.408112 0.000000 0.000000 1.000000
0.124666 0.963832 0.722370 -0.425531 0.904315 0.033727
0.335071 0.392972 0.760981 0.000000 0.000000 1.000000
0.210810 0.205418 0.760981 0.000000 0.000000 1.000000
0.160559 0.177562 0.766186 0.893651 0.052968 0.445625
0.365033 0.917610 0.055246 0.018426 0.020726 0.999615
0.423437 0.027519 0.483360 0.040778 -0.999155 -0.005070
0.254491 0.080339 0.387681 0.000000 0.438342 -0.898808
0.115562 0.183241 0.055246 -0.000699 -0.025435 0.999676
0.429023 0.042642 0.462103 -0.032361 0.999470 0.003392
0.228434 0.436946 0.408112 0.000000 0.000000 1.000000
0.127340 0.256334 0.408667 -0.979121 -0.000025 0.203279
0.459524 0.878466 0.393032 0.778399 0.040580 -0.626457
0.398014 0.905967 0.740680 -0.034669 -0.376350 -0.925828
0.179491 0.454084 0.055246 -0.006827 -0.004986 0.999964
0.389576 0.027519 0.734978 -0.356911 -0.933612 0.031363
0.205534 0.029534 0.912536 0.193281 -0.981083 0.010896
0.406339 0.896979 0.757103 -0.426796 -0.892761 -0.144304
0.050061 0.734257 0.055246 -0.140177 0.056881 0.988491
0.446171 0.200349 0.387704 0.215415 0.021552 -0.976285
0.446315 0.952034 0.750035 0.135028 -0.990842 0.000667
0.468246 0.039572 0.178912 0.637007 0.768713 -0.057471
0.426417 0.375484 0.775075 -0.717799 -0.000113 0.696251
0.426305 0.817929 0.387855 -0.625402 -0.076261 -0.776567
0.162488 0.612784 0.025000 -0.047139 0.019051 -0.998707
0.118705 0.730288 0.055246 -0.097405 0.043288 0.994303
0.387565 0.498484 0.760981 0.000000 0.000000 1.000000
0.288654 0.724494 0.025000 -0.018461 0.022323 -0.999580
0.208132 0.954876 0.117069 0.391121 -0.919632 -0.036072
0.025000 0.615449 0.030398 -0.154508 0.047935 -0.986828
0.127340 0.462306 0.759719 -0.994600 -0.000019 0.103787
0.109612 0.866332 0.025000 -0.065423 0.033536 -0.997294
0.178887 0.845908 0.025000 -0.047990 0.031027 -0.998366
0.051337 0.319343 0.025000 -0.068270 0.005861 -0.997650
0.146305 0.967157 0.746883 -0.143764 0.989488 0.015656
0.176816 0.042642 0.372959 0.076438 0.997046 -0.007507
0.207760 0.042642 0.169117 0.420832 0.906331 -0.038277
0.332121 0.344396 0.408112 0.000000 0.000000 1.000000
0.420139 0.317721 0.025000 0.118254 -0.046341 -0.991902
0.385152 0.201926 0.055246 0.065162 -0.030067 0.997422
0.459524 0.369213 0.413849 0.895754 -0.000066 0.444549
0.435422 0.285940 0.025000 0.133668 -0.053444 -0.989584
0.461572 0.775742 0.025000 0.055694 0.006334 -0.998428
0.222021 0.863671 0.760981 0.000000 0.000000 1.000000
0.459524 0.133478 0.753697 0.991428 -0.058632 -0.116759
0.428734 0.236227 0.055246 0.075128 -0.029153 0.996748
0.025000 0.821486 0.042776 -0.654749 0.274914 0.704078
0.127340 0.212412 0.394685 -0.867516 0.000084 -0.497410
0.224456 0.100849 0.055246 0.027798 -0.032073 0.999099
0.392660 0.497974 0.055246 0.060812 -0.014589 0.998043
0.221448 0.347126 0.025000 -0.009724 -0.004291 -0.999943
0.220332 0.138665 0.760981 0.000000 0.000000 1.000000
0.127340 0.328576 0.750639 -0.927901 0.000062 -0.372828
0.179115 0.626863 0.025000 -0.043348 0.019449 -0.998871
0.033233 0.841041 0.025000 -0.083603 0.033766 -0.995927
0.153794 0.027519 0.068798 0.043669 -0.998866 -0.018985
0.160559 0.611593 0.742557 0.759715 0.000096 -0.650256
0.462197 0.964505 0.421751 0.476792 0.878429 -0.032124
0.400369 0.042642 0.198944 -0.126701 0.991939 -0.002220
0.160559 0.244587 0.744355 0.797314 0.005717 -0.603538
0.370328 0.574850 0.760981 0.000000 0.000000 1.000000
0.214659 0.536015 0.408112 0.000000 0.000000 1.000000
0.025000 0.219627 0.037095 -0.388094 0.033012 -0.921028
0.198524 0.042642 0.449833 0.212013 0.977185 -0.012625
0.063384 0.806364 0.055246 -0.145793 0.063858 0.987252
0.211153 0.946596 0.415842 0.029502 0.760606 0.648543
0.358251 0.148418 0.025000 0.112775 -0.056949 -0.991987
0.411471 0.946262 0.398460 0.000906 0.881703 -0.471805
0.160559 0.539475 0.398211 0.935069 0.000050 -0.354466
0.433650 0.319546 0.025000 0.126168 -0.048671 -0.990814
0.377000 0.848487 0.055246 0.038925 0.009265 0.999199
0.171862 0.433892 0.025000 -0.041086 0.009405 -0.999111
0.389316 0.642652 0.055246 0.056959 -0.006879 0.998353
0.142390 0.389242 0.387732 -0.097010 0.000147 -0.995283
0.129931 0.907658 0.387814 -0.694658 0.202065 -0.690377
0.386280 0.196277 0.055246 0.065557 -0.030389 0.997386
0.362604 0.619539 0.760981 0.000000 0.000000 1.000000
0.324822 0.853209 0.025000 -0.012263 0.028367 -0.999522
0.399354 0.952034 0.333910 -0.027074 -0.999606 -0.007390
0.297158 0.314126 0.408112 0.000000 0.000000 1.000000
0.144988 0.579845 0.055246 -0.052240 0.018275 0.998467
0.410643 0.139669 0.055246 0.072711 -0.033877 0.996778
0.411328 0.930415 0.055246 0.044322 0.013507 0.998926
0.303436 0.260104 0.760981 0.000000 0.000000 1.000000
0.152217 0.027519 0.287671 0.026935 -0.999566 -0.011949
0.462257 0.562231 0.025000 0.097170 -0.022029 -0.995024
