0.534885 0.789899 0.031392 -0.003948 0.998790 -0.049011
0.844537 0.782481 0.075049 0.006150 -0.999892 0.013324
0.788973 0.797306 0.059062 0.006201 -0.998616 -0.052235
0.783797 0.472151 0.027375 0.001927 0.001136 0.999997
0.490657 0.352634 0.025000 0.000422 -0.000515 -1.000000
0.495101 0.383465 0.042882 -0.995886 -0.006869 -0.090349
0.770806 0.671593 0.025000 0.001615 0.002474 -0.999996
0.642754 0.069877 0.115310 0.005365 0.999950 -0.008404
0.723224 0.797306 0.055480 0.002246 -0.996552 -0.082935
0.364713 0.624780 0.107852 -0.002093 -0.999997 -0.001076
0.579812 0.826961 0.102835 0.014224 0.999844 -0.010481
0.598417 0.136538 0.025000 0.000805 -0.004810 -0.999988
0.812156 0.782481 0.083710 0.006113 -0.999824 0.017760
0.195322 0.826961 0.180733 -0.001691 0.991218 0.132225
0.053789 0.173760 0.155859 -0.998010 -0.009537 0.062332
0.492561 0.112656 0.159764 -0.038965 -0.007152 -0.999215
0.777957 0.826961 0.200822 0.028792 0.983012 0.181266
0.870721 0.054779 0.107743 0.031685 0.988285 -0.149292
0.302054 0.025804 0.139243 -0.023239 -0.997779 0.062431
0.429188 0.624780 0.105895 -0.001393 -0.999997 0.002205
0.498902 0.797306 0.090491 -0.009296 -0.997558 -0.069217
0.815351 0.054845 0.060823 0.030354 0.968082 -0.248789
0.503927 0.092313 0.159777 0.054592 -0.013196 -0.998422
0.055770 0.651830 0.154212 -0.984771 0.029198 0.171386
0.455910 0.799798 0.204296 0.026714 -0.955474 0.293865
0.867532 0.448844 0.025000 0.002160 -0.001584 -0.999996
0.187277 0.628491 0.032690 -0.007511 0.999427 -0.032999
0.671243 0.055018 0.109037 0.019687 0.996681 -0.078993
0.667677 0.055022 0.057633 0.021802 0.977922 -0.207832
0.303362 0.789899 0.120020 -0.001381 0.999953 0.009632
0.065661 0.497916 0.100661 0.999852 0.007361 0.015553
0.934433 0.741538 0.034426 -0.999591 0.005876 -0.028004
0.842094 0.340958 0.027375 0.002134 0.000148 0.999998
0.807522 0.094168 0.128072 0.004166 0.999814 0.018824
0.927330 0.595926 0.159764 -0.198563 0.003823 -0.980081
0.203332 0.738820 0.027376 -0.000807 0.002849 0.999996
0.036910 0.789902 0.063664 -0.010230 -0.996618 -0.081540
0.492684 0.370078 0.159764 -0.079875 0.000175 -0.996805
0.933489 0.054691 0.029755 0.016432 -0.998214 -0.057432
0.435459 0.189980 0.025001 0.000098 -0.002791 -0.999996
0.810398 0.450383 0.035515 0.002728 0.999741 -0.022586
0.944324 0.107555 0.072511 0.999115 -0.020367 -0.036790
0.174991 0.789899 0.080624 -0.009351 0.999718 -0.021809
0.266373 0.055501 0.064020 -0.002030 0.998312 -0.058040
0.877805 0.500916 0.025000 0.002231 -0.000804 -0.999997
0.635739 0.797320 0.090298 0.004400 0.999967 -0.006866
0.740557 0.094162 0.025000 0.001424 -0.006501 -0.999978
0.065661 0.374376 0.091085 0.999999 0.001116 0.000683
0.488558 0.446672 0.146495 0.002928 -0.999345 0.036078
0.944324 0.143517 0.061035 0.998511 -0.020475 -0.050564
0.490493 0.624780 0.032959 -0.001843 -0.999301 -0.037336
0.025094 0.799665 0.105222 -0.046649 -0.976674 -0.209600
0.057523 0.553533 0.025001 -0.005032 0.001311 -0.999986
0.944326 0.610302 0.040938 -0.999403 0.002111 0.034489
0.634397 0.055062 0.165148 0.006709 0.996425 0.084212
0.413815 0.268565 0.051631 -0.002312 -0.999509 -0.031239
0.058737 0.518375 0.040144 0.999592 0.002504 -0.028454
0.930614 0.446672 0.147167 0.011419 -0.997249 0.073240
0.381779 0.094168 0.152753 0.001170 0.999608 0.027955
0.492422 0.055218 0.140675 -0.004567 -0.999784 0.020270
0.935214 0.207852 0.159768 -0.996788 -0.003117 0.080021
0.446147 0.450383 0.104207 0.001201 0.999976 0.006868
0.766248 0.054891 0.055255 0.009093 -0.999253 -0.037556
0.504992 0.350960 0.156588 0.996881 0.004539 0.078792
0.851558 0.782481 0.166580 0.017905 -0.994136 0.106643
0.209643 0.826961 0.161692 -0.004320 0.995561 0.094023
0.504992 0.160911 0.032833 0.995835 -0.025357 -0.087573
0.504992 0.305366 0.091239 0.999992 -0.003369 -0.002324
0.346764 0.797306 0.116386 -0.017067 -0.998373 -0.054408
0.463997 0.062670 0.100730 0.002783 0.999982 -0.005404
0.944324 0.489567 0.159686 0.996411 0.008890 0.084181
0.661215 0.826961 0.177373 0.021889 0.990616 0.134910
0.596332 0.782481 0.171435 0.009637 -0.996937 0.077616
0.616523 0.789902 0.065204 -0.000916 -0.999710 -0.024073
0.752977 0.088922 0.027375 0.000386 -0.003306 0.999994
0.495102 0.566382 0.112723 -0.997375 0.012229 0.071375
0.311582 0.208874 0.025001 -0.000449 -0.001612 -0.999999
0.886991 0.331022 0.027375 0.002353 0.000099 0.999997
0.855237 0.789902 0.134134 0.012916 -0.997888 0.063657
0.531979 0.797306 0.060834 -0.008709 -0.991060 -0.133129
0.268478 0.591016 0.027375 -0.000749 0.001519 0.999999
0.153315 0.789902 0.095576 -0.007815 -0.998890 -0.046454
0.496149 0.164837 0.164712 -0.188259 -0.011470 0.982053
0.065661 0.644242 0.097648 0.999834 0.011776 0.013931
0.087507 0.055715 0.121115 -0.043943 0.982508 0.180961
0.765634 0.054905 0.118168 0.024885 0.995862 -0.087401
0.351785 0.628491 0.028797 -0.005113 0.999455 -0.032606
0.097155 0.063108 0.064301 -0.005146 0.999962 0.007047
0.493988 0.776535 0.164712 0.001198 0.128178 0.991750
0.488428 0.234095 0.025000 0.000357 -0.002440 -0.999997
0.755436 0.094168 0.088814 0.003401 0.999993 0.001345
0.233899 0.797320 0.082099 -0.007636 0.999763 -0.020387
0.485494 0.094168 0.071973 -0.000115 0.999962 -0.008741
0.812213 0.782481 0.130270 0.011982 -0.997825 0.064826
0.914886 0.069552 0.086356 0.010361 0.998072 -0.061191
0.391147 0.797306 0.167942 -0.001365 -0.994686 0.102946
0.458847 0.797320 0.159752 0.002979 0.999529 0.030538
0.097094 0.146039 0.025001 -0.001757 -0.001530 -0.999997
0.835148 0.092313 0.162500 0.018143 0.911066 0.411861
0.515130 0.055191 0.094061 -0.001995 -0.999971 -0.007320
0.390450 0.070179 0.166957 -0.008347 0.997158 0.074873
0.281985 0.681747 0.025001 -0.003579 0.002316 -0.999991
0.934433 0.392096 0.096213 -0.999976 -0.004612 -0.005105
0.739794 0.090458 0.044516 0.000525 -0.999898 -0.014300
0.441793 0.272276 0.108659 0.001210 0.999960 0.008809
0.866945 0.628491 0.032425 0.003437 0.999722 -0.023340
0.513024 0.666767 0.027375 0.000696 0.002484 0.999997
0.088140 0.026059 0.125339 -0.033570 -0.998649 0.039661
0.243067 0.691053 0.025001 -0.004053 0.002363 -0.999989
0.469431 0.666984 0.025000 -0.001511 0.002300 -0.999996
0.522043 0.062601 0.155552 -0.001360 0.999352 0.035973
0.053789 0.556055 0.040127 -0.999957 0.004017 0.008306
0.484507 0.085383 0.164712 0.001071 0.112103 0.993696
0.209126 0.062977 0.095105 -0.007944 -0.999968 -0.000946
0.127180 0.286429 0.027376 -0.005180 -0.005364 0.999972
0.841985 0.228138 0.025000 0.001942 -0.005019 -0.999986
0.043784 0.782481 0.181637 -0.008061 -0.999859 0.014718
0.762843 0.097358 0.025000 0.001525 -0.006605 -0.999977
0.974914 0.029267 0.158294 0.039445 -0.995991 0.080282
0.741497 0.069759 0.123203 0.006835 0.999904 -0.012055
0.433339 0.085943 0.027375 -0.003401 -0.006266 0.999975
0.716663 0.797320 0.102721 0.005675 0.999984 0.000504
0.414518 0.782481 0.180618 0.004461 -0.998024 0.062671
0.042080 0.055769 0.052252 -0.022403 0.999736 -0.005095
0.290750 0.628491 0.065124 -0.003708 0.999880 -0.015030
0.042191 0.026114 0.132242 -0.036254 -0.997885 0.053948
0.055770 0.637675 0.137164 -0.990407 0.023870 0.136101
0.080902 0.272276 0.102496 -0.004635 0.999989 0.000943
0.504992 0.232943 0.029612 0.995844 -0.021339 -0.088536
0.115510 0.789899 0.035793 -0.015847 0.998331 -0.055530
0.442546 0.797306 0.101569 -0.012101 -0.998126 -0.059991
0.849314 0.090458 0.118320 0.007606 -0.998914 0.045960
0.215417 0.628491 0.149015 -0.000126 0.999671 0.025641
0.878333 0.062178 0.084690 0.009298 -0.999755 -0.020103
0.456690 0.055274 0.077505 0.008469 0.996154 -0.087203
0.053789 0.124166 0.036424 -0.975350 -0.002320 -0.220651
0.495102 0.213810 0.131513 -0.999873 -0.009763 0.012565
0.381080 0.450383 0.047823 -0.003389 0.999741 -0.022521
0.416543 0.554576 0.027375 0.000142 0.001545 0.999999
0.061539 0.111718 0.164712 -0.193409 -0.013077 0.981031
0.465150 0.025609 0.173606 -0.016462 -0.991984 0.125288
0.631302 0.614302 0.025000 0.000555 0.002006 -0.999998
0.216351 0.515245 0.027376 -0.002051 -0.000348 0.999998
0.065661 0.585037 0.069287 0.999759 0.009079 -0.019967
0.945769 0.670832 0.159768 -0.685495 0.037346 0.727118
0.472781 0.272276 0.083734 0.000455 0.999996 -0.002947
0.856471 0.383943 0.027375 0.002234 0.000493 0.999997
0.117252 0.797306 0.133019 -0.030007 -0.995586 -0.088928
0.821659 0.450383 0.121578 0.004212 0.999863 0.016026
0.495102 0.699380 0.153771 -0.982548 0.032706 0.183112
0.130919 0.268565 0.118281 -0.004066 -0.999941 -0.010062
0.504992 0.223594 0.128573 0.999025 -0.000674 0.044142
0.889640 0.782481 0.049191 0.004463 -0.999967 -0.006767
0.874027 0.194459 0.027375 0.002200 -0.000978 0.999997
0.709807 0.062376 0.095919 0.006806 0.999436 -0.032878
0.572504 0.055136 0.057334 0.016203 0.984103 -0.176860
0.533593 0.070008 0.082671 0.004187 0.999691 -0.024498
0.587709 0.483327 0.027375 0.000953 0.001098 0.999999
0.138426 0.782481 0.153481 -0.007041 -0.999975 0.000901
0.397878 0.268565 0.121362 -0.000777 -0.999943 0.010628
0.065661 0.534247 0.033816 0.997622 -0.000760 -0.068919
0.497964 0.094168 0.048773 -0.001440 0.999792 -0.020352
0.682522 0.446672 0.048185 0.000055 -0.999874 -0.015841
0.421734 0.249336 0.027375 -0.002052 -0.003369 0.999992
0.261643 0.090458 0.127347 -0.002787 -0.999989 0.003797
0.152238 0.229812 0.025001 -0.001767 -0.000916 -0.999998
0.055770 0.431319 0.143617 -0.995624 0.009651 0.092947
0.843425 0.610193 0.025000 0.002127 0.001227 -0.999997
0.065109 0.063147 0.146302 -0.015871 0.996303 0.084430
0.884942 0.083653 0.164712 0.005009 0.097717 0.995202
0.932541 0.141473 0.027375 0.002459 -0.001354 0.999996
0.506324 0.782481 0.150515 0.003870 -0.999002 0.044504
0.847996 0.797306 0.066742 0.015669 -0.999850 -0.007350
0.948581 0.161063 0.130083 0.977488 0.045377 -0.206051
0.146345 0.450383 0.122753 -0.002245 0.999923 0.012183
0.570029 0.789902 0.038108 -0.002131 -0.998806 -0.048798
0.871880 0.576710 0.025000 0.002240 0.000479 -0.999997
0.644720 0.826961 0.060111 0.006922 0.995005 -0.099584
0.265621 0.446672 0.145370 -0.001417 -0.999859 0.016757
0.181472 0.272276 0.033290 -0.007566 0.999434 -0.032778
0.788770 0.826961 0.092502 0.024432 0.999351 -0.026467
0.258096 0.143321 0.027375 -0.004941 -0.006805 0.999965
0.862260 0.062194 0.091812 0.009322 0.998667 -0.050770
0.872261 0.600496 0.025000 0.002252 0.000866 -0.999997
0.497319 0.450383 0.034745 -0.002374 0.999619 -0.027489
0.049435 0.340848 0.160165 -0.272665 -0.002144 -0.962107
0.495101 0.624826 0.072703 -0.999904 0.006595 0.012153
0.312941 0.340197 0.027375 -0.002506 -0.002687 0.999993
0.072383 0.506769 0.159765 0.103831 0.000769 -0.994595
0.638574 0.055043 0.104708 0.000520 -0.999995 -0.003167
0.512970 0.452670 0.027375 0.000559 0.000810 1.000000
0.232338 0.789899 0.094009 -0.006238 0.999922 -0.010809
0.850057 0.074594 0.025000 0.001907 -0.007590 -0.999969
0.367324 0.497546 0.025001 -0.001392 0.001063 -0.999998
0.495101 0.280841 0.083591 -0.998793 -0.009108 -0.048269
0.423527 0.654308 0.027375 0.000241 0.002330 0.999997
0.317289 0.727297 0.027375 -0.000244 0.002832 0.999996
0.446112 0.826961 0.080549 -0.007369 0.997596 -0.068903
0.521136 0.062604 0.161736 -0.004624 -0.999240 0.038707
0.820324 0.097619 0.027375 0.001258 -0.002534 0.999996
0.574528 0.437733 0.025000 0.000839 0.000290 -1.000000
0.975000 0.822706 0.169844 0.059344 0.973725 0.219861
0.430322 0.300670 0.025001 0.000127 -0.000942 -1.000000
0.105198 0.268565 0.082895 -0.004712 -0.999453 -0.032728
0.588416 0.353547 0.027375 0.000856 0.000062 1.000000
0.944324 0.312454 0.137387 0.998427 0.002773 0.055994
0.949273 0.144386 0.054714 0.993898 -0.002811 0.110271
0.338216 0.452540 0.027375 -0.001188 -0.000393 0.999999
0.225020 0.649307 0.027376 -0.000756 0.002163 0.999997
0.326013 0.644633 0.027375 -0.000254 0.002191 0.999998
0.868049 0.025128 0.050441 0.050672 -0.986195 -0.157641
0.325225 0.350677 0.027375 -0.002266 -0.002383 0.999995
0.317507 0.714860 0.027375 -0.000251 0.002735 0.999996
0.061586 0.495048 0.164712 0.010037 0.002558 0.999946
0.759118 0.094168 0.069156 0.003243 0.999968 -0.007288
0.475066 0.272276 0.095263 0.001251 0.999995 0.002947
0.952221 0.062089 0.145640 0.005009 -0.999740 0.022237
0.065661 0.262186 0.157433 0.996902 0.001838 0.078628
0.240845 0.766252 0.159765 -0.002100 -0.036764 -0.999322
0.402017 0.090458 0.067619 -0.002230 -0.999744 -0.022519
0.483197 0.055229 0.069547 -0.000495 -0.999751 -0.022315
0.633407 0.025408 0.138074 -0.005529 -0.998574 0.053093
0.215643 0.797306 0.171715 -0.021030 -0.998887 0.042211
0.279247 0.446672 0.130996 -0.002285 -0.999968 0.007644
0.275624 0.797320 0.176529 0.000729 0.999250 0.038715
0.294704 0.142517 0.025001 -0.000556 -0.002580 -0.999997
0.228126 0.070373 0.119078 -0.007976 0.998808 0.048151
0.822465 0.062242 0.035942 0.009642 0.996029 -0.088505
0.349112 0.826961 0.035505 -0.033508 0.984115 -0.174340
0.944324 0.235378 0.122499 0.999332 -0.001212 0.036531
0.353490 0.296952 0.025001 -0.000220 -0.000464 -1.000000
0.370585 0.119231 0.025001 -0.000226 -0.003494 -0.999994
0.065661 0.562773 0.128627 0.998745 0.010209 0.049035
0.054996 0.305779 0.025001 -0.003320 -0.000429 -0.999994
0.760071 0.289407 0.027375 0.001691 -0.000308 0.999999
0.090551 0.272276 0.109104 -0.004044 0.999982 0.004442
0.362507 0.789899 0.161325 0.001810 0.999288 0.037696
0.077971 0.826961 0.067727 -0.051838 0.990945 -0.123857
0.623556 0.094168 0.145724 0.002937 0.999662 0.025842
0.515171 0.109468 0.027375 -0.002224 -0.005090 0.999985
0.949274 0.379790 0.143890 0.999797 0.005774 0.019311
0.654624 0.446672 0.137420 0.005387 -0.999043 0.043404
0.293106 0.055456 0.143401 -0.007312 -0.999709 0.022982
0.389392 0.712208 0.025001 -0.002667 0.002580 -0.999993
0.414586 0.613585 0.025001 -0.001711 0.001900 -0.999997
0.053789 0.205047 0.042208 -0.994862 0.003554 -0.101179
0.564858 0.268565 0.080183 -0.000624 -0.999990 -0.004499
0.921891 0.826961 0.181857 0.035355 0.988289 0.148441
0.590210 0.797320 0.186812 0.005143 0.998915 0.046295
0.934433 0.696510 0.122214 -0.991977 0.024636 0.123996
0.409422 0.309345 0.025001 0.000037 -0.000654 -1.000000
0.553974 0.446672 0.051235 -0.001061 -0.999749 -0.022376
0.514524 0.070031 0.126643 0.001049 0.999844 0.017629
0.495101 0.429015 0.083453 -0.999844 -0.003744 -0.017272
0.447199 0.551880 0.025001 -0.000936 0.001482 -0.999998
0.660993 0.062437 0.151471 -0.002530 -0.999504 0.031388
0.899140 0.331675 0.025000 0.002247 -0.003725 -0.999991
0.582029 0.450757 0.025000 0.000879 0.000451 -1.000000
0.848263 0.538509 0.027375 0.002292 0.001696 0.999996
0.949274 0.604149 0.134984 0.997562 0.007938 -0.069331
0.288412 0.628491 0.104358 -0.001163 0.999987 0.004881
0.913897 0.094168 0.037720 0.004119 0.999782 -0.020487
0.053789 0.638871 0.047643 -0.992751 -0.001821 0.120176
0.106335 0.621043 0.025001 -0.004994 0.001808 -0.999986
0.216399 0.062966 0.121526 -0.007799 0.999024 0.043477
0.808882 0.484718 0.027375 0.002060 0.001251 0.999997
0.273044 0.325630 0.025001 -0.001174 -0.000187 -0.999999
0.556944 0.757388 0.025000 -0.001229 0.002976 -0.999995
0.514359 0.450383 0.115406 0.001824 0.999925 0.012070
0.761294 0.314368 0.027375 0.001713 -0.000112 0.999999
0.575588 0.658678 0.025000 -0.000340 0.002292 -0.999997
0.629415 0.450383 0.038316 -0.000008 0.999717 -0.023771
0.538357 0.826961 0.174481 0.015496 0.991778 0.127026
0.504992 0.614672 0.036424 0.998083 0.005055 -0.061679
0.504992 0.259403 0.091329 0.999970 -0.006360 -0.004343
0.346343 0.062811 0.141917 -0.005756 0.998944 0.045591
0.241698 0.025876 0.045338 -0.015125 -0.992207 -0.123682
0.504992 0.666788 0.138427 0.997995 0.013702 0.061788
0.173301 0.163063 0.025001 -0.001092 -0.001392 -0.999998
0.250031 0.789899 0.030039 -0.012489 0.998321 -0.056566
0.169234 0.789899 0.181550 -0.000562 0.998795 0.049070
0.249725 0.585146 0.027376 -0.001023 0.001240 0.999999
0.703366 0.797306 0.127311 0.021387 -0.993481 0.111976
0.070985 0.797306 0.033526 -0.036650 -0.935667 -0.350976
0.741897 0.789902 0.178228 0.014212 -0.995930 0.088998
0.486743 0.089574 0.025000 0.000282 -0.004795 -0.999988
0.600827 0.055102 0.190652 -0.007128 0.984837 0.173335
0.244371 0.436755 0.025001 -0.002254 0.000579 -0.999997
0.167765 0.628491 0.048170 -0.006809 0.999654 -0.025419
0.177514 0.180522 0.025001 -0.001157 -0.001251 -0.999999
0.053931 0.581841 0.159769 -0.930014 0.016608 0.367150
0.934433 0.489958 0.123062 -0.997491 0.008966 0.070227
0.930643 0.054708 0.128246 0.034323 0.992513 -0.117219
0.610511 0.342567 0.025000 0.000956 -0.001521 -0.999998
0.121083 0.063082 0.108626 -0.009371 -0.999923 0.008084
0.470416 0.268565 0.153368 0.003121 -0.999216 0.039470
0.039922 0.063672 0.156002 -0.013762 -0.998634 0.050398
0.923998 0.355014 0.159764 -0.156551 -0.000255 -0.987670
0.345107 0.055394 0.116464 -0.006226 -0.999951 0.007747
0.636960 0.797320 0.166066 0.005486 0.999369 0.035106
0.612590 0.090458 0.085630 0.000517 -0.999995 0.002989
0.782085 0.330718 0.027375 0.001828 0.000029 0.999998
0.638069 0.301714 0.025000 0.001061 -0.002383 -0.999997
0.444447 0.036833 0.204296 -0.087881 -0.700919 0.707806
0.548219 0.096858 0.025000 0.000561 -0.005107 -0.999987
0.337192 0.450383 0.156948 0.000872 0.999561 0.029620
0.940343 0.268565 0.042164 0.003361 -0.999994 -0.000778
0.622024 0.628491 0.075887 0.002267 0.999986 -0.004881
0.126151 0.789902 0.047565 -0.009077 -0.996352 -0.084855
0.503366 0.826961 0.100987 0.006068 0.999794 -0.019381
0.762598 0.563730 0.025000 0.001743 0.001034 -0.999998
0.790151 0.789902 0.079352 0.004260 -0.999970 0.006523
0.907393 0.272276 0.155924 0.005185 0.999491 0.031473
0.249919 0.782481 0.085908 -0.006479 -0.998994 -0.044375
0.560988 0.090458 0.149870 0.004576 -0.998999 0.044497
0.849676 0.505156 0.027375 0.002278 0.001437 0.999996
0.124946 0.789899 0.129493 -0.005642 0.999908 0.012353
0.586676 0.529573 0.027375 0.000977 0.001459 0.999998
0.944324 0.772978 0.028768 0.997811 0.013592 -0.064712
0.055770 0.259686 0.041154 -0.992818 -0.011409 -0.119091
0.497080 0.592522 0.159764 -0.093250 0.004016 -0.995635
0.504992 0.558925 0.152234 0.997016 0.010797 0.076433
0.940370 0.090823 0.051667 0.005375 -0.999969 0.005838
0.872995 0.709490 0.025000 0.002307 0.002646 -0.999994
0.857147 0.784971 0.184525 0.052605 -0.944722 0.323626
0.728384 0.826961 0.152358 0.024212 0.995795 0.088352
0.849418 0.797320 0.154720 0.008211 0.999513 0.030109
0.643529 0.062456 0.059932 0.006367 0.998559 -0.053278
0.333779 0.268565 0.143042 -0.000299 -0.999784 0.020759
0.072408 0.138787 0.164712 0.046571 -0.005911 0.998898
0.058737 0.499764 0.047671 0.998816 -0.006515 0.048202
0.882721 0.446672 0.109005 0.007514 -0.999085 0.042098
0.241567 0.624780 0.077978 -0.003547 -0.999635 -0.026791
0.170399 0.094168 0.051704 -0.006534 0.999700 -0.023584
0.173409 0.272276 0.088272 -0.004079 0.999979 -0.004955
0.377183 0.090458 0.069654 -0.002429 -0.999734 -0.022924
0.219287 0.090458 0.031757 -0.004286 -0.998442 -0.055637
0.307841 0.797320 0.075872 -0.006114 0.999722 -0.022776
0.552153 0.055160 0.097568 0.013166 0.997577 -0.068309
0.592411 0.696901 0.027375 0.001113 0.002771 0.999996
0.206359 0.094168 0.038043 -0.006851 0.999526 -0.030005
0.323676 0.626630 0.027375 -0.000277 0.002049 0.999998
0.093740 0.055707 0.106053 -0.037248 0.990372 0.133322
0.574794 0.055119 0.179496 -0.003995 -0.999141 0.041258
0.504992 0.552076 0.101333 0.999814 0.009049 0.017037
0.335825 0.346698 0.027375 -0.002178 -0.002360 0.999995
0.692991 0.789902 0.095965 0.002895 -0.999952 0.009330
0.804670 0.105446 0.027375 0.001145 -0.002533 0.999996
0.448647 0.450383 0.105606 0.001233 0.999971 0.007493
0.944324 0.180957 0.073526 0.999370 -0.015339 -0.032000
0.651631 0.659461 0.025000 0.000451 0.002333 -0.999997
0.159380 0.450383 0.140238 -0.000883 0.999774 0.021255
0.040161 0.782481 0.034286 -0.010854 -0.993920 -0.109569
0.097104 0.797306 0.202171 -0.023880 -0.996284 0.082751
0.542621 0.195416 0.025000 0.000582 -0.003454 -0.999994
0.256846 0.070311 0.027375 -0.005619 -0.008158 0.999951
0.659879 0.055031 0.081440 0.020304 0.989192 -0.145213
0.830747 0.826961 0.194544 0.031222 0.984853 0.170557
0.209545 0.789902 0.049367 -0.007711 -0.997122 -0.075426
0.495102 0.255381 0.138830 -0.999306 -0.005040 0.036893
0.178521 0.789902 0.137467 -0.006680 -0.999896 -0.012743
0.438822 0.062703 0.050781 -0.000078 -0.999407 -0.034421
0.046052 0.055764 0.126040 -0.051047 0.975735 0.212922
0.897850 0.025092 0.057567 0.051487 -0.988192 -0.144310
0.087963 0.321738 0.027376 -0.005320 -0.005072 0.999973
0.437937 0.826961 0.161637 0.009776 0.994887 0.100516
0.055770 0.125666 0.136483 -0.999917 -0.012781 0.001830
0.315154 0.446672 0.087081 -0.002781 -0.999858 -0.016613
0.192647 0.025934 0.186163 -0.030880 -0.987532 0.154363
0.934433 0.142647 0.128055 -0.999892 -0.012480 -0.007770
0.882398 0.446672 0.099963 0.006797 -0.999342 0.035624
0.840842 0.054802 0.043396 0.012416 -0.998830 -0.046737
0.934602 0.782481 0.157779 0.019690 -0.993867 0.108816
0.309000 0.234943 0.025001 -0.000449 -0.001167 -0.999999
0.055770 0.189502 0.146361 -0.999411 -0.008180 0.033342
0.792901 0.446672 0.097750 0.004913 -0.999634 0.026608
0.053789 0.094792 0.132850 -0.975148 0.007506 -0.221427
0.373874 0.337567 0.027375 -0.001813 -0.002182 0.999996
0.054634 0.797306 0.064716 -0.036656 -0.958765 -0.281827
0.602592 0.094168 0.077411 0.002133 0.999989 -0.004289
0.850981 0.363288 0.027375 0.002193 0.000328 0.999998
0.465110 0.568144 0.025000 -0.000863 0.001604 -0.999998
0.727051 0.826961 0.055197 0.014063 0.994436 -0.104395
0.358531 0.272276 0.157959 0.001043 0.999545 0.030151
0.391828 0.055338 0.158186 -0.006179 -0.999513 0.030573
0.468289 0.338719 0.025000 0.000315 -0.000586 -1.000000
0.449503 0.797306 0.063476 -0.013457 -0.987974 -0.154035
0.854888 0.025143 0.031101 0.055683 -0.978593 -0.198130
0.776939 0.054891 0.163675 0.023196 0.999457 0.023408
0.301798 0.775239 0.027375 -0.000291 0.003197 0.999995
0.753011 0.069746 0.104659 0.007370 0.999556 -0.028875
0.493315 0.446672 0.117188 0.000717 -0.999878 0.015578
0.650597 0.025387 0.143547 -0.005577 -0.997938 0.063938
0.852122 0.590777 0.025000 0.002157 0.000848 -0.999997
0.347348 0.670354 0.025001 -0.002814 0.002267 -0.999993
0.442715 0.657243 0.025001 -0.001723 0.002219 -0.999996
0.751054 0.797306 0.042793 0.003309 -0.994403 -0.105604
0.105467 0.450383 0.039340 -0.008395 0.999490 -0.030801
0.455500 0.450383 0.145569 0.001662 0.999684 0.025097
0.055770 0.516266 0.102871 -0.999203 0.005884 0.039492
0.949274 0.693597 0.157959 0.984848 0.008381 0.173216
0.381379 0.070190 0.118871 -0.002608 0.999618 0.027511
0.628015 0.055056 0.135598 -0.002654 -0.999858 0.016640
0.305510 0.055441 0.156384 -0.007326 -0.999520 0.030096
0.163304 0.055611 0.116552 -0.008697 -0.999923 0.008892
0.495101 0.565839 0.068601 -0.999937 0.001042 -0.011190
0.123635 0.094168 0.109075 -0.003512 0.999982 0.004904
0.570476 0.090458 0.036163 -0.001089 -0.999542 -0.030243
0.474427 0.025598 0.155669 -0.015169 -0.995757 0.090760
0.546708 0.789899 0.137410 0.004002 0.999705 0.023941
0.394062 0.624780 0.135904 0.000292 -0.999786 0.020677
0.515587 0.092313 0.163274 0.003126 0.470519 0.882385
0.487603 0.094514 0.164712 -0.392593 -0.018508 0.919526
0.085538 0.797306 0.104602 -0.033272 -0.984531 -0.172021
0.219508 0.789902 0.157437 -0.005673 -0.999965 0.006122
0.898658 0.628491 0.136311 0.004935 0.999727 0.022816
0.452460 0.797306 0.196055 0.016911 -0.977292 0.211220
0.237159 0.446672 0.057729 -0.003824 -0.999228 -0.039088
0.055770 0.459258 0.127632 -0.997478 0.007761 0.070546
0.127207 0.162780 0.025001 -0.001559 -0.001399 -0.999998
0.084557 0.268565 0.091648 -0.004794 -0.999572 -0.028875
0.322698 0.147887 0.025001 -0.000428 -0.002689 -0.999996
0.450697 0.055268 0.049495 0.000547 -0.999407 -0.034435
0.720439 0.054959 0.033776 0.025817 0.958471 -0.284018
0.058737 0.612998 0.035717 0.997442 0.004803 -0.071319
0.062230 0.826961 0.202046 -0.007398 0.985455 0.169777
0.170431 0.789902 0.049567 -0.008334 -0.996834 -0.079072
0.181231 0.063008 0.175656 -0.015344 0.995241 0.096232
0.697181 0.512135 0.027375 0.001519 0.001393 0.999998
0.360065 0.055376 0.128503 -0.006193 -0.999878 0.014326
0.516041 0.081747 0.025000 0.000410 -0.005129 -0.999987
0.063359 0.380677 0.159765 0.024568 0.000064 -0.999698
0.778742 0.647307 0.025000 0.001854 0.002289 -0.999996
0.687017 0.709860 0.027375 0.001595 0.002933 0.999994
0.065661 0.197807 0.073266 0.999399 -0.014290 -0.031566
0.177783 0.826961 0.082615 -0.035832 0.995838 -0.083806
0.393306 0.335371 0.025001 -0.000023 -0.000114 -1.000000
0.063832 0.063148 0.058695 -0.005625 0.999965 0.006165
0.968738 0.826961 0.032536 0.030404 0.990002 -0.137737
0.836924 0.272276 0.131908 0.004425 0.999777 0.020631
0.057205 0.107316 0.130084 0.909448 0.072045 -0.409529
0.306446 0.272276 0.138093 0.000461 0.999775 0.021208
0.313919 0.169238 0.027375 -0.004049 -0.005821 0.999975
0.265487 0.446672 0.107518 -0.002986 -0.999966 -0.007712
0.938729 0.069524 0.177540 0.009045 0.999873 0.013106
0.053789 0.098836 0.043783 -0.992127 0.002473 -0.125212
0.676269 0.054998 0.069773 0.005061 -0.999640 -0.026334
0.485085 0.298561 0.025000 0.000372 -0.001361 -0.999999
0.944324 0.641111 0.074056 0.999847 0.010953 -0.013673
0.937238 0.316673 0.164712 0.003784 -0.002257 0.999990
0.930326 0.062113 0.085934 0.010514 0.998035 -0.061770
0.367023 0.789902 0.053766 -0.005113 -0.998369 -0.056855
0.468938 0.094168 0.086657 0.000585 0.999999 -0.001516
0.655921 0.789902 0.142800 0.007127 -0.998886 0.046653
0.265540 0.268565 0.048137 -0.003681 -0.999071 -0.042934
0.905794 0.025083 0.038439 0.058728 -0.980773 -0.186107
0.422032 0.797320 0.098584 -0.000571 0.999983 -0.005781
0.085734 0.772651 0.027376 -0.001374 0.003038 0.999994
0.539719 0.826961 0.148081 0.014349 0.996972 0.076420
0.810487 0.062256 0.125843 0.007900 0.999762 -0.020339
0.838180 0.159258 0.025000 0.001893 -0.006120 -0.999979
0.098989 0.826961 0.043713 -0.057650 0.982970 -0.174491
0.025261 0.026134 0.094867 -0.035301 -0.999209 -0.018290
0.333590 0.268565 0.149866 0.000233 -0.999672 0.025608
0.598057 0.062510 0.081355 0.005267 0.999445 -0.032878
0.250115 0.789899 0.139226 -0.000915 0.999752 0.022274
0.944324 0.262143 0.034553 0.996579 -0.018380 -0.080579
0.387531 0.624780 0.055450 -0.002503 -0.999526 -0.030679
0.186183 0.025942 0.038766 -0.018761 -0.990810 -0.133955
0.591428 0.055100 0.191437 -0.003937 -0.998851 0.047758
0.944324 0.245336 0.069233 0.999322 -0.012044 -0.034782
0.661001 0.789902 0.079748 0.000048 -0.999960 -0.008911
0.588280 0.225550 0.027375 -0.000309 -0.002292 0.999997
0.693757 0.565817 0.025000 0.001434 0.001551 -0.999998
0.632131 0.025409 0.167083 -0.007640 -0.993949 0.109578
0.053789 0.780484 0.071835 -0.978952 -0.033321 0.201350
0.586908 0.062526 0.143873 -0.003442 -0.999626 0.027118
0.611163 0.600996 0.025000 0.000437 0.001903 -0.999998
0.554431 0.450383 0.072499 0.001033 0.999972 -0.007481
0.726968 0.768694 0.025000 0.000474 0.003134 -0.999995
0.319857 0.624780 0.121851 -0.002227 -0.999987 0.004499
0.708914 0.624780 0.139841 0.006614 -0.998745 0.049638
0.393493 0.055349 0.073450 0.004948 0.997064 -0.076416
0.595954 0.624780 0.070909 -0.000454 -0.999968 -0.007981
0.454882 0.272276 0.098891 0.001164 0.999989 0.004500
0.102994 0.268565 0.143560 -0.004019 -0.999987 0.003120
0.750694 0.138820 0.025000 0.001490 -0.005841 -0.999982
0.116268 0.782481 0.133956 -0.007772 -0.999811 -0.017846
0.514981 0.593430 0.025000 -0.000518 0.001805 -0.999998
0.627470 0.620108 0.025000 0.000474 0.002045 -0.999998
0.342244 0.043768 0.204296 -0.131051 0.420229 0.897905
0.855533 0.826961 0.075380 0.026973 0.997936 -0.058274
0.934433 0.518202 0.068271 -0.999752 -0.001074 -0.022248
0.070938 0.076086 0.164712 -0.010853 -0.345555 0.938336
0.944324 0.284146 0.116494 0.999528 0.000685 0.030714
0.053789 0.386074 0.029075 -0.977426 -0.002111 -0.211266
0.464549 0.055251 0.171801 -0.005383 -0.999276 0.037667
0.809480 0.486197 0.027375 0.002064 0.001263 0.999997
0.944326 0.448822 0.146885 -0.998153 -0.005207 0.060524
0.819831 0.090458 0.132308 0.008141 -0.998536 0.053477
0.839029 0.789902 0.147467 0.013925 -0.997193 0.073570
0.118483 0.600887 0.025001 -0.004725 0.001672 -0.999987
0.789673 0.062284 0.100297 0.005024 -0.999964 -0.006771
0.948237 0.062092 0.068695 0.011096 0.997019 -0.076351
0.381462 0.055364 0.147646 -0.017589 0.990393 0.137155
0.065661 0.759258 0.128766 0.998528 0.016260 0.051743
0.740251 0.094168 0.091883 0.003315 0.999991 0.002634
0.852458 0.054801 0.161876 0.027835 0.999596 -0.005738
0.348184 0.628491 0.069327 -0.002505 0.999924 -0.012066
0.620390 0.025423 0.125735 -0.002587 -0.999640 0.026700
0.672067 0.268565 0.030680 -0.000243 -0.999638 -0.026903
0.430973 0.797320 0.087746 -0.001383 0.999921 -0.012523
0.804780 0.046212 0.204295 0.011881 0.928201 0.371890
0.775916 0.268565 0.110905 0.005622 -0.999386 0.034579
0.206540 0.306193 0.025001 -0.001734 -0.000355 -0.999998
0.352930 0.789899 0.106307 -0.001374 0.999999 0.000869
0.495101 0.113338 0.092303 -0.997438 -0.014872 -0.069978
0.934433 0.441908 0.065185 -0.999061 -0.003944 -0.043136
0.190530 0.272276 0.150519 -0.000301 0.999657 0.026202
0.238826 0.094168 0.070078 -0.004220 0.999903 -0.013261
0.495101 0.651482 0.057003 -0.999939 0.004674 -0.009990
0.066166 0.789899 0.100158 -0.010492 0.999893 -0.010210
0.828041 0.054817 0.171949 -0.000451 -0.999368 0.035558
0.495349 0.789902 0.111531 -0.002014 -0.999997 -0.001252
0.600669 0.062509 0.039400 0.005902 -0.998907 -0.046373
0.711568 0.054969 0.078886 0.023487 0.985334 -0.169014
0.056310 0.070578 0.131324 -0.015509 0.996394 0.083416
0.135487 0.272276 0.153059 -0.000694 0.999633 0.027096
0.860160 0.062197 0.168623 0.007948 0.999946 0.006733
0.113234 0.090458 0.116087 -0.004250 -0.999913 -0.012510
0.896155 0.782481 0.177168 0.020772 -0.992169 0.123159
0.215255 0.624780 0.098370 -0.003544 -0.999859 -0.016400
0.055770 0.515049 0.047566 -0.998468 -0.001939 -0.055295
0.154650 0.628491 0.125745 -0.001914 0.999903 0.013824
0.701415 0.450383 0.081965 0.002926 0.999994 -0.001887
0.867706 0.789899 0.158977 0.008779 0.999181 0.039497
0.103046 0.728971 0.025001 -0.005786 0.002564 -0.999980
0.563461 0.090458 0.104179 0.001035 -0.999926 0.012130
0.026443 0.036666 0.204296 -0.128702 -0.741505 0.658488
0.890972 0.450383 0.036563 0.003934 0.999770 -0.021089
0.495102 0.377507 0.159214 -0.994144 0.009452 0.107652
0.103559 0.090458 0.155146 -0.003742 -0.999940 0.010267
0.549055 0.272276 0.119002 0.002121 0.999903 0.013792
0.203120 0.826961 0.083408 -0.032794 0.996238 -0.080209
0.025015 0.033072 0.167155 -0.083455 -0.946891 0.310537
0.504992 0.189915 0.121231 0.999455 -0.004460 0.032715
0.497883 0.090458 0.117701 0.000845 -0.999866 0.016323
0.059354 0.707240 0.164712 -0.002606 0.006355 0.999976
0.504992 0.605823 0.129576 0.998647 0.011562 0.050694
0.819092 0.069667 0.163735 0.006975 0.999870 0.014536
0.179485 0.782481 0.052061 -0.008257 -0.996745 -0.080197
0.055770 0.290842 0.085883 -0.999056 -0.008661 -0.042574
0.196010 0.062993 0.114306 -0.008417 -0.999902 0.011154
0.485710 0.142951 0.027375 -0.002267 -0.004742 0.999986
0.881583 0.319521 0.027375 0.002318 0.000005 0.999997
0.947925 0.772855 0.159764 0.005223 -0.083337 -0.996508
0.974919 0.031547 0.158326 0.053892 -0.994766 0.086808
0.418527 0.303453 0.025001 0.000075 -0.000814 -1.000000
0.385434 0.624780 0.076005 -0.002281 -0.999824 -0.018622
0.655954 0.789899 0.049655 0.001558 0.999453 -0.033041
0.942250 0.782479 0.137999 0.987736 0.037205 0.151636
0.820638 0.789899 0.066455 0.006724 0.999803 -0.018674
0.736018 0.697119 0.025000 0.001071 0.002636 -0.999996
0.518625 0.792970 0.194404 0.056783 -0.883820 0.464368
0.944324 0.703120 0.055682 0.999336 0.012291 -0.034311
0.532278 0.789902 0.178757 0.007126 -0.997958 0.063474
0.611462 0.450383 0.156597 0.002948 0.999528 0.030574
0.792835 0.782481 0.084038 0.005481 -0.999865 0.015518
0.062331 0.272276 0.057791 -0.007878 0.999726 -0.022050
0.859297 0.684117 0.027375 0.002441 0.002842 0.999993
0.657314 0.062442 0.035164 0.008021 -0.998680 -0.050735
0.254055 0.797306 0.134753 -0.021680 -0.999011 -0.038816
0.162256 0.272276 0.058598 -0.006212 0.999777 -0.020200
0.282311 0.448378 0.026188 -0.043450 -0.837397 -0.544866
0.775728 0.268565 0.107990 0.005390 -0.999458 0.032484
0.099483 0.063105 0.174229 -0.017960 0.994303 0.105069
0.825760 0.062241 0.045791 0.011865 -0.998826 -0.046968
0.065661 0.576427 0.074342 0.999859 0.008970 -0.014177
0.524642 0.789902 0.113281 -0.000812 -0.999992 0.003940
0.782448 0.054885 0.103753 0.026584 0.991193 -0.129729
0.063484 0.694683 0.164712 0.034947 0.006288 0.999369
0.945600 0.382030 0.026187 -0.852833 -0.004696 -0.522163
0.664214 0.780957 0.025000 -0.000270 0.003191 -0.999995
0.781966 0.069711 0.071305 0.008463 0.998163 -0.059991
0.423786 0.628491 0.129263 0.001267 0.999841 0.017799
0.079744 0.063132 0.082087 -0.009541 -0.999920 -0.008254
0.907247 0.069561 0.107697 0.009841 0.999051 -0.042419
0.851443 0.721905 0.025000 0.002107 0.002864 -0.999994
0.062489 0.551612 0.159765 -0.053119 0.003381 -0.998582
0.063483 0.063151 0.175010 -0.011167 -0.998689 0.049951
0.212057 0.094168 0.120943 -0.001303 0.999925 0.012209
0.297605 0.782481 0.034676 -0.006646 -0.996569 -0.082494
0.040835 0.782481 0.129541 -0.009092 -0.999525 -0.029441
0.269661 0.055484 0.052919 -0.005020 -0.999586 -0.028344
0.520244 0.268565 0.075516 -0.001078 -0.999948 -0.010162
0.352834 0.094168 0.134518 0.000779 0.999803 0.019822
0.092116 0.055709 0.110559 -0.039228 0.988285 0.147492
0.403361 0.628491 0.059425 -0.002266 0.999865 -0.016304
0.226333 0.062954 0.180718 -0.014398 0.995358 0.095162
0.495102 0.748822 0.153506 -0.980006 0.036390 0.195611
0.661936 0.069854 0.168044 0.000972 0.999207 0.039804
0.525082 0.268565 0.058667 -0.001232 -0.999802 -0.019843
0.849793 0.797306 0.198430 0.065928 -0.923821 0.377105
0.630773 0.055066 0.141411 0.015149 0.999752 0.016346
0.188602 0.139842 0.027376 -0.005790 -0.007500 0.999955
0.646771 0.025392 0.078222 0.017086 -0.996584 -0.080798
0.548598 0.450383 0.069527 0.000743 0.999959 -0.009076
0.586643 0.069944 0.057263 0.005526 0.998661 -0.051430
0.131940 0.090458 0.035516 -0.005025 -0.998241 -0.059073
0.302141 0.025804 0.036195 -0.005403 -0.988990 -0.147885
0.058737 0.745539 0.131313 0.994564 0.006322 -0.103936
0.086869 0.090458 0.156699 -0.003938 -0.999942 0.009988
0.201824 0.062986 0.067475 -0.007624 -0.999806 -0.018183
0.532483 0.759715 0.027375 0.000854 0.003224 0.999994
0.065661 0.767064 0.034603 0.998223 0.013595 -0.058018
0.055682 0.327130 0.026188 -0.538914 -0.008726 -0.842316
0.470428 0.797320 0.131034 0.002731 0.999888 0.014705
0.411020 0.628491 0.147905 0.001346 0.999662 0.025944
0.410373 0.746191 0.025001 -0.002686 0.002828 -0.999992
0.590463 0.055101 0.188598 -0.003910 -0.998925 0.046195
0.626700 0.446672 0.122132 0.003653 -0.999538 0.030186
0.666579 0.670332 0.027375 0.001467 0.002611 0.999996
0.372292 0.628491 0.119613 0.000786 0.999911 0.013346
0.781210 0.624780 0.109087 0.005580 -0.999416 0.033722
0.555882 0.450383 0.083971 0.001811 0.999997 -0.001629
0.648834 0.055044 0.059464 0.020614 0.980193 -0.196969
0.294542 0.062872 0.185072 -0.012583 0.995808 0.090599
0.532334 0.797320 0.170168 0.004123 0.999316 0.036745
0.695749 0.782481 0.102510 0.004425 -0.999765 0.021245
0.934433 0.262143 0.096416 -0.999440 -0.009315 -0.032126
0.212245 0.090458 0.027024 -0.004405 -0.998254 -0.058896
0.914631 0.388400 0.027375 0.002528 0.000565 0.999997
0.944324 0.477152 0.077770 0.999910 0.004972 -0.012474
0.587929 0.797306 0.196675 0.033773 -0.962674 0.268549
0.598896 0.789902 0.122419 0.002789 -0.999769 0.021323
0.666525 0.122448 0.027375 -0.000326 -0.003476 0.999994
0.495299 0.062635 0.027894 0.004013 -0.998627 -0.052228
0.427033 0.404228 0.027375 -0.000582 -0.000473 1.000000
0.389784 0.055340 0.027004 0.001008 -0.998871 -0.047486
0.474464 0.797306 0.161903 0.006507 -0.992806 0.119561
0.497989 0.419263 0.164712 -0.012806 0.000042 0.999918
0.077184 0.547821 0.159765 0.144607 0.000153 -0.989489
0.171635 0.055614 0.059987 -0.009466 0.999353 -0.034704
0.831847 0.284429 0.025000 0.001923 -0.004026 -0.999990
0.299727 0.624780 0.036518 -0.003511 -0.998860 -0.047603
0.463506 0.136994 0.027375 -0.002582 -0.005054 0.999984
0.426218 0.649134 0.027375 0.000251 0.002291 0.999997
0.520871 0.789899 0.072233 -0.000033 0.999803 -0.019866
0.518568 0.180022 0.025000 0.000467 -0.003537 -0.999994
0.949134 0.684574 0.055872 0.988828 -0.024314 0.147068
0.819804 0.446672 0.041919 0.001211 -0.999943 -0.010649
0.289350 0.748452 0.025001 -0.003970 0.002788 -0.999988
0.848515 0.054806 0.029248 0.033321 0.941364 -0.335744
0.051555 0.026103 0.104564 -0.034440 -0.999407 0.000024
0.974930 0.036834 0.066693 0.204576 -0.723040 -0.659819
0.630732 0.094168 0.062275 0.001591 0.999932 -0.011577
0.809507 0.336088 0.027375 0.001968 0.000089 0.999998
0.197112 0.025929 0.137900 -0.028562 -0.997675 0.061883
0.618234 0.090458 0.041443 -0.000600 -0.999711 -0.024012
0.882754 0.062170 0.178659 0.008134 0.999895 0.012014
0.252183 0.450383 0.040534 -0.005949 0.999588 -0.028081
0.768547 0.054888 0.069542 0.007750 -0.999565 -0.028471
0.594184 0.025455 0.201659 -0.011157 -0.984381 0.175695
0.328162 0.624780 0.129014 -0.001507 -0.999946 0.010293
0.944324 0.522289 0.128997 0.998761 0.008974 0.048944
0.944324 0.425514 0.144195 0.997840 0.006456 0.065379
0.874369 0.025120 0.123919 0.025723 -0.999659 0.004419
0.323195 0.797306 0.168160 -0.009511 -0.997090 0.075634
0.379226 0.446672 0.066017 -0.002453 -0.999686 -0.024950
0.841876 0.536052 0.027375 0.002259 0.001673 0.999996
0.447862 0.789902 0.054629 -0.003802 -0.998823 -0.048355
0.763929 0.090458 0.100587 0.004582 -0.999646 0.026223
0.504992 0.680986 0.107925 0.999564 0.013221 0.026409
0.717130 0.167085 0.027375 0.000675 -0.002195 0.999997
0.434236 0.679942 0.025001 -0.001971 0.002375 -0.999995
0.758500 0.091914 0.026188 0.006019 -0.990872 -0.134674
0.239148 0.450383 0.091203 -0.002824 0.999993 -0.002517
0.944324 0.460824 0.136731 0.998339 0.007317 0.057154
0.834298 0.062230 0.136791 0.002468 -0.999825 0.018569
0.648953 0.090458 0.034728 -0.000403 -0.999662 -0.026001
0.945261 0.533117 0.027375 0.002774 0.001717 0.999995
0.645431 0.062453 0.091946 0.005843 0.999545 -0.029583
0.721438 0.090458 0.122340 0.005479 -0.999255 0.038203
0.055770 0.142299 0.063095 -0.993867 -0.014874 -0.109577
0.058737 0.663092 0.033590 0.995770 0.005736 -0.091697
0.287797 0.055476 0.194071 -0.046817 0.949177 0.311241
0.195804 0.103054 0.025001 -0.001019 -0.002533 -0.999996
0.833511 0.446672 0.087705 0.004900 -0.999728 0.022819
0.228129 0.094168 0.035377 -0.006675 0.999496 -0.031045
0.944326 0.088681 0.117853 -0.898803 0.437414 -0.028671
0.859151 0.628491 0.064015 0.003953 0.999950 -0.009146
0.469529 0.446672 0.061590 -0.001696 -0.999763 -0.021715
0.620214 0.721731 0.025000 -0.000315 0.002755 -0.999996
0.733595 0.025288 0.085990 0.023801 -0.997271 -0.069887
0.934433 0.308562 0.049298 -0.995327 -0.009349 -0.096110
0.778720 0.062297 0.054824 0.009522 -0.999179 -0.039366
0.944324 0.623717 0.134647 0.998308 0.012265 0.056839
0.920940 0.772064 0.164712 0.005313 0.070637 0.997488
0.925055 0.661907 0.159764 -0.268378 0.004781 -0.963302
0.674996 0.094168 0.095552 0.002854 0.999988 0.003984
0.182324 0.704881 0.027376 -0.000934 0.002570 0.999996
0.899943 0.797320 0.156425 0.008921 0.999468 0.031357
0.187610 0.826961 0.147994 -0.011570 0.997987 0.062348
0.065661 0.102533 0.061019 0.998353 -0.023162 -0.052496
0.709989 0.449949 0.026188 0.001287 0.999106 -0.042262
0.198821 0.107033 0.027376 -0.005968 -0.008010 0.999950
0.438894 0.070121 0.090506 0.002493 0.999965 -0.008030
0.434154 0.674898 0.025001 -0.001937 0.002339 -0.999995
0.651387 0.387770 0.027375 0.001210 0.000391 0.999999
0.583523 0.639828 0.025000 -0.000125 0.002163 -0.999998
0.839909 0.789902 0.026650 0.001992 -0.999514 -0.031113
0.332753 0.408033 0.027375 -0.001656 -0.001260 0.999998
0.921466 0.157458 0.159764 -0.118937 -0.003519 -0.992896
0.721482 0.054958 0.128675 0.021715 0.998704 -0.046021
0.210073 0.186827 0.027376 -0.005110 -0.006441 0.999966
0.098807 0.482740 0.027376 -0.003729 -0.002014 0.999991
0.874163 0.519680 0.025000 0.002223 -0.000471 -0.999997
0.058737 0.359244 0.145663 0.999280 0.004101 0.037727
0.944884 0.358785 0.159764 0.106956 -0.005292 -0.994250
0.410047 0.132406 0.025001 -0.000043 -0.003555 -0.999994
0.490142 0.482635 0.164712 -0.138971 -0.001570 0.990295
0.941111 0.826961 0.203284 0.037140 0.981286 0.188940
0.427253 0.268565 0.027187 -0.002477 -0.998990 -0.044861
0.949274 0.316477 0.154242 0.991896 0.001013 0.127051
0.932541 0.528747 0.025000 0.002490 -0.000732 -0.999997
0.764708 0.628491 0.062637 0.003224 0.999943 -0.010133
0.645433 0.628491 0.139801 0.003047 0.999723 0.023328
0.080123 0.450383 0.029229 -0.009468 0.999296 -0.036299
0.482259 0.485501 0.025000 -0.000103 0.001032 -0.999999
0.802341 0.062266 0.190467 0.004102 0.999466 0.032417
0.905648 0.797320 0.112639 0.008383 0.999939 0.007140
0.932888 0.069531 0.041825 0.011466 0.994875 -0.100461
0.200751 0.664701 0.027376 -0.000876 0.002257 0.999997
0.526803 0.520528 0.025000 0.000118 0.001299 -0.999999
0.297585 0.299952 0.025001 -0.000736 -0.000356 -1.000000
0.734285 0.450383 0.070554 0.003068 0.999972 -0.006774
0.211075 0.055554 0.181956 -0.008966 -0.998955 0.044810
0.949273 0.742343 0.039740 0.999629 -0.005029 -0.026762
0.945661 0.503830 0.026187 -0.890325 0.000302 -0.455325
0.334028 0.782479 0.163055 -0.001395 0.546697 0.837329
0.412977 0.790555 0.026188 -0.005461 -0.995863 -0.090707
0.668155 0.162237 0.027375 0.000055 -0.002730 0.999996
0.949274 0.317585 0.141878 0.999919 0.012057 -0.004117
0.493614 0.062637 0.130652 -0.004536 -0.999801 0.019454
0.847570 0.789899 0.169106 0.008651 0.998918 0.045692
0.265733 0.654178 0.025001 -0.003556 0.002115 -0.999991
0.070976 0.715513 0.027376 -0.001941 0.002012 0.999996
0.309162 0.055450 0.175889 -0.037423 0.967404 0.250458
0.918810 0.025067 0.124566 0.030352 -0.999536 0.002654
0.679915 0.272276 0.069906 0.002649 0.999970 -0.007278
0.723571 0.742995 0.025000 0.000619 0.002953 -0.999995
0.313702 0.547510 0.025001 -0.002305 0.001389 -0.999996
0.910587 0.797320 0.132661 0.008732 0.999795 0.018262
0.352425 0.070224 0.064553 0.001561 0.999781 -0.020856
0.495102 0.283189 0.093791 -0.999457 -0.008647 -0.031796
0.144030 0.534052 0.025001 -0.003989 0.001215 -0.999991
0.156372 0.789899 0.118658 -0.005865 0.999969 0.005250
0.570906 0.268565 0.148814 0.004683 -0.998995 0.044571
0.664211 0.782481 0.069011 -0.000013 -0.999882 -0.015379
0.205069 0.268565 0.086238 -0.003777 -0.999699 -0.024260
0.420061 0.048072 0.026188 0.008077 0.909318 -0.416023
0.472585 0.789902 0.041912 -0.003626 -0.998456 -0.055432
0.604424 0.826961 0.128458 0.016736 0.999071 0.039716
0.591596 0.080101 0.164712 0.001960 0.030654 0.999528
0.097565 0.268565 0.152402 -0.003963 -0.999960 0.008010
0.839213 0.280558 0.027375 0.002081 -0.000327 0.999998
0.495102 0.247706 0.127526 -0.999869 -0.008456 0.013775
0.485205 0.177353 0.163508 -0.656700 -0.024557 0.753752
0.616890 0.094168 0.038618 -0.000190 0.999717 -0.023797
0.325932 0.065941 0.026247 -0.010693 -0.933482 -0.358464
0.354822 0.368919 0.025001 -0.000621 0.000155 -1.000000
0.450189 0.666114 0.027375 0.000382 0.002439 0.999997
0.551367 0.090458 0.086816 -0.000559 -0.999999 -0.001247
0.921515 0.782481 0.126473 0.015314 -0.997024 0.075556
0.083261 0.589103 0.025001 -0.005012 0.001573 -0.999986
0.802450 0.054861 0.187619 0.018494 0.996521 0.081260
0.378447 0.628491 0.102760 0.000185 0.999986 0.005366
0.929968 0.401815 0.164712 -0.099540 -0.002693 0.995030
0.360502 0.115491 0.025001 -0.000273 -0.003485 -0.999994
0.828458 0.272276 0.051328 0.003600 0.999883 -0.014850
0.065661 0.720970 0.133103 0.998298 0.015211 0.056299
0.401668 0.055340 0.123387 -0.005713 0.998365 0.056874
0.292258 0.465977 0.025001 -0.001957 0.000807 -0.999998
0.561656 0.797320 0.083352 0.001959 0.999920 -0.012517
0.486879 0.249336 0.027375 -0.001286 -0.002776 0.999995
0.626754 0.628491 0.054366 0.001006 0.999877 -0.015655
0.934433 0.490719 0.139372 -0.994807 0.013143 0.100932
0.059915 0.553076 0.027376 -0.003548 -0.001074 0.999993
0.697357 0.628491 0.120926 0.003263 0.999879 0.015237
0.766817 0.025249 0.181276 -0.001446 -0.990981 0.133992
0.293975 0.090458 0.114905 -0.002644 -0.999995 -0.001482
0.830567 0.054814 0.171000 -0.000404 -0.999387 0.035017
0.183488 0.628491 0.061541 -0.005675 0.999815 -0.018398
0.125782 0.797320 0.176139 -0.001467 0.999298 0.037438
0.806409 0.381008 0.025000 0.001854 -0.002266 -0.999996
0.118421 0.628491 0.132851 -0.002030 0.999855 0.016913
0.907429 0.522267 0.027375 0.002578 0.001607 0.999995
0.142891 0.789899 0.061828 -0.012289 0.999272 -0.036125
0.788763 0.789899 0.130927 0.007262 0.999743 0.021453
0.053789 0.284146 0.026739 -0.957560 -0.005905 -0.288172
0.224366 0.446672 0.147889 -0.002007 -0.999884 0.015127
0.319116 0.033319 0.026188 -0.013936 -0.920833 -0.389708
0.549270 0.268565 0.109026 0.001145 -0.999896 0.014407
0.860792 0.537422 0.027375 0.002354 0.001696 0.999996
0.504874 0.826961 0.157810 0.013020 0.995442 0.094476
0.058737 0.456606 0.055245 0.992212 -0.014598 0.123706
0.263722 0.295147 0.025001 -0.001058 -0.000406 -0.999999
0.161973 0.063033 0.086623 -0.008469 -0.999946 -0.005948
0.852082 0.624780 0.152687 0.010353 -0.997447 0.070657
0.288618 0.070300 0.078401 -0.000744 0.999999 -0.000995
0.495101 0.625130 0.044720 -0.999330 0.001933 -0.036558
0.136589 0.090458 0.144807 -0.003703 -0.999975 0.006038
0.392276 0.782481 0.118214 -0.003545 -0.999991 -0.002321
0.057718 0.575884 0.130084 0.970196 0.016608 -0.241753
0.051170 0.070584 0.183120 -0.022153 0.990452 0.136066
0.944324 0.720622 0.053371 0.999242 0.012758 -0.036779
0.255670 0.793763 0.194405 0.034098 0.582488 0.812124
0.786569 0.219463 0.027375 0.001779 -0.000838 0.999998
0.846344 0.797306 0.063671 0.014274 -0.999755 -0.016924
0.065894 0.761193 0.025001 -0.006402 0.002772 -0.999976
0.944324 0.782392 0.123363 0.998812 0.016811 0.045748
0.193875 0.379834 0.027376 -0.003546 -0.003041 0.999989
0.112758 0.782481 0.146361 -0.007596 -0.999941 -0.007766
0.719767 0.025305 0.181167 -0.003836 -0.990879 0.134703
0.078792 0.318406 0.159765 0.150268 -0.009247 -0.988602
0.162104 0.716404 0.025001 -0.005079 0.002503 -0.999984
0.643283 0.269125 0.159768 0.010551 -0.996086 0.087760
0.065661 0.721688 0.132329 0.998348 0.015210 0.055406
0.384582 0.278754 0.025001 -0.000089 -0.000980 -1.000000
0.586975 0.752431 0.025000 -0.000879 0.002955 -0.999995
0.704737 0.315107 0.025000 0.001366 -0.002632 -0.999996
0.684380 0.080899 0.027375 -0.000494 -0.004077 0.999992
0.668922 0.090458 0.156617 0.007166 -0.998276 0.058262
0.343886 0.055395 0.150635 -0.006724 -0.999621 0.026681
0.511568 0.055208 0.054752 0.012724 0.986542 -0.163012
0.488048 0.324760 0.027375 -0.000587 -0.001379 0.999999
0.060369 0.628491 0.135843 -0.002770 0.999841 0.017597
0.700877 0.096314 0.025000 0.001247 -0.006188 -0.999980
0.495101 0.432646 0.043738 -0.996890 -0.005059 -0.078648
0.627103 0.094168 0.052177 0.000867 0.999859 -0.016761
0.061926 0.070571 0.082136 -0.009116 0.999415 0.032965
0.783197 0.797320 0.192145 0.007836 0.998698 0.050404
0.779041 0.523420 0.025000 0.001798 0.000258 -0.999998
0.157429 0.513179 0.027376 -0.002763 -0.000921 0.999996
0.071493 0.737820 0.025001 -0.006179 0.002611 -0.999978
0.778144 0.797320 0.060024 0.005904 0.999723 -0.022773
0.076832 0.657259 0.159765 0.145280 0.004460 -0.989381
0.944324 0.485262 0.159340 0.996451 0.008747 0.083725
0.934433 0.733733 0.105234 -0.994486 0.023223 0.102263
