0.093139 0.197597 0.491213 -0.222089 0.928065 0.298952
0.096432 0.032102 0.304758 -0.158645 -0.987249 -0.013042
0.185013 0.208139 0.485289 -0.728293 0.664621 -0.166934
0.106262 0.130134 0.248672 -0.037504 -0.999285 0.004845
0.108681 0.122839 0.177781 0.015399 0.997025 -0.075524
0.135377 0.230419 0.234174 0.088705 0.995989 -0.011756
0.067377 0.169776 0.598123 -0.993681 0.071724 -0.086338
0.158308 0.168498 0.329261 -0.981082 -0.067212 0.181548
0.138687 0.179363 0.272344 -0.007559 0.985472 -0.169671
0.085611 0.139319 0.208599 -0.964042 0.032429 -0.263765
0.125083 0.249562 0.547674 0.462018 0.016885 0.886710
0.112561 0.057665 0.852298 -0.881119 -0.453291 0.134742
0.152803 0.227584 0.256617 0.893857 -0.348512 0.282062
0.209963 0.068139 0.224367 0.976999 -0.211340 -0.028437
0.054516 0.205539 0.535129 0.023400 -0.468927 -0.882927
0.211455 0.087407 0.309417 0.999415 -0.033606 -0.006285
0.212099 0.127471 0.680118 0.995817 -0.073230 0.054646
0.109213 0.224949 0.267999 -0.016319 -0.969395 0.244963
0.192235 0.216186 0.245870 0.094748 0.961021 -0.259733
0.036267 0.124398 0.404590 -0.065782 0.979144 -0.192221
0.172654 0.044145 0.553715 0.301203 -0.950864 0.071652
0.156479 0.130134 0.385943 0.172156 -0.984829 0.021777
0.035074 0.166191 0.125742 -0.884785 0.448093 -0.127936
0.124688 0.040034 0.856327 0.712699 -0.676439 0.185715
0.040909 0.125849 0.454705 -0.081361 0.988480 -0.127625
0.085611 0.157153 0.262509 -0.999013 0.000000 -0.044417
0.212540 0.107061 0.435454 0.999879 -0.015462 -0.001845
0.192673 0.108881 0.791443 0.883638 -0.416869 0.213083
0.102688 0.341399 0.550032 -0.100529 -0.252251 -0.962426
0.203904 0.070937 0.095309 0.963804 -0.221470 -0.148433
0.095586 0.179362 0.319997 -0.166301 0.947343 -0.273651
0.108388 0.219342 0.263120 -0.331208 0.000000 0.943558
0.034224 0.167778 0.392080 -0.901425 0.415945 -0.120094
0.205296 0.168468 0.275602 0.506385 -0.838720 0.200306
0.188110 0.122840 0.040187 0.031462 0.985427 -0.167162
0.215170 0.176223 0.230704 0.993309 -0.114933 0.011319
0.159792 0.122840 0.221439 0.071604 0.997378 -0.010509
0.034223 0.050737 0.377008 -0.690543 -0.723289 -0.001773
0.127595 0.130134 0.243822 -0.034400 -0.999397 0.004664
0.134706 0.069361 0.044095 0.028224 -0.411919 -0.910783
0.101480 0.179362 0.457194 -0.218138 0.969220 -0.114143
0.091743 0.038429 0.110885 -0.174686 -0.979179 -0.103407
0.030964 0.122842 0.260895 -0.158124 0.984948 -0.069819
0.077057 0.157631 0.440598 0.939992 -0.326846 0.097915
0.107582 0.130134 0.352826 -0.067423 -0.997644 0.012637
0.036720 0.053019 0.560089 -0.555657 -0.828460 0.069997
0.189261 0.143714 0.727708 0.115657 0.991316 -0.062585
0.163295 0.038218 0.521100 0.269233 -0.961861 0.048342
0.131368 0.124961 0.424033 -0.017981 0.989986 -0.140015
0.194500 0.124034 0.392033 0.196924 0.980016 -0.028084
0.035305 0.044979 0.224690 -0.619763 -0.784657 -0.014405
0.190878 0.187016 0.555683 -0.007394 -0.868962 -0.494824
0.132209 0.179363 0.268049 -0.025409 0.980058 -0.197079
0.186505 0.147053 0.781743 0.153999 0.987439 -0.035342
0.130226 0.139626 0.674870 -0.006148 0.997397 -0.071843
0.177889 0.038764 0.417964 0.264539 -0.963319 0.045126
0.208707 0.114892 0.091595 0.987418 -0.148762 -0.053618
0.202709 0.157030 0.498578 0.445109 -0.829942 0.336266
0.079792 0.064645 0.727354 -0.449457 -0.882231 0.140206
0.207893 0.046499 0.453822 0.521494 -0.852756 0.029184
0.172142 0.162936 0.491499 -0.758611 -0.628951 0.170087
0.196930 0.200287 0.213601 0.705532 0.681540 -0.194236
0.044606 0.207185 0.277847 -0.179187 -0.426256 -0.886678
0.116515 0.135886 0.626525 -0.046165 0.996036 -0.076035
0.202169 0.159581 0.246245 0.428190 -0.878565 0.211607
0.158549 0.128415 0.427250 0.999591 -0.025438 0.013102
0.195820 0.191242 0.167045 0.625451 0.747683 -0.223118
0.210992 0.072196 0.361048 0.995303 -0.096800 -0.001230
0.031601 0.191725 0.494122 -0.873732 0.467988 -0.132589
0.098441 0.148527 0.810246 -0.016280 0.999550 -0.025198
0.212620 0.110759 0.506998 0.999743 -0.022656 0.000894
0.071163 0.204243 0.268680 0.745894 0.648468 -0.152089
0.086174 0.154462 0.283354 -0.988793 0.000000 -0.149294
0.122798 0.305866 0.589312 0.534565 0.832065 0.148013
0.076027 0.157934 0.580061 -0.890211 0.272693 -0.364915
0.197693 0.041513 0.265099 0.491929 -0.870537 -0.013092
0.154902 0.201672 0.574130 -0.648661 0.677949 -0.345867
0.205527 0.207421 0.266116 0.714920 0.674478 -0.184307
0.052426 0.045689 0.522904 -0.387287 -0.920224 0.056535
0.040425 0.125192 0.432007 -0.073405 0.984940 -0.156542
0.067377 0.172476 0.625488 -0.997294 0.065966 -0.032467
0.118340 0.139240 0.669877 -0.028060 0.996983 -0.072373
0.119862 0.069726 0.911964 -0.324875 -0.637262 0.698823
0.210398 0.065393 0.513140 0.938518 -0.344354 0.024603
0.180904 0.187511 0.174794 -0.693604 0.696170 -0.185098
0.108676 0.150507 0.870686 0.007770 0.998483 0.054502
0.100199 0.201301 0.249175 -0.997868 0.000000 -0.065266
0.213702 0.124099 0.394271 0.244056 0.969356 -0.028016
0.179838 0.139344 0.671225 0.076973 0.994530 -0.070600
0.049025 0.043938 0.456446 -0.410565 -0.910688 0.045658
0.216427 0.168346 0.473927 0.016710 0.242006 0.970131
0.157517 0.147031 0.211770 0.996127 0.000000 -0.087923
0.037702 0.112663 0.720537 -0.970689 -0.213690 0.109999
0.100214 0.034998 0.559437 -0.264179 -0.963458 0.044252
0.212119 0.095787 0.360700 0.999747 -0.022287 -0.002948
0.157704 0.169111 0.372420 -0.996538 0.000000 0.083140
0.032493 0.089742 0.455222 -0.999426 -0.033837 0.001844
0.057721 0.195475 0.418171 0.182983 0.947130 -0.263556
0.032359 0.092766 0.463474 -0.999481 -0.032166 0.001859
0.061735 0.048602 0.050561 -0.318411 -0.805457 -0.499854
0.038699 0.093854 0.688262 -0.965527 -0.237827 0.105806
0.110094 0.107160 0.929997 -0.294304 -0.701416 0.649154
0.061406 0.220245 0.246422 0.406539 0.705400 -0.580635
0.211899 0.166045 0.143082 0.952290 0.291723 -0.089675
0.214220 0.170254 0.169339 0.160444 -0.205002 -0.965521
0.158422 0.157601 0.304101 0.996653 0.000000 -0.081750
0.142790 0.218250 0.623328 0.235064 0.650993 0.721770
0.158729 0.134375 0.606873 0.063261 0.995105 -0.075924
0.105418 0.207886 0.623983 -0.195743 0.892124 0.407185
0.031857 0.101182 0.402222 -0.999928 -0.011922 -0.001556
0.142892 0.124086 0.393819 0.086633 0.995836 -0.028380
0.118606 0.122839 0.194660 0.019463 0.998914 -0.042333
0.148241 0.224949 0.246491 0.112549 -0.993494 0.017410
0.082435 0.149496 0.931977 -0.140846 0.966228 0.215793
0.165162 0.155001 0.401319 -0.992891 -0.110258 0.044833
0.109479 0.060638 0.841802 -0.846865 -0.515131 0.132136
0.211399 0.120449 0.129982 0.929381 0.023748 -0.368356
0.066303 0.149744 0.608554 -0.984432 -0.048706 -0.168881
0.208914 0.043736 0.242099 0.588695 -0.808248 -0.013164
0.085387 0.123932 0.388519 -0.057855 0.997938 -0.027808
0.033002 0.076938 0.394597 -0.998837 -0.048216 -0.000670
0.154902 0.182986 0.515526 0.342416 0.686407 0.641558
0.110782 0.179362 0.260884 -0.088266 0.956006 -0.279754
0.126445 0.035235 0.763445 0.458087 -0.885372 0.079207
0.177987 0.193906 0.208880 -0.692318 0.698975 -0.179251
0.140005 0.193950 0.491154 -0.139664 -0.952980 -0.268931
0.067377 0.170444 0.656888 -0.998607 0.052638 0.003592
0.174462 0.041248 0.517465 0.272849 -0.960456 0.055471
0.197428 0.056543 0.616685 0.522013 -0.846597 0.103811
0.070982 0.149404 0.828002 -0.086957 0.996194 -0.006073
0.170038 0.070467 0.754348 0.447213 -0.876273 0.179294
0.146907 0.130134 0.344513 0.094269 -0.995412 0.016406
0.177497 0.122840 0.202720 0.113916 0.993138 -0.026446
0.085810 0.179362 0.204700 -0.133909 0.899781 -0.415286
0.126633 0.210856 0.524362 0.231754 0.141720 0.962396
0.081947 0.123737 0.381782 -0.079239 0.996485 -0.027187
0.115501 0.130134 0.313116 -0.069184 -0.997560 0.009362
0.161798 0.037055 0.229877 0.260431 -0.965294 -0.019571
0.165828 0.190428 0.530388 0.017009 0.241870 0.970160
0.108675 0.130134 0.354963 -0.060838 -0.998063 0.013000
0.158549 0.144299 0.470018 0.999850 0.016940 -0.003613
0.059322 0.149364 0.471563 0.233383 -0.942528 0.239108
0.158549 0.159486 0.466769 0.999957 0.009217 -0.001077
0.135943 0.160218 0.686654 0.021929 0.314113 0.949132
0.107845 0.130657 0.558529 -0.025527 0.989800 -0.140158
0.137367 0.136489 0.124880 0.609753 0.174565 0.773129
0.063842 0.063771 0.691050 -0.410658 -0.901339 0.137650
0.185483 0.177590 0.566248 -0.140224 -0.974884 0.173030
0.176222 0.131506 0.386078 -0.016942 -0.241925 -0.970147
0.114575 0.049416 0.049574 -0.003229 -0.647316 -0.762215
0.215870 0.184886 0.270782 0.990948 -0.133294 0.015939
0.145022 0.179363 0.489778 0.241765 0.965688 -0.094846
0.028758 0.131056 0.563714 -0.186984 0.967581 -0.169774
0.028303 0.192317 0.525333 -0.971776 0.224355 -0.072911
0.190546 0.077130 0.041831 0.019583 -0.307880 -0.951224
0.074132 0.197883 0.263877 0.864528 0.490670 -0.108781
0.119834 0.211076 0.526130 -0.319818 0.023411 -0.947190
0.097824 0.035118 0.222568 -0.150320 -0.988404 -0.021476
0.147943 0.061386 0.046290 0.057650 -0.507177 -0.859912
0.116181 0.033898 0.153168 -0.032919 -0.998102 -0.052053
0.177861 0.169261 0.613562 0.994455 0.077650 -0.070927
0.208190 0.122839 0.050441 0.039675 0.986448 -0.159203
0.141652 0.179363 0.350914 0.073426 0.987886 -0.136708
0.168586 0.189472 0.237162 -0.907416 0.411077 -0.087243
0.137857 0.148816 0.085868 0.564121 0.150964 -0.811774
0.172065 0.070304 0.748994 0.422592 -0.889483 0.173882
0.185536 0.122838 0.171051 0.121287 0.984852 -0.123916
0.128467 0.028910 0.673043 0.100817 -0.993283 0.056781
0.115554 0.122842 0.257719 -0.021487 0.998707 -0.046064
0.128936 0.341981 0.525551 0.241899 -0.179666 -0.953522
0.029808 0.136808 0.653206 -0.543729 0.837219 -0.058505
0.032095 0.161651 0.211496 -0.906477 -0.413153 0.087202
0.127351 0.275086 0.530827 0.839289 0.001773 -0.543682
0.033689 0.173842 0.280463 -0.719558 -0.676644 0.156170
0.032763 0.166909 0.241083 -0.844078 -0.523562 0.115823
0.065221 0.127938 0.432627 -0.028153 0.241886 0.969896
0.166589 0.176723 0.450381 -0.961164 0.271217 -0.051030
0.100381 0.126318 0.939585 -0.468640 -0.588884 0.658477
0.027494 0.175134 0.430736 -0.703990 0.656499 -0.270938
0.129889 0.278539 0.233136 0.395494 0.852347 -0.342182
0.205245 0.054215 0.576450 0.550577 -0.830959 0.079824
0.176783 0.179264 0.608923 0.996002 0.073285 -0.051085
0.049401 0.056409 0.621611 -0.506200 -0.855776 0.106812
0.123969 0.029866 0.240521 0.011351 -0.999741 -0.019744
0.177693 0.039683 0.444770 0.266419 -0.962629 0.048640
0.031080 0.122193 0.541483 -0.999449 -0.033066 0.002914
0.031758 0.104587 0.446892 -0.999849 -0.017397 -0.000181
0.194380 0.039985 0.344746 0.442779 -0.896599 -0.007553
0.125756 0.179363 0.362234 -0.085516 0.987831 -0.129911
0.103673 0.097230 0.035531 -0.028761 -0.295574 -0.954887
0.047170 0.201483 0.473148 -0.703988 0.683136 -0.194234
0.152207 0.130134 0.206947 -0.007752 -0.999967 0.002494
0.096617 0.145036 0.185451 -0.325457 0.541277 -0.775304
0.154820 0.190412 0.608576 -0.340778 0.633472 -0.694683
0.130921 0.179363 0.349560 -0.042529 0.989944 -0.134914
0.066303 0.176550 0.619587 -0.941670 0.324587 0.088892
0.112758 0.125085 0.428320 -0.030298 0.989677 -0.140076
0.130730 0.143469 0.724548 0.014777 0.997761 -0.065220
0.214320 0.165090 0.182042 0.996448 -0.084139 0.003586
0.126037 0.179363 0.278189 -0.049895 0.976651 -0.208958
0.143962 0.224444 0.226449 0.711383 0.000000 -0.702804
0.151971 0.179363 0.374665 0.205025 0.970091 -0.129955
0.210107 0.140147 0.384257 0.892682 -0.440708 0.094313
0.057007 0.096957 0.793858 -0.845919 -0.482539 0.227106
0.074376 0.036523 0.306546 -0.296993 -0.954800 -0.012314
0.126185 0.186657 0.330797 0.006233 -0.994564 -0.103944
0.169811 0.040782 0.074162 0.303336 -0.923268 -0.235717
0.097874 0.198492 0.422556 -0.021924 0.999174 0.034221
0.177086 0.051461 0.613645 0.354567 -0.929038 0.105689
0.142273 0.130134 0.196010 -0.006354 -0.999979 0.001573
0.085611 0.146499 0.317280 0.994617 0.000000 -0.103622
0.085611 0.171006 0.538937 -0.849557 0.526499 -0.032444
0.176105 0.149406 0.828027 0.120525 0.992626 -0.012902
0.207711 0.106492 0.696950 0.978947 -0.182083 0.092244
0.210093 0.089707 0.596633 0.995990 -0.087246 0.019794
0.202270 0.122840 0.039835 0.034541 0.985798 -0.164347
0.147756 0.190303 0.343335 0.123398 0.911339 0.392727
0.158549 0.154313 0.531846 0.946844 0.320447 -0.028276
0.116939 0.224949 0.242720 -0.072265 -0.997375 0.004643
0.037292 0.122840 0.037944 -0.018340 0.979331 -0.201430
0.053650 0.189939 0.552442 0.036507 -0.818277 -0.573664
0.058131 0.139137 0.175233 0.174887 -0.954612 0.241101
0.213243 0.123613 0.510121 0.999945 -0.010444 -0.000762
0.102783 0.031526 0.485068 -0.178726 -0.983503 0.027895
0.085611 0.131621 0.428287 -0.999610 -0.025077 0.012265
0.158549 0.150902 0.390370 -0.993294 0.000000 -0.115619
0.173840 0.164256 0.505468 -0.661244 -0.725089 0.192360
0.067012 0.195552 0.473153 0.692001 0.699702 -0.177629
0.097423 0.132159 0.106884 -0.982113 0.185602 0.031724
0.037617 0.110982 0.046785 -0.977405 -0.199541 -0.069735
0.048673 0.041413 0.181557 -0.518947 -0.854603 -0.018637
0.034056 0.099945 0.155819 -0.997245 -0.064833 -0.036052
0.054164 0.048557 0.050723 -0.374911 -0.817124 -0.437894
0.154902 0.156399 0.184366 0.757039 -0.531349 -0.380211
0.047079 0.132506 0.821716 -0.912610 -0.338875 0.228708
0.078789 0.108121 0.032117 -0.062352 -0.265763 -0.962020
0.133332 0.138642 0.662152 -0.005552 0.997317 -0.072989
0.196696 0.162568 0.524323 0.140742 -0.961203 0.237234
0.136347 0.028381 0.371909 0.113554 -0.993468 0.011256
0.104692 0.179900 0.261415 -0.519905 0.000000 0.854224
0.168929 0.200368 0.539576 -0.902142 0.421888 -0.090279
0.086827 0.223065 0.615526 -0.145242 0.699640 0.699578
0.038107 0.164280 0.511454 -0.567954 -0.800878 0.189796
0.089258 0.184249 0.346790 -0.382546 0.790930 0.477585
0.031899 0.164457 0.139716 -0.962998 0.257006 -0.081132
0.032166 0.095710 0.430138 -0.999744 -0.022623 0.000206
0.158549 0.130399 0.554638 0.958650 0.148868 -0.242545
0.101638 0.158195 0.185451 -0.098271 0.733606 -0.672433
0.141344 0.031514 0.470549 0.178417 -0.983633 0.025164
0.123485 0.122838 0.162734 0.037365 0.991795 -0.122253
0.212349 0.105739 0.522522 0.999530 -0.030596 0.002156
0.126531 0.125414 0.439690 -0.026444 0.992228 -0.121590
0.210493 0.067477 0.307915 0.974921 -0.222211 -0.012282
0.060577 0.053429 0.618063 -0.412950 -0.904426 0.107176
0.187879 0.122838 0.118902 0.059560 0.988628 -0.138083
0.046053 0.134853 0.384862 -0.016941 0.241944 0.970142
0.126289 0.134893 0.613611 0.006229 0.997080 -0.076115
0.061254 0.146382 0.770836 -0.085713 0.995246 -0.046242
0.179870 0.124632 0.427723 0.142416 -0.238793 -0.960571
0.149262 0.038318 0.102491 0.163324 -0.976955 -0.137421
0.099188 0.122838 0.088545 -0.000159 0.985024 -0.172418
0.207212 0.181034 0.562042 0.408318 -0.911559 -0.048343
0.167011 0.183476 0.507194 -0.999853 0.006621 0.015807
0.172200 0.145824 0.355524 0.283056 -0.069814 0.956559
0.033356 0.189240 0.297584 -0.316945 -0.801461 -0.507155
0.058486 0.127244 0.502842 -0.083516 0.994534 -0.062673
0.126454 0.230419 0.225796 0.027649 0.998735 -0.041994
0.158549 0.133427 0.221856 0.998190 0.000000 -0.060131
0.042076 0.212075 0.546390 -0.447108 0.889917 -0.090230
0.111841 0.122839 0.065403 0.023207 0.984520 -0.173729
0.203915 0.149558 0.494299 0.672833 -0.176209 -0.718503
0.054391 0.100394 0.787654 -0.863524 -0.455440 0.216564
0.213067 0.116169 0.377630 0.999994 0.000951 -0.003193
0.211905 0.118094 0.627006 0.998288 -0.051216 0.028257
0.175689 0.199687 0.494125 -0.700036 0.693335 -0.170986
0.118315 0.132776 0.129892 -0.161517 0.183246 0.969708
0.077768 0.166103 0.403307 0.965142 0.257340 -0.047711
0.107954 0.190693 0.103487 -0.208126 0.884282 -0.418006
0.158549 0.166491 0.255752 0.989511 0.000000 -0.144455
0.106147 0.122839 0.067333 0.022606 0.984451 -0.174202
0.134273 0.147723 0.769678 0.372594 0.865980 0.333544
0.044867 0.122845 0.328176 -0.153992 0.974302 -0.164382
0.183146 0.130866 0.398333 -0.016980 -0.242195 -0.970079
0.189856 0.176328 0.567573 -0.046364 -0.904117 0.424761
0.126462 0.179363 0.494894 0.046209 0.994657 -0.092311
0.211343 0.079275 0.353817 0.999094 -0.042462 -0.002718
0.038052 0.058257 0.129450 -0.789582 -0.607031 -0.089853
0.176783 0.159789 0.633849 0.997743 0.060177 -0.029784
0.143163 0.130134 0.350739 0.083870 -0.996338 0.016639
0.065446 0.220479 0.522264 0.434367 0.894190 -0.108397
0.156637 0.144548 0.943301 0.675561 -0.436452 0.594244
0.116304 0.209729 0.263858 -0.060192 0.000000 0.998187
0.056270 0.110962 0.031227 -0.093403 -0.238437 -0.966656
0.156786 0.179363 0.453444 0.326027 0.939510 -0.105008
0.165432 0.160618 0.161488 -0.997821 -0.057788 0.031834
0.116085 0.131376 0.567877 -0.027025 0.985788 -0.165809
0.093478 0.130134 0.339866 -0.090779 -0.995812 0.010839
0.031609 0.128413 0.652377 -0.998351 -0.047882 0.031672
0.129934 0.055539 0.047891 0.018059 -0.575229 -0.817793
0.032915 0.092507 0.242228 -0.999642 -0.023807 -0.012191
0.140799 0.126024 0.460736 -0.003651 0.995246 -0.097325
0.031381 0.118467 0.573133 -0.998396 -0.056079 0.007781
0.122004 0.332715 0.530912 0.147843 0.109450 -0.982936
0.035023 0.155321 0.206497 -0.776949 -0.613909 0.139524
0.199218 0.122842 0.264704 0.118186 0.991584 -0.052853
0.119405 0.374979 0.495297 0.865972 0.000035 -0.500093
0.044732 0.146656 0.775286 -0.111800 0.992734 -0.044497
0.174786 0.150793 0.200494 -0.630912 -0.750143 0.198079
0.209799 0.054046 0.300244 0.800144 -0.599720 -0.010243
0.197289 0.079172 0.723951 0.903600 -0.396234 0.162807
0.069721 0.123770 0.382913 -0.097886 0.994833 -0.026933
0.158549 0.153335 0.493769 0.998758 0.049478 -0.005906
0.120504 0.144079 0.725607 0.007935 -0.554778 -0.831960
0.078181 0.126294 0.470067 -0.065380 0.993119 -0.097163
0.066501 0.145088 0.749810 -0.085029 0.994793 -0.056185
0.177303 0.203995 0.502371 -0.017903 -0.241001 -0.970360
0.042019 0.138928 0.327368 -0.819742 0.534287 0.206302
0.161890 0.135266 0.618460 0.052631 0.995732 -0.075813
0.125013 0.145420 0.755217 0.016921 0.998505 -0.051976
0.207283 0.046228 0.450056 0.516024 -0.856086 0.028905
0.125086 0.127747 0.520212 0.041092 0.997980 -0.048459
0.212530 0.115790 0.267318 0.998631 -0.050545 -0.013459
0.117394 0.124584 0.411026 -0.021351 0.986795 -0.160560
0.214687 0.169643 0.203077 0.994411 -0.105207 0.008875
0.051658 0.179666 0.377496 -0.378240 0.882008 -0.281062
0.038013 0.163379 0.252165 -0.578184 -0.793977 0.187896
0.153410 0.131906 0.574777 0.032672 0.983519 -0.177828
0.035131 0.056662 0.547182 -0.678785 -0.731913 0.059612
0.119898 0.032593 0.170320 -0.012116 -0.999448 -0.030941
0.038127 0.073968 0.640756 -0.968966 -0.231126 0.087663
0.124467 0.046371 0.050409 0.005912 -0.672775 -0.739824
0.032972 0.150109 0.421060 -0.904696 -0.416838 0.088152
0.067688 0.126691 0.483751 -0.076344 0.993638 -0.082793
0.043540 0.210441 0.274211 -0.272329 -0.307105 -0.911879
0.128707 0.032745 0.193336 0.040129 -0.998894 -0.024507
0.054935 0.122838 0.107535 -0.066495 0.980658 -0.184088
0.076569 0.036405 0.298435 -0.283415 -0.958906 -0.013219
0.091451 0.229363 0.256966 -0.443332 0.894315 0.060479
0.117934 0.286068 0.558929 -0.419617 0.907701 0.000000
0.092385 0.034595 0.503959 -0.259746 -0.964869 0.039504
0.192761 0.041083 0.174608 0.505165 -0.862804 -0.019427
0.109062 0.143130 0.720161 -0.024128 0.997497 -0.066457
0.115282 0.169155 0.105409 -0.096889 -0.995294 0.001639
0.206332 0.171441 0.384664 0.786228 0.595647 -0.164470
0.053364 0.042592 0.445849 -0.369621 -0.928049 0.045879
0.214622 0.185874 0.556537 0.406932 -0.826142 -0.389737
0.055630 0.178167 0.565553 0.028064 -0.993821 0.107389
0.144109 0.171581 0.683237 0.016333 0.323004 0.946257
0.208701 0.166555 0.124588 0.871791 0.471320 -0.133560
0.085611 0.165309 0.446024 -0.999795 -0.020007 0.003251
0.079487 0.044188 0.051616 -0.247100 -0.817072 -0.520899
0.085000 0.122838 0.113853 -0.040046 0.984093 -0.173083
0.067377 0.140057 0.650312 -0.997627 0.041405 -0.055014
0.204245 0.212617 0.285116 0.583945 0.680651 -0.442405
0.048272 0.138914 0.665669 -0.146892 0.986506 -0.072311
0.046371 0.122843 0.282407 -0.139984 0.985412 -0.096786
0.125440 0.122842 0.258437 -0.004854 0.998892 -0.046814
0.176338 0.124655 0.413470 0.011820 0.990076 -0.140038
0.102931 0.224949 0.234053 -0.136795 -0.989992 -0.034682
0.082657 0.181065 0.572594 -0.446902 0.879615 -0.162957
0.157599 0.040587 0.565308 0.312557 -0.947805 0.063044
0.127594 0.122837 0.143665 0.037959 0.982343 -0.183197
0.136243 0.031155 0.270410 0.086628 -0.996101 -0.016713
0.132182 0.169155 0.095317 0.322144 -0.928650 -0.183936
0.042923 0.152647 0.478106 -0.016823 0.242148 0.970093
0.108414 0.145924 0.167216 0.723463 0.223595 -0.653152
0.211275 0.082572 0.484684 0.998863 -0.047508 0.004027
0.211989 0.098524 0.524540 0.999232 -0.039033 0.003420
0.158200 0.131856 0.574115 0.043180 0.983662 -0.174772
0.198637 0.217748 0.278993 0.398240 0.879531 -0.260442
0.195864 0.061439 0.047126 0.605110 -0.557519 -0.568344
0.073214 0.163486 0.230587 0.826680 -0.542396 0.149688
0.208868 0.124298 0.401137 0.034990 0.988683 -0.145883
0.117255 0.036886 0.095496 -0.031995 -0.967007 -0.252733
0.066638 0.125723 0.450360 -0.064946 0.989948 -0.125640
0.210393 0.063024 0.453121 0.925597 -0.378381 0.009880
0.158917 0.149061 0.821051 0.091917 0.995619 -0.017142
0.150752 0.179363 0.398081 0.214448 0.968970 -0.122922
0.089258 0.155062 0.179744 -0.883891 0.238634 -0.402231
0.159633 0.125709 0.449855 0.013229 0.994258 -0.106187
0.128074 0.296553 0.541261 0.989386 -0.010754 0.144911
0.048158 0.208036 0.468393 -0.493509 0.831850 -0.253918
0.115168 0.179362 0.256718 -0.072481 0.960527 -0.268580
0.053876 0.040763 0.178249 -0.487453 -0.872930 -0.019563
0.157498 0.040341 0.066920 0.231896 -0.901167 -0.366227
0.211453 0.083159 0.339118 0.999276 -0.037841 -0.003899
0.170791 0.185005 0.561184 -0.477884 -0.845482 -0.238301
0.101602 0.150663 0.895726 -0.068597 0.991407 0.111389
0.032495 0.122838 0.167107 -0.106329 0.989727 -0.095576
0.183173 0.184644 0.152725 -0.691559 0.696976 -0.189662
0.099762 0.122837 0.143821 0.001282 0.985417 -0.170151
0.131756 0.150220 0.911451 0.016162 0.990582 0.135961
0.121654 0.342636 0.549581 0.032093 -0.274297 -0.961109
0.166361 0.066148 0.734809 0.474694 -0.868073 0.145307
0.057249 0.217525 0.279848 0.179509 0.977728 0.108739
0.202488 0.073523 0.082198 0.981546 -0.137370 -0.133031
0.197482 0.211365 0.508488 0.691671 0.695668 -0.194006
0.101480 0.215196 0.257698 -0.922018 0.000000 0.387146
0.046832 0.136805 0.383778 -0.585533 -0.322155 -0.743886
0.045153 0.200727 0.480788 -0.733160 0.654473 -0.184774
0.078988 0.162952 0.575322 -0.856936 0.331228 -0.394902
0.126570 0.035850 0.811966 0.470831 -0.876295 0.102108
0.082779 0.188809 0.608390 -0.236307 0.968501 -0.078511
0.067543 0.147204 0.784196 -0.066044 0.997037 -0.039435
0.131504 0.156435 0.768190 0.634392 0.505064 0.585197
0.123193 0.025377 0.513119 0.010241 -0.999705 0.022003
0.124176 0.309244 0.528658 0.366401 0.013901 -0.930353
0.041901 0.203877 0.245036 -0.723840 0.664784 -0.184711
0.211900 0.103720 0.259572 0.999224 -0.037545 -0.011942
0.196475 0.207635 0.222177 0.584450 0.780618 -0.221481
0.089218 0.179362 0.297149 -0.173442 0.932241 -0.317561
0.212284 0.099181 0.358750 0.999835 -0.017902 -0.003172
0.092831 0.149727 0.925438 -0.113472 0.976116 0.185262
0.144575 0.179363 0.256278 0.018832 0.986178 -0.164618
0.123068 0.037734 0.872294 0.343365 -0.872934 0.346536
0.156436 0.122845 0.318710 0.023716 0.993061 -0.115181
0.178311 0.122846 0.348626 0.059260 0.998038 -0.020226
0.029610 0.116621 0.268023 0.000000 0.000000 -1.000000
0.176609 0.122839 0.073319 0.040715 0.986706 -0.157335
0.158549 0.128565 0.345588 0.992445 -0.061087 0.106403
0.033102 0.076082 0.429230 -0.998623 -0.052440 0.001199
0.212307 0.102841 0.454402 0.999735 -0.023021 0.000599
0.210527 0.066079 0.459942 0.957379 -0.288634 0.010742
0.151791 0.046015 0.659039 0.457534 -0.884694 0.089325
0.134277 0.179363 0.341747 -0.014041 0.990343 -0.137927
0.096029 0.179362 0.404089 -0.208588 0.959899 -0.187308
0.054017 0.153516 0.495664 -0.024178 -0.990328 0.136626
0.143261 0.147708 0.793658 0.075563 0.996645 -0.031450
0.137630 0.132183 0.578367 0.035062 0.996439 -0.076682
0.146231 0.129653 0.112717 0.927746 0.186933 0.323022
0.135401 0.122840 0.036078 0.018050 0.983573 -0.179605
0.168578 0.148288 0.805409 0.117231 0.992804 -0.024415
0.106162 0.123907 0.387666 -0.013212 0.999523 -0.027906
0.057333 0.221295 0.262395 -0.004197 0.666501 -0.745493
0.107516 0.191417 0.510212 0.070393 -0.912863 -0.402153
0.210414 0.063457 0.453002 0.930810 -0.365371 0.009835
0.132318 0.179363 0.502012 0.117614 0.988897 -0.090830
0.183570 0.062400 0.676997 0.399972 -0.906590 0.134604
0.189782 0.122837 0.146789 0.120370 0.972238 -0.200660
0.186383 0.123487 0.373153 0.129157 0.991252 -0.027179
0.076412 0.036254 0.302959 -0.284392 -0.958623 -0.012746
0.098604 0.038405 0.088734 -0.156013 -0.965231 -0.209734
0.212599 0.136223 0.705432 0.995398 -0.071568 0.063718
0.067853 0.100569 0.842136 -0.800419 -0.525959 0.287570
0.190250 0.097634 0.035404 0.058978 -0.244822 -0.967773
0.202919 0.142092 0.706747 0.130125 0.989376 -0.064827
0.059760 0.126470 0.476125 -0.078194 0.992417 -0.094843
0.100559 0.179362 0.489731 -0.233111 0.968609 -0.086345
0.169973 0.134817 0.612628 0.074941 0.994308 -0.075730
0.073571 0.173550 0.264208 0.853890 -0.501295 0.139913
0.105770 0.135606 0.622889 -0.054165 0.995630 -0.076073
0.193671 0.068084 0.696366 0.412298 -0.899000 0.147682
0.099634 0.127671 0.517577 -0.002112 0.998711 -0.050718
0.149425 0.121177 0.924821 0.611254 -0.556525 0.562715
0.181846 0.177929 0.132325 -0.675329 0.710727 -0.196972
0.171559 0.154442 0.457515 -0.784459 -0.598399 0.162920
0.080493 0.034201 0.333063 -0.258965 -0.965838 -0.009747
0.162396 0.157903 0.570880 0.851124 0.405157 -0.333820
0.032377 0.163818 0.240972 -0.764195 -0.579926 0.282296
0.035941 0.171802 0.282220 -0.607645 -0.773036 0.182160
0.126005 0.179499 0.080327 0.606036 -0.599564 -0.522726
0.103186 0.150358 0.907548 -0.076577 0.988055 0.133727
0.109091 0.147926 0.961306 -0.051596 0.959082 0.278388
0.134539 0.224949 0.225102 0.040978 -0.991631 -0.122427
0.036475 0.174123 0.400418 -0.802193 0.575601 -0.158650
0.049399 0.215700 0.285037 -0.161045 0.985367 0.055822
0.179588 0.052807 0.621226 0.383504 -0.917062 0.109191
0.216221 0.164410 0.441695 0.988550 -0.040930 0.145236
0.036525 0.074589 0.133391 -0.996476 -0.070083 -0.046095
0.182439 0.131304 0.430660 0.838968 0.135072 0.527151
0.098382 0.155989 0.687925 -0.027428 0.312840 0.949410
0.115881 0.271373 0.525020 -0.680197 0.733030 0.000000
0.143962 0.202763 0.242597 0.948025 0.000000 -0.318194
0.106047 0.191815 0.380314 0.977741 0.148224 -0.148500
0.177557 0.040399 0.465596 0.267901 -0.962076 0.051374
0.121917 0.122839 0.057582 0.022691 0.984394 -0.174511
0.038632 0.122846 0.334613 -0.165143 0.970527 -0.175516
0.140120 0.140224 0.682601 0.013889 0.997414 -0.070510
0.032310 0.178309 0.186498 -0.908201 0.401982 -0.116542
0.080284 0.066123 0.044993 -0.021115 -0.489158 -0.871940
0.031898 0.105149 0.537497 -0.998939 -0.045840 0.004506
0.066675 0.039673 0.130586 -0.314361 -0.947327 -0.061224
0.104633 0.218112 0.624138 -0.254561 0.527885 0.810269
0.187923 0.039880 0.388533 0.337074 -0.940705 0.038138
0.033749 0.060225 0.365016 -0.862340 -0.506310 -0.004359
0.124271 0.212842 0.548737 0.250952 0.019224 0.967809
0.209260 0.051320 0.239659 0.762096 -0.647311 -0.014056
0.212508 0.113140 0.282997 0.999344 -0.034481 -0.011080
0.052310 0.199992 0.541252 0.060387 -0.636852 -0.768617
0.216294 0.174749 0.190578 0.933325 0.275659 0.230034
0.162081 0.127123 0.498685 0.074106 0.995060 -0.066056
0.092054 0.124612 0.411986 -0.036338 0.985324 -0.166780
0.060115 0.194828 0.435135 0.678739 0.709782 -0.188476
0.064101 0.138203 0.503260 0.069097 0.241035 0.968054
0.200341 0.142706 0.827502 0.929740 -0.292577 0.223568
0.082945 0.083768 0.825097 -0.605089 -0.763591 0.225381
0.103416 0.167699 0.753127 -0.962265 -0.240094 0.128063
0.085611 0.173330 0.323558 0.994930 0.000000 0.100569
0.077871 0.066184 0.738740 -0.495998 -0.855840 0.146711
0.044770 0.146302 0.452915 -0.397935 -0.891762 0.215427
0.154573 0.225914 0.250012 0.372176 -0.925245 0.073530
0.077964 0.144508 0.925452 -0.736906 -0.442523 0.511021
0.126282 0.179363 0.549481 0.097570 0.992361 -0.075497
0.057395 0.152790 0.237528 0.079405 -0.996841 -0.001828
0.099720 0.062943 0.789643 -0.695567 -0.703589 0.145428
0.051012 0.133692 0.598001 -0.076985 0.994106 -0.076330
0.075227 0.132334 0.904566 -0.765718 -0.484254 0.423290
0.077071 0.190665 0.256427 0.954729 0.292122 -0.056189
0.188208 0.149107 0.470474 -0.128731 -0.961684 0.242060
0.156058 0.130134 0.392989 0.176669 -0.984014 0.022462
0.120841 0.170234 0.096655 0.012155 -0.618064 -0.786033
0.050621 0.139668 0.675420 -0.139509 0.987633 -0.071547
0.050879 0.045734 0.518166 -0.399547 -0.915090 0.054528
0.182389 0.144751 0.449801 -0.301664 -0.923835 0.235642
0.032184 0.116356 0.180555 -0.998057 -0.056732 -0.025760
0.033332 0.081052 0.261689 -0.999193 -0.038943 -0.009879
0.194788 0.122844 0.293539 0.097081 0.991971 -0.081044
0.115601 0.125708 0.449825 -0.036434 0.993048 -0.111932
0.112541 0.103804 0.929414 -0.243292 -0.720311 0.649586
0.031275 0.136583 0.686068 -0.997400 -0.054243 0.047442
0.194786 0.138024 0.425898 0.246549 -0.941337 0.230432
0.083731 0.040060 0.547140 -0.290531 -0.954977 0.060089
0.126210 0.034926 0.805882 0.433853 -0.896448 0.090293
0.213267 0.119045 0.140382 0.099614 0.734603 -0.671145
0.212612 0.107860 0.412217 0.999926 -0.012117 -0.001174
0.052970 0.155502 0.378774 0.022732 -0.186200 -0.982249
0.032531 0.110555 0.603416 -0.996505 -0.082824 0.010875
0.131606 0.201244 0.475360 0.203217 0.782640 0.588368
0.036675 0.146112 0.381889 -0.016939 0.241915 0.970149
0.100162 0.230419 0.243261 -0.178592 0.983017 -0.042227
0.047070 0.207022 0.561414 -0.418964 0.757552 0.500584
0.125746 0.185735 0.524362 0.006212 0.049397 0.998760
0.115793 0.140179 0.185451 -0.054044 0.505478 -0.861145
0.087324 0.039059 0.100007 -0.211856 -0.967261 -0.139727
0.048034 0.122845 0.312467 -0.145171 0.979379 -0.140504
0.110905 0.184237 0.570132 0.111624 0.955333 -0.273641
0.141341 0.031513 0.473091 0.178384 -0.983627 0.025637
0.127764 0.122844 0.302015 -0.017147 0.994847 -0.099929
0.170427 0.122838 0.108486 0.051898 0.987981 -0.145604
0.077660 0.136803 0.638379 -0.107905 0.991338 -0.074870
0.128120 0.131102 0.185451 0.058707 0.371541 -0.926558
0.111439 0.210166 0.608576 0.088807 0.368816 -0.925250
0.148289 0.032711 0.292553 0.162187 -0.986656 -0.014292
0.042714 0.067185 0.673073 -0.535771 -0.833239 0.136613
0.127848 0.316553 0.518125 0.988173 0.066141 0.138343
0.212897 0.137901 0.698267 0.998070 -0.028491 0.055178
0.121080 0.222268 0.487073 0.170272 0.111368 -0.979084
0.113301 0.163762 0.734971 0.572563 -0.263528 0.776354
0.116611 0.169506 0.768676 0.661599 0.458583 0.593287
0.051546 0.166429 0.539879 0.027367 -0.969812 0.242314
0.129551 0.124341 0.402651 -0.011297 0.985804 -0.167520
0.126193 0.034950 0.810629 0.432073 -0.896477 0.098190
0.085611 0.131161 0.205319 -0.944892 0.039572 -0.324983
0.110061 0.182058 0.680087 -0.001961 0.316276 0.948665
0.127150 0.132197 0.185451 0.054110 0.388267 -0.919957
0.105343 0.055901 0.787234 -0.721498 -0.682941 0.114156
0.199648 0.151925 0.125296 0.016932 0.241877 0.970159
0.065372 0.175418 0.559709 0.489266 -0.844177 0.219051
0.169954 0.073599 0.042937 0.007110 -0.318453 -0.947912
0.199225 0.204011 0.238649 0.737276 0.650540 -0.182269
0.158411 0.172198 0.318700 -0.981021 0.000000 -0.193900
0.035521 0.094342 0.663153 -0.981383 -0.175012 0.079107
0.085611 0.136238 0.532247 -0.964345 0.258517 -0.056637
0.158549 0.169065 0.545741 0.778756 0.625390 -0.049264
0.089617 0.190303 0.349530 -0.141181 0.948485 0.283628
0.216652 0.154948 0.436448 0.739339 -0.669448 0.072240
0.055150 0.156398 0.244422 0.119637 -0.962826 0.242184
0.147384 0.186657 0.348154 -0.081604 -0.943144 -0.322212
0.063333 0.039440 0.419805 -0.273646 -0.960738 0.045821
0.085611 0.197549 0.620668 -0.314545 0.936112 0.157342
0.197917 0.046885 0.521148 0.441973 -0.895451 0.053173
0.151314 0.075003 0.820212 0.613038 -0.763206 0.204207
0.158401 0.146662 0.369766 -0.976199 0.000000 -0.216875
0.064433 0.122839 0.053875 -0.004338 0.981823 -0.189749
0.205936 0.060059 0.629845 0.590114 -0.800076 0.107903
0.032978 0.078767 0.432062 -0.998818 -0.048594 0.001206
0.031794 0.108940 0.559270 -0.998407 -0.055983 0.007054
0.164528 0.147039 0.781514 0.113201 0.992898 -0.036584
0.215792 0.159821 0.445521 0.553652 -0.251348 0.793910
0.210636 0.084384 0.209199 0.998864 -0.045562 -0.013979
0.133349 0.224949 0.240855 0.010851 -0.999896 -0.009535
0.123223 0.130134 0.264831 -0.046707 -0.998890 0.006038
0.176783 0.164428 0.615365 0.995981 0.065707 -0.060862
0.116361 0.329966 0.556498 -0.042570 -0.744562 -0.666195
0.124416 0.056015 0.047759 0.005925 -0.569851 -0.821727
0.167185 0.183390 0.220768 -0.947521 0.313645 -0.061896
0.195721 0.138818 0.664430 0.101064 0.992353 -0.070860
0.032586 0.142807 0.751613 -0.926037 0.373567 0.053882
0.035227 0.113975 0.105936 -0.989324 -0.130977 -0.063902
0.094696 0.224949 0.225438 -0.164097 -0.983552 -0.075481
0.175849 0.192790 0.644747 0.915976 0.395266 0.068949
0.100199 0.187597 0.248287 -0.999548 0.000000 -0.030068
0.111942 0.130134 0.324475 -0.074187 -0.997193 0.010140
0.195036 0.045734 0.066449 0.503412 -0.823883 -0.260372
0.150453 0.179363 0.388683 0.202493 0.971170 -0.125801
0.107192 0.030761 0.531699 -0.155427 -0.987252 0.034287
0.178022 0.132813 0.586560 0.072658 0.994431 -0.076338
0.046783 0.138125 0.171793 0.984906 0.037804 0.168914
0.051570 0.107277 0.788224 -0.882563 -0.420187 0.211012
0.089859 0.218883 0.613052 -0.306925 0.903635 -0.298732
0.101627 0.216265 0.258247 -0.902357 0.000000 0.430990
0.156259 0.122845 0.326067 0.021507 0.991781 -0.126131
0.035535 0.127008 0.494696 -0.098773 0.992029 -0.078250
0.069623 0.143132 0.720192 -0.091323 0.993538 -0.067400
0.033249 0.080138 0.537444 -0.997717 -0.067092 0.007662
0.130104 0.166064 0.185451 0.093631 0.862891 -0.496641
0.089964 0.192164 0.382954 -0.954560 0.297822 -0.010872
0.145823 0.224949 0.254728 0.141414 -0.987107 0.074979
0.132288 0.179770 0.762957 0.449674 0.723918 0.523198
0.207629 0.122843 0.286518 0.122068 0.989754 -0.074067
0.068199 0.189782 0.632835 -0.926790 0.373863 0.035874
0.185875 0.131696 0.572035 0.100154 0.981699 -0.161974
0.037216 0.060289 0.140928 -0.833271 -0.547782 -0.074801
0.158549 0.171268 0.238971 0.955158 0.000000 0.296097
0.051851 0.217054 0.536412 -0.071036 0.996279 0.048815
0.124070 0.029866 0.802494 0.203753 -0.976354 0.072230
0.108681 0.184237 0.598143 0.052080 0.934109 -0.353168
0.133826 0.122838 0.084791 0.035135 0.986163 -0.162015
0.127432 0.035732 0.755078 0.437256 -0.895250 0.085636
0.035556 0.080656 0.619584 0.984168 0.176243 -0.018735
0.029119 0.156180 0.434523 -0.968156 -0.225840 0.108027
0.174617 0.040677 0.490685 0.265763 -0.962535 0.053827
0.209420 0.090032 0.152075 0.995190 -0.091292 -0.035529
0.194220 0.190318 0.572067 0.106589 -0.059798 0.992503
0.028222 0.122081 0.158071 -0.899111 -0.419901 -0.123625
0.110365 0.146540 0.178450 0.804787 0.550877 -0.221026
0.101616 0.129361 0.541674 -0.008283 0.995590 -0.093442
0.040797 0.179779 0.563503 -0.361646 -0.930955 0.050348
0.198450 0.145036 0.748971 0.146825 0.987811 -0.051695
0.102587 0.179362 0.220882 -0.092265 0.933617 -0.346188
0.119441 0.141913 0.704435 -0.012690 0.997588 -0.068245
0.112352 0.326188 0.538088 -0.994034 -0.062700 0.089246
0.171084 0.164225 0.234101 -0.820051 -0.551761 0.151911
0.200597 0.140661 0.423364 0.295855 -0.229803 -0.927179
0.147863 0.122839 0.199670 0.065817 0.997303 -0.032479
0.034676 0.197594 0.557444 -0.964645 -0.231187 0.126543
0.157276 0.179363 0.310147 0.199245 0.968578 -0.148854
0.201608 0.086077 0.703254 0.942101 -0.308847 0.130610
0.054841 0.137091 0.642101 -0.144516 0.986708 -0.074315
0.216295 0.187892 0.235489 0.971741 0.226300 0.067134
0.036314 0.122842 0.264832 -0.150912 0.985776 -0.073965
0.210424 0.202504 0.519006 0.760273 0.626627 -0.171242
0.141353 0.155567 0.756240 0.920251 0.343414 0.187630
0.180300 0.146202 0.450637 -0.374357 -0.898176 0.230513
0.199989 0.134820 0.612671 0.100626 0.992051 -0.075556
0.096240 0.134827 0.612750 -0.042000 0.996207 -0.076205
0.173534 0.171666 0.531463 -0.679572 -0.708937 0.188653
0.062362 0.122841 0.243458 -0.104550 0.993932 -0.034184
0.202657 0.137859 0.652029 0.107738 0.991552 -0.072232
0.144301 0.064552 0.798956 0.701450 -0.696532 0.151034
0.206437 0.122839 0.047086 0.038078 0.986251 -0.160806
0.182175 0.211426 0.528721 -0.034636 -0.246786 -0.968451
0.131677 0.212286 0.220096 0.371228 0.000000 -0.928542
0.132794 0.164141 0.753281 0.157922 -0.986996 0.030006
0.142279 0.037366 0.605624 0.318533 -0.946468 0.052300
0.131108 0.122844 0.301927 -0.011838 0.995047 -0.098698
0.119939 0.275127 0.530741 -0.126410 0.991978 0.000000
0.122475 0.130134 0.273618 -0.051839 -0.998634 0.006619
0.085611 0.144420 0.310206 0.991688 0.000000 -0.128665
0.196416 0.051210 0.071178 0.640453 -0.720725 -0.265283
0.101234 0.126936 0.118442 -0.854002 0.198141 0.481062
0.117452 0.123350 0.368426 -0.019210 0.999476 -0.026034
0.169802 0.138207 0.910567 0.764965 -0.465819 0.444794
0.212791 0.112252 0.437856 0.999938 -0.010945 -0.001999
0.109206 0.184081 0.515714 0.186151 -0.789447 -0.584911
0.099917 0.047053 0.696745 -0.532119 -0.840590 0.101279
0.128628 0.027214 0.474538 0.060541 -0.998000 0.018197
0.034023 0.054632 0.346416 -0.771180 -0.636574 -0.007354
0.032297 0.178067 0.441002 -0.909507 0.399214 -0.115869
0.149202 0.130134 0.361465 0.119439 -0.992670 0.018446
0.192309 0.141918 0.335910 -1.000000 0.000000 0.000000
0.036616 0.048336 0.502672 -0.523702 -0.850690 0.045416
0.206076 0.207947 0.292119 0.619427 0.677610 -0.396428
0.130727 0.030293 0.598094 0.136918 -0.989996 0.034082
0.032715 0.099017 0.580527 -0.997112 -0.075101 0.011299
0.117834 0.130134 0.211011 -0.015404 -0.999878 0.002409
0.181322 0.190686 0.442317 -0.703777 0.687125 -0.180434
0.074767 0.038271 0.159743 -0.313659 -0.948865 -0.035693
0.138952 0.149870 0.837428 0.042083 0.999103 -0.004815
0.078136 0.164514 0.195422 0.978935 -0.193439 0.065325
0.212361 0.161802 0.130889 0.971039 0.227235 -0.073802
0.125847 0.125081 0.428190 -0.022679 0.990397 -0.136382
0.118629 0.149076 0.184373 -0.038765 0.011301 -0.999184
0.043460 0.151482 0.216028 -0.420378 -0.882085 0.212622
0.167027 0.182255 0.508096 -0.997625 -0.060693 0.032555
0.063531 0.121878 0.863607 -0.824435 -0.471533 0.312992
0.191741 0.224365 0.259800 0.152277 0.831174 -0.534754
0.158376 0.045742 0.631900 0.400232 -0.912696 0.082459
0.063541 0.167137 0.276700 0.412240 -0.882289 0.227210
0.158549 0.124283 0.382761 0.998222 -0.051062 0.030763
0.035479 0.119138 0.059613 -0.981461 -0.187330 -0.040509
0.170835 0.181400 0.293757 -0.848801 -0.509333 0.141833
0.096502 0.122838 0.166908 0.002711 0.995285 -0.096955
0.026717 0.122845 0.314178 -0.178381 0.972577 -0.149249
0.209746 0.113110 0.140382 0.011564 0.270885 -0.962542
0.033557 0.074489 0.274875 -0.998770 -0.048832 -0.008540
0.154902 0.207386 0.589341 -0.701459 0.501283 -0.506626
0.127241 0.130134 0.354144 0.018327 -0.999717 0.015151
0.149930 0.262545 0.375709 -0.479136 0.863675 0.156508
0.060831 0.186352 0.411774 0.691055 0.697609 -0.189169
0.143507 0.123635 0.123093 0.581099 0.513406 0.631457
0.146961 0.109380 0.913720 0.595674 -0.605920 0.527288
0.153079 0.183876 0.501166 -0.559915 -0.690850 -0.457408
0.033060 0.079376 0.497382 -0.998574 -0.053178 0.004614
0.121364 0.346152 0.544383 -0.072706 0.537330 0.840232
0.174847 0.189547 0.624480 0.683780 0.727250 -0.059609
0.120557 0.319244 0.528554 -0.162676 -0.010425 -0.986625
0.175414 0.150478 0.904149 0.167324 0.979408 0.112970
0.111274 0.031616 0.597345 -0.171454 -0.984471 0.037689
0.101399 0.183790 0.435849 0.576193 -0.549905 0.604654
0.202144 0.132371 0.330634 0.728725 -0.000302 0.684806
0.126772 0.286068 0.544007 0.652309 0.757953 0.000000
0.216192 0.162212 0.440058 0.987589 -0.080915 0.134610
0.179312 0.073232 0.043044 0.122954 -0.338862 -0.932767
0.163073 0.065282 0.736223 0.477747 -0.866979 0.141791
0.036507 0.081681 0.127622 -0.995879 -0.074282 -0.052031
0.201076 0.122846 0.338913 0.088227 0.987609 -0.129788
0.075981 0.122840 0.025722 0.000875 0.980675 -0.195641
0.158087 0.135113 0.307159 -0.991216 0.000000 0.132251
0.120072 0.139167 0.967769 -0.043545 -0.416221 0.908220
0.031675 0.104697 0.394213 -0.999980 -0.005885 -0.002164
0.117491 0.130134 0.276799 -0.053757 -0.998531 0.006798
0.158549 0.149401 0.424892 0.999079 -0.041828 0.009540
0.099880 0.144798 0.745101 -0.030020 0.997888 -0.057613
0.085611 0.167568 0.352332 0.944387 -0.042924 0.326021
0.165518 0.107886 0.877772 0.754749 -0.543046 0.368042
0.026168 0.122377 0.338988 -0.322378 0.925213 -0.200131
0.128493 0.032277 0.203797 0.038823 -0.998971 -0.023454
0.032585 0.088576 0.478579 -0.999207 -0.039724 0.002889
0.065641 0.142713 0.246880 0.662951 0.178425 0.727090
0.033029 0.077501 0.426087 -0.998748 -0.050016 0.000958
0.082645 0.064985 0.744906 -0.522543 -0.840529 0.143039
0.100386 0.189599 0.220096 -0.725432 0.000000 -0.688294
0.168736 0.037893 0.247992 0.301487 -0.953307 -0.017640
0.085098 0.122839 0.064259 0.008021 0.983437 -0.181075
0.127134 0.031208 0.223328 0.030531 -0.999303 -0.021482
0.054562 0.193155 0.407123 -0.016892 0.241906 0.970153
0.088824 0.179362 0.527986 -0.290395 0.953015 -0.086217
0.154103 0.180843 0.373324 0.484208 0.822959 -0.297122
0.166812 0.127546 0.513267 0.098532 0.993672 -0.053921
0.107917 0.122839 0.178095 0.013846 0.997094 -0.074906
0.184459 0.170313 0.304233 -0.016892 -0.241902 -0.970154
0.115101 0.229088 0.542403 -0.949141 0.006087 0.314794
0.030777 0.123384 0.369591 -0.147414 0.988806 -0.023047
0.196230 0.179447 0.385990 -0.017075 -0.241989 -0.970129
0.115575 0.027200 0.397823 -0.060147 -0.998182 0.003865
0.079107 0.122843 0.277311 -0.087416 0.993036 -0.078979
0.145391 0.068207 0.044415 0.051536 -0.425480 -0.903499
0.054688 0.125572 0.445117 -0.069946 0.988265 -0.135790
0.195964 0.122840 0.214271 0.136273 0.990664 -0.003804
0.112693 0.126133 0.464506 -0.043263 0.994619 -0.094138
0.144551 0.152843 0.100131 0.854686 0.383413 -0.350009
0.077037 0.186021 0.513651 0.998220 0.059587 0.002560
0.052202 0.126988 0.833834 -0.887454 -0.386904 0.250459
0.174894 0.153989 0.468329 -0.623756 -0.755768 0.199356
0.143097 0.141759 0.702446 0.027006 0.997336 -0.067765
0.123829 0.218545 0.611970 -0.060521 0.896546 -0.438796
0.042764 0.054755 0.590003 -0.529360 -0.843710 0.089061
0.032330 0.172279 0.521894 0.017107 -0.241760 -0.970185
0.074077 0.170946 0.395233 0.850033 0.514035 -0.114945
0.203918 0.042348 0.242099 0.541605 -0.840521 -0.013713
0.146927 0.149642 0.927831 0.052747 0.985288 0.162556
0.139543 0.122841 0.244660 0.025903 0.999109 -0.033318
0.205835 0.143027 0.167756 0.698892 -0.696746 0.161542
0.074519 0.038453 0.143745 -0.281235 -0.958354 -0.049643
0.032698 0.084923 0.439920 -0.999203 -0.039886 0.001294
0.065984 0.133218 0.248689 0.687426 0.172909 0.705371
0.209854 0.116336 0.700495 0.987173 -0.137674 0.080838
0.183481 0.125642 0.447538 0.047925 0.992995 -0.107996
0.156165 0.179363 0.189896 0.087511 0.978200 -0.188325
0.120450 0.122840 0.216764 0.006300 0.999963 -0.005820
0.138490 0.030549 0.518508 0.152081 -0.987836 0.032421
0.049154 0.050555 0.563055 -0.451558 -0.888885 0.077324
0.067688 0.126785 0.487020 -0.077510 0.993887 -0.078622
0.112852 0.130384 0.554985 -0.009163 0.991641 -0.128705
0.120998 0.122843 0.267154 -0.016596 0.998330 -0.055337
0.099123 0.186844 0.329502 0.178681 -0.113943 0.977287
0.152661 0.179363 0.255352 0.100239 0.981245 -0.164650
0.118263 0.347780 0.493071 -0.873524 0.200215 -0.443700
0.151209 0.035559 0.237003 0.180606 -0.983353 -0.019962
0.212325 0.100219 0.363880 0.999852 -0.016963 -0.002940
0.073484 0.193651 0.548665 0.346163 -0.705484 -0.618437
0.158549 0.174065 0.431589 0.999035 -0.043340 0.007078
0.088730 0.179362 0.443432 -0.250586 0.952613 -0.172438
0.146293 0.147082 0.745809 0.826491 0.332788 -0.454054
0.027927 0.176876 0.182449 -0.652601 0.706251 0.274448
0.115752 0.275909 0.533740 -0.965065 -0.007022 -0.261915
0.170095 0.039576 0.497802 0.265776 -0.962670 0.051285
0.049141 0.135295 0.414945 -0.278441 -0.933046 0.227808
0.047463 0.194159 0.193229 -0.721795 0.665022 -0.191721
0.143191 0.156784 0.111140 0.918506 0.369948 0.139590
0.097215 0.106373 0.032665 -0.036792 -0.287777 -0.956990
0.158549 0.127918 0.284183 0.999600 0.000000 -0.028288
0.140933 0.029074 0.345274 0.115915 -0.993218 -0.009019
0.116609 0.178112 0.093043 0.854359 0.349736 -0.384391
0.164877 0.155416 0.384967 -0.999635 0.024522 0.011340
0.131670 0.151462 0.128170 0.471141 0.144464 0.870147
0.113612 0.140414 0.685058 -0.030447 0.997014 -0.070969
0.038663 0.054414 0.577831 -0.553710 -0.828814 0.080449
0.036064 0.082575 0.642297 -0.979119 -0.188568 0.075948
0.211301 0.080909 0.332525 0.999154 -0.040894 -0.004314
0.116198 0.122838 0.096549 0.010553 0.986183 -0.165325
0.067391 0.122838 0.083253 -0.029524 0.982479 -0.184020
0.167002 0.122839 0.076531 0.039690 0.986617 -0.158151
0.033450 0.110704 0.664551 -0.991300 -0.116873 0.060536
0.072250 0.134258 0.352297 -0.063590 -0.186352 0.980423
0.035606 0.140470 0.774808 -0.966948 -0.202616 0.154783
0.205047 0.211194 0.528579 0.360012 -0.277904 -0.890596
0.158549 0.199943 0.587858 0.724750 0.682058 -0.097640
0.083618 0.038416 0.125547 -0.219014 -0.972777 -0.075743
0.212223 0.097761 0.354668 0.999806 -0.019393 -0.003335
0.089683 0.126494 0.476951 -0.061200 0.994499 -0.085003
0.138958 0.178403 0.681592 0.000000 0.292312 0.956323
0.118486 0.179362 0.270144 -0.069218 0.967380 -0.243692
0.187726 0.164689 0.122322 0.016922 0.241893 0.970155
0.076579 0.152137 0.579177 -0.907380 0.238923 -0.345800
0.183702 0.192619 0.442503 -0.718429 0.672761 -0.176783
0.213228 0.119695 0.385763 0.999988 0.003296 -0.003506
0.204338 0.125805 0.453175 0.087125 0.990840 -0.103177
0.123405 0.122843 0.269681 -0.013659 0.998233 -0.057823
0.035318 0.101918 0.677781 -0.982147 -0.169114 0.082383
0.030204 0.155943 0.416420 -0.979349 -0.199522 0.032657
0.036894 0.213493 0.531744 -0.579519 0.136907 -0.803377
0.077180 0.188186 0.250197 0.968773 0.244025 -0.043950
0.210494 0.068572 0.300228 0.980823 -0.194363 -0.014478
0.187735 0.125945 0.847564 0.870964 -0.410742 0.269653
0.201010 0.079251 0.693491 0.938479 -0.319949 0.129957
0.113917 0.149068 0.821189 0.005582 0.999840 -0.016984
0.128862 0.169155 0.117041 0.076401 -0.969677 0.232143
0.118564 0.179362 0.467241 -0.066430 0.992892 -0.098753
0.136035 0.124007 0.391120 0.063839 0.997561 -0.028223
0.177139 0.142415 0.629998 0.881254 -0.067099 0.467856
0.032445 0.127625 0.516005 -0.108042 0.992785 -0.052003
0.031771 0.104637 0.326287 -0.999977 -0.002517 -0.006290
0.087072 0.179362 0.212652 -0.134466 0.904750 -0.404162
0.132055 0.160326 0.766198 0.620384 0.558449 0.550689
0.205499 0.111761 0.726502 0.965804 -0.231040 0.117660
0.034093 0.146236 0.412500 -0.876480 -0.470504 0.102027
0.123893 0.181774 0.086873 -0.046988 0.898586 -0.436275
0.075143 0.136198 0.909420 -0.762637 -0.471717 0.442570
0.166215 0.036710 0.427046 0.247481 -0.967928 0.043231
0.036750 0.133121 0.766245 -0.963652 -0.220008 0.151565
0.172755 0.135060 0.615784 0.078023 0.994078 -0.075643
0.212273 0.109000 0.277552 0.999424 -0.032143 -0.010888
0.052191 0.212223 0.295237 0.066508 0.975355 0.210380
0.158802 0.050969 0.049349 0.134060 -0.670198 -0.729974
0.200381 0.122149 0.178415 -0.148252 0.238565 0.959744
0.068482 0.174283 0.132537 0.747788 0.643924 -0.161787
