0.886278 0.110249 0.133016 0.053823 -0.998164 0.027777
0.484416 0.118802 0.092637 0.012868 0.987984 -0.154017
0.404934 0.089459 0.064155 -0.003826 -0.722008 -0.691874
0.534016 0.096709 0.053963 0.006550 -0.730863 -0.682493
0.772138 0.061494 0.158924 0.138442 -0.282505 0.949223
0.370416 0.150247 0.203998 -0.115649 0.989662 -0.084824
0.713336 0.118802 0.202720 0.055352 0.981628 0.182597
0.389441 0.117636 0.047265 0.027817 0.916192 -0.399774
0.468629 0.082430 0.189334 -0.756508 -0.360411 0.545711
0.277063 0.118802 0.057531 -0.003276 0.987463 -0.157817
0.678320 0.110248 0.183838 -0.030486 -0.998999 0.032723
0.116088 0.110248 0.172372 -0.006438 -0.999978 -0.001818
0.917612 0.118803 0.138657 0.159177 0.987193 0.010631
0.188121 0.118802 0.130056 -0.029703 0.996906 -0.072778
0.518271 0.034554 0.096705 0.014965 -0.796672 -0.604227
0.485461 0.110243 0.235705 -0.030159 -0.922025 0.385954
0.116570 0.095461 0.092545 -0.195629 0.651378 -0.733100
0.942520 0.110249 0.162866 -0.112374 -0.984171 0.137040
0.343424 0.030513 0.152324 -0.014154 -0.972776 0.231316
0.389236 0.110083 0.139961 -0.013662 0.999179 0.038148
0.201698 0.118802 0.115775 -0.059376 0.996947 -0.050711
0.294338 0.118802 0.134355 -0.011071 0.996109 -0.087431
0.835437 0.110249 0.110853 0.012677 -0.997677 -0.066925
0.054186 0.057739 0.147772 -0.250498 -0.890904 0.378868
0.695946 0.110249 0.174088 -0.016328 -0.999378 0.031267
0.566881 0.118802 0.169419 0.007724 0.997901 -0.064298
0.211049 0.118802 0.186987 -0.028589 0.996326 0.080727
0.434265 0.118802 0.170474 0.020785 0.997999 -0.059711
0.390843 0.107984 0.188166 -0.659372 0.115114 0.742952
0.409786 0.118802 0.189255 -0.011006 0.997361 -0.071764
0.138377 0.110083 0.208767 0.062605 0.581529 0.811113
0.863874 0.118803 0.155108 0.108765 0.993766 0.024473
0.253485 0.052672 0.178123 -0.027896 -0.469526 0.882478
0.503476 0.106013 0.217060 0.073077 -0.087201 0.993507
0.361807 0.150247 0.208837 -0.100196 0.993821 0.047761
0.593718 0.110083 0.165427 -0.061599 0.992996 0.100823
0.665393 0.110248 0.211712 -0.022124 -0.997402 0.068549
0.546146 0.110083 0.184097 0.016918 0.977010 0.212519
0.304516 0.110248 0.177170 -0.032936 -0.998968 0.031276
0.245344 0.063079 0.181746 -0.013084 -0.300104 0.953817
0.461629 0.110248 0.220047 0.011323 -0.998303 0.057116
0.749199 0.110083 0.096495 0.055569 0.990432 -0.126320
0.121363 0.110248 0.087540 0.002962 -0.993341 -0.115173
0.886447 0.090324 0.154488 0.106648 -0.531941 0.840039
0.603049 0.110248 0.178099 -0.054133 -0.996394 0.065342
0.834650 0.118803 0.099010 -0.004059 0.988973 -0.148043
0.542770 0.110083 0.122155 -0.041191 0.999148 -0.002471
0.096599 0.049815 0.140248 -0.249640 -0.950948 0.182693
0.476557 0.110248 0.194439 0.028040 -0.999172 0.029493
0.304104 0.110083 0.177194 0.011923 0.997266 0.072925
0.155885 0.053725 0.171685 -0.106574 -0.613446 0.782513
0.628800 0.110248 0.049249 0.038424 -0.995967 -0.081071
0.404259 0.110083 0.137701 0.020517 0.996526 0.080714
0.319150 0.118802 0.174010 -0.026195 0.999513 -0.016931
0.111538 0.048144 0.112767 -0.168018 -0.943577 -0.285365
0.325554 0.110248 0.198309 -0.033599 -0.998139 0.050888
0.149535 0.050429 0.168231 -0.109971 -0.696931 0.708656
0.310707 0.060650 0.181738 -0.016019 -0.286607 0.957914
0.082674 0.106517 0.090017 -0.102843 -0.994677 -0.006428
0.349699 0.110248 0.235058 -0.033163 -0.988226 0.149365
0.198689 0.110083 0.115668 -0.042297 0.981669 -0.185839
0.241388 0.110248 0.070817 0.018901 -0.997088 -0.073875
0.376823 0.093867 0.057640 -0.009196 -0.741744 -0.670620
0.399870 0.110248 0.048602 0.039145 -0.998727 -0.031825
0.935056 0.110083 0.130778 0.064144 0.996830 -0.047073
0.469780 0.110274 0.040098 -0.120834 -0.978116 -0.169374
0.211781 0.107278 0.182686 -0.014426 -0.985994 0.166157
0.457483 0.110083 0.105029 -0.037295 0.996147 -0.079371
0.650552 0.118802 0.203303 -0.034144 0.984560 0.171684
0.544578 0.027591 0.131764 0.005723 -0.999829 0.017579
0.241813 0.109418 0.049396 -0.031417 0.930705 -0.364420
0.579301 0.077357 0.081493 0.028608 -0.650336 -0.759108
0.338542 0.110248 0.226744 -0.074182 -0.996474 0.039203
0.787643 0.062540 0.156683 0.150860 -0.272513 0.950251
0.460527 0.087018 0.186886 -0.483080 -0.084382 0.871500
0.215618 0.029091 0.135110 -0.058125 -0.928807 0.365978
0.873210 0.110249 0.085905 0.038038 -0.919859 -0.390401
0.184131 0.118802 0.073308 -0.059947 0.997439 -0.039014
0.388506 0.110248 0.195899 -0.007462 -0.999143 0.040716
0.596839 0.118802 0.058038 0.008172 0.988973 -0.147869
0.750844 0.110248 0.110654 0.008662 -0.999759 -0.020190
0.669487 0.110248 0.132637 -0.030140 -0.999485 0.010993
0.600860 0.028562 0.145068 0.007678 -0.988180 0.153108
0.383298 0.146502 0.219656 -0.613969 -0.211880 0.760361
0.732552 0.115005 0.077360 0.213248 0.940878 -0.263199
0.540136 0.044867 0.176955 0.046786 -0.463188 0.885024
0.254433 0.110083 0.205837 -0.119293 0.758264 0.640940
0.949275 0.095031 0.150161 0.300331 -0.723859 0.621152
0.585899 0.118802 0.074083 0.008033 0.990840 -0.134799
0.606785 0.113971 0.233197 -0.138537 0.947088 0.289539
0.711872 0.110083 0.088354 0.063888 0.991146 -0.116399
0.504153 0.068329 0.182916 -0.009789 -0.206758 0.978343
0.214103 0.072226 0.184884 0.001656 0.257756 0.966209
0.432604 0.027749 0.133009 -0.008311 -0.999885 0.012648
0.358677 0.117887 0.212035 -0.233735 -0.637649 0.734010
0.657934 0.118802 0.094147 0.068765 0.993826 -0.087070
0.299616 0.110083 0.186710 0.011293 0.994847 0.100754
0.625614 0.110248 0.127742 -0.017601 -0.999637 0.020412
0.233174 0.110248 0.175421 -0.001382 -0.999332 0.036511
0.877290 0.053518 0.140369 0.137919 -0.188347 0.972370
0.886129 0.110249 0.125132 0.042306 -0.999103 0.001802
0.213707 0.110248 0.098775 0.077591 -0.995973 -0.044904
0.727147 0.045970 0.159862 0.165403 -0.423640 0.890601
0.785603 0.110083 0.133689 0.038808 0.999226 -0.006465
0.405738 0.118802 0.213712 -0.016407 0.999581 -0.023857
0.242784 0.118802 0.124244 -0.046234 0.998385 -0.032998
0.424105 0.110248 0.126735 0.028905 -0.999562 -0.006399
0.482001 0.057647 0.181648 0.001806 -0.235186 0.971949
0.292033 0.052519 0.178631 -0.021215 -0.401331 0.915688
0.503219 0.110775 0.239964 -0.036641 -0.696454 0.716665
0.724745 0.118802 0.106346 0.014263 0.993315 -0.114550
0.379362 0.118802 0.225583 -0.013994 0.999898 0.002699
0.640678 0.118802 0.046082 0.004653 0.986061 -0.166318
0.288535 0.110248 0.235905 -0.071021 -0.988565 0.133024
0.683174 0.118802 0.082749 0.093721 0.986261 -0.136037
0.381113 0.086406 0.068330 -0.003789 -0.697568 -0.716509
0.264791 0.044994 0.094837 -0.037964 -0.591246 -0.805597
0.423841 0.103269 0.171253 -0.147516 -0.193643 0.969918
0.298325 0.041466 0.095805 -0.051868 -0.635879 -0.770044
0.355683 0.041578 0.091823 -0.033067 -0.445833 -0.894505
0.371088 0.029667 0.148984 -0.010838 -0.989753 0.142379
0.757864 0.113346 0.083383 0.090219 0.791801 -0.604079
0.281940 0.110083 0.066254 -0.020302 0.974751 -0.222372
0.635613 0.058590 0.176811 0.084664 -0.280495 0.956114
0.419524 0.029362 0.150733 -0.011489 -0.983624 0.179866
0.570898 0.110248 0.129010 -0.036574 -0.999100 0.021470
0.365312 0.079882 0.189952 0.162588 -0.721204 0.673372
0.318976 0.065048 0.182582 -0.000231 -0.158620 0.987340
0.817768 0.118802 0.088350 0.002961 0.991901 -0.126982
0.457938 0.110248 0.186150 0.024456 -0.999459 0.021997
0.686872 0.110248 0.103905 -0.013640 -0.999905 0.001909
0.859039 0.113101 0.087604 0.054868 0.943043 -0.328115
0.200699 0.110248 0.123445 0.110971 -0.993641 -0.019043
0.379982 0.110083 0.149666 -0.044345 0.980345 0.192243
0.259655 0.113193 0.041788 -0.041775 0.996842 0.067530
0.674159 0.110083 0.174935 0.045386 0.987982 0.147757
0.701282 0.101680 0.177406 0.121183 -0.070166 0.990147
0.505695 0.118802 0.075313 -0.007208 0.982675 -0.185196
0.788323 0.118803 0.157932 0.100068 0.994713 0.023074
0.438905 0.107278 0.173980 -0.042081 -0.971545 0.233089
0.610214 0.110248 0.233979 -0.204043 -0.949976 0.236458
0.156081 0.110248 0.065948 -0.011326 -0.999833 -0.014309
0.507517 0.118802 0.046753 0.019829 0.979138 -0.202226
0.627215 0.118802 0.114964 0.080879 0.989044 -0.123493
0.336069 0.110248 0.138908 -0.003876 -0.999910 -0.012833
0.062697 0.118802 0.101899 -0.030481 0.980808 -0.192580
0.497921 0.033687 0.097396 0.013104 -0.797324 -0.603409
0.252832 0.083659 0.201189 -0.279305 -0.574575 0.769319
0.475427 0.110083 0.204493 -0.256697 0.954854 0.149535
0.673616 0.115023 0.237356 0.018394 0.861705 0.507075
0.683967 0.081355 0.176312 0.103130 -0.142614 0.984391
0.664975 0.034448 0.159295 0.054094 -0.805145 0.590606
0.362745 0.028991 0.142204 -0.006346 -0.994522 0.104331
0.383839 0.146455 0.201391 -0.009614 -0.110110 -0.993873
0.102286 0.110248 0.137084 -0.036691 -0.999099 -0.021315
0.314220 0.118802 0.118777 0.008184 0.996145 -0.087342
0.331806 0.118802 0.123886 0.009128 0.987795 -0.155494
0.553832 0.029236 0.151019 0.009648 -0.981008 0.193725
0.304445 0.085828 0.067292 -0.029670 -0.706265 -0.707326
0.607340 0.079067 0.079134 0.041435 -0.649862 -0.758922
0.605361 0.109744 0.194123 -0.304060 0.927276 0.218419
0.408175 0.027923 0.124888 -0.006075 -0.999490 -0.031362
0.500455 0.118802 0.055506 0.023308 0.981438 -0.190360
0.034842 0.104831 0.129342 -0.501580 0.863444 -0.053691
0.808065 0.118803 0.139780 0.155875 0.987762 0.005497
0.384293 0.110248 0.127014 0.018643 -0.999541 -0.023862
0.358144 0.118802 0.130457 -0.004676 0.988781 -0.149298
0.707347 0.118802 0.116515 0.008657 0.995849 -0.090605
0.520244 0.118802 0.153558 0.056682 0.995837 -0.071384
0.613747 0.118802 0.043910 -0.003145 0.987814 -0.155608
0.532179 0.057058 0.180879 0.024655 -0.280031 0.959674
0.452916 0.027865 0.139249 -0.007207 -0.997445 0.071069
0.195301 0.107278 0.173343 0.021752 -0.977450 0.210044
0.827696 0.084840 0.105224 0.099945 -0.434438 -0.895140
0.082685 0.052596 0.146722 -0.228897 -0.930194 0.286960
0.131374 0.118802 0.102078 -0.039005 0.995127 -0.090557
0.782731 0.110249 0.127030 0.004014 -0.999985 -0.003629
0.149906 0.113766 0.067576 -0.234175 0.956477 -0.174111
0.159058 0.118802 0.131601 -0.027651 0.989650 -0.140810
0.307947 0.118802 0.152812 -0.014858 0.997144 -0.074043
0.228105 0.110083 0.117533 -0.008308 0.998061 -0.061689
0.483188 0.113514 0.044096 -0.037160 0.321361 -0.946227
0.301605 0.118802 0.167660 -0.031461 0.999237 -0.023146
0.346520 0.110083 0.167356 0.124720 0.989576 0.072004
0.771495 0.096603 0.186475 0.102937 -0.734173 0.671114
0.308600 0.110248 0.076532 0.009876 -0.997727 -0.066659
0.412243 0.110248 0.091987 0.033189 -0.999283 -0.018195
0.507979 0.110248 0.088787 0.057382 -0.998347 0.003133
0.517149 0.110083 0.157838 -0.057781 0.996400 0.062039
0.424396 0.110248 0.075810 0.039698 -0.999085 -0.015914
0.358308 0.118802 0.048118 -0.014054 0.971798 -0.235396
0.783716 0.110083 0.099571 0.059132 0.990673 -0.122761
0.660865 0.110083 0.055740 0.079912 0.952250 -0.294677
0.129170 0.054148 0.099065 -0.105846 -0.643555 -0.758046
0.382380 0.113943 0.037825 0.029777 0.961670 -0.272588
0.229606 0.117430 0.046070 0.042501 0.988580 -0.144581
0.663285 0.097545 0.064284 0.183069 -0.657036 -0.731293
0.475205 0.118802 0.130864 -0.011162 0.992241 -0.123829
0.386226 0.110083 0.056274 -0.014212 0.979125 -0.202760
0.161682 0.118802 0.125544 -0.026983 0.994027 -0.105745
0.190702 0.107278 0.094739 0.007732 -0.889938 -0.456016
0.146490 0.118802 0.114251 -0.026524 0.995453 -0.091487
0.411021 0.027983 0.136207 -0.008317 -0.998280 0.058029
0.138862 0.047633 0.103985 -0.119517 -0.800821 -0.586856
0.469929 0.110083 0.052068 -0.006465 0.986294 -0.164869
0.474325 0.118802 0.090000 0.033944 0.988858 -0.144938
0.575236 0.118802 0.152034 0.065056 0.993879 -0.089284
0.142851 0.089900 0.196516 -0.129473 -0.556211 0.820893
0.658649 0.118802 0.226676 0.029992 0.972993 0.228876
0.648359 0.110249 0.093869 0.008792 -0.999864 -0.013972
0.138165 0.110248 0.154481 0.021373 -0.999526 0.022171
0.846482 0.101090 0.164812 0.075056 -0.393490 0.916260
0.801063 0.097284 0.167466 0.303573 -0.483007 0.821309
0.548716 0.054918 0.179918 0.034394 -0.326840 0.944454
0.544686 0.118802 0.099026 -0.005284 0.993942 -0.109774
0.180830 0.110083 0.142344 -0.031075 0.995681 -0.087487
0.467028 0.118802 0.142176 -0.008399 0.993984 -0.109203
0.219930 0.110083 0.086143 -0.016862 0.985181 -0.170686
0.520011 0.078297 0.080300 0.004814 -0.671487 -0.741001
0.600977 0.110248 0.205336 -0.077772 -0.995636 0.051573
0.899318 0.092635 0.154195 0.084421 -0.579069 0.810896
0.334183 0.115124 0.242279 -0.046300 0.838417 0.543059
0.662045 0.118802 0.070702 0.083532 0.985254 -0.149322
0.622828 0.078154 0.083005 0.066953 -0.659115 -0.749056
0.163550 0.075352 0.086431 -0.169366 -0.109018 -0.979505
0.087422 0.102467 0.094424 -0.250553 0.826800 -0.503612
0.178760 0.088914 0.098706 0.403991 0.150996 -0.902215
0.495907 0.110259 0.042060 -0.060644 -0.994433 -0.086175
0.761187 0.110083 0.148104 0.025974 0.998497 0.048259
0.354248 0.114485 0.047651 -0.096115 0.326199 -0.940402
0.181564 0.105760 0.099830 0.237877 -0.520357 -0.820148
0.279586 0.110248 0.107036 -0.012716 -0.999140 -0.039478
0.595095 0.110248 0.097199 -0.010848 -0.999883 -0.010803
0.458687 0.110248 0.104238 0.042475 -0.999087 0.004526
0.755678 0.111940 0.076616 0.050106 -0.261322 -0.963950
0.363749 0.118802 0.051570 0.035785 0.962913 -0.267429
0.615203 0.110083 0.168871 -0.034676 0.992182 0.119888
0.219404 0.079188 0.082729 -0.051169 -0.631033 -0.774067
0.466017 0.087514 0.190755 -0.902243 -0.082154 0.423329
0.206890 0.107278 0.092929 -0.037297 -0.885826 -0.462516
0.135076 0.096964 0.202764 -0.156544 -0.521301 0.838892
0.555293 0.110248 0.066641 -0.007184 -0.999092 -0.042004
0.487884 0.041369 0.176307 0.010652 -0.558417 0.829492
0.652003 0.110083 0.104801 0.010706 0.999930 -0.005047
0.113916 0.110083 0.112122 -0.165996 0.962963 -0.212481
0.542245 0.060653 0.086058 0.010725 -0.141289 -0.989910
0.524172 0.069624 0.184163 -0.007751 -0.339481 0.940581
0.801473 0.114203 0.079816 0.008963 0.992436 -0.122434
0.796055 0.110237 0.184023 0.019090 -0.897773 0.440044
0.443178 0.065491 0.182608 -0.001393 -0.299240 0.954177
0.548493 0.110083 0.108038 -0.032848 0.999162 -0.024401
0.416313 0.110265 0.042125 0.089378 -0.992318 -0.085541
0.639495 0.078785 0.179829 0.085170 -0.167948 0.982110
0.129112 0.055177 0.168753 -0.127675 -0.636889 0.760310
0.577375 0.110083 0.122995 -0.039274 0.999073 0.017639
0.081503 0.110247 0.170978 -0.066002 -0.997592 0.021320
0.386852 0.110248 0.106928 0.023538 -0.999371 -0.026536
0.137443 0.118802 0.176732 -0.097246 0.993353 0.061583
0.284784 0.086126 0.066828 -0.050251 -0.669734 -0.740899
0.511616 0.033244 0.098294 0.013964 -0.847429 -0.530725
0.239121 0.110083 0.124037 0.004096 0.999990 -0.001584
0.218535 0.110248 0.171443 0.066848 -0.997250 0.032008
0.304778 0.118802 0.189206 -0.013206 0.998848 -0.046131
0.246165 0.110083 0.097528 0.008037 0.998152 -0.060240
0.241813 0.102997 0.045523 -0.171439 -0.399058 -0.900756
0.419794 0.114521 0.036670 0.076268 0.016586 -0.996949
0.563123 0.118802 0.107711 0.000819 0.994441 -0.105288
0.568236 0.037731 0.169806 0.042457 -0.721363 0.691255
0.474623 0.110083 0.092108 -0.028781 0.995268 -0.092810
0.610759 0.078817 0.079734 0.047372 -0.663596 -0.746590
0.947242 0.090302 0.127025 0.568835 -0.821966 -0.028274
0.204642 0.110248 0.179349 0.124900 -0.991364 0.039972
0.928191 0.079628 0.140195 0.299811 -0.614657 0.729596
0.700820 0.118802 0.147685 0.004024 0.999442 -0.033158
0.597287 0.110083 0.107232 -0.029098 0.999576 0.000486
0.270749 0.110083 0.063299 -0.017503 0.973605 -0.227568
0.587250 0.030846 0.107784 0.015881 -0.950974 -0.308863
0.185208 0.072226 0.183019 0.188235 0.071642 0.979508
0.485106 0.110248 0.212886 0.023769 -0.998624 0.046749
0.362124 0.121446 0.212987 -0.151447 -0.430945 0.889579
0.478164 0.110083 0.167593 0.052045 0.979265 0.195785
0.300636 0.058805 0.086438 -0.003413 -0.325243 -0.945624
0.347347 0.136151 0.205040 -0.490585 -0.502245 -0.712093
0.181151 0.110248 0.066360 0.079807 -0.993673 -0.079021
0.382621 0.133246 0.200594 0.193291 -0.464303 -0.864327
0.652117 0.118802 0.046120 0.092588 0.984027 -0.152047
0.487053 0.110248 0.212548 0.024691 -0.998629 0.046156
0.702341 0.110083 0.119860 0.046863 0.997103 -0.059909
0.457091 0.027474 0.127391 -0.006106 -0.999963 -0.006039
0.148975 0.118802 0.162578 -0.050039 0.996981 0.059376
0.433469 0.113077 0.041522 -0.013024 0.999261 -0.036159
0.887505 0.090578 0.108160 0.102608 -0.554002 -0.826168
0.500937 0.033720 0.097421 0.013273 -0.803642 -0.594965
0.303964 0.118802 0.133506 -0.003644 0.996445 -0.084163
0.178463 0.087663 0.086493 0.818838 0.335380 -0.465860
0.666122 0.107550 0.055439 0.202612 0.644081 -0.737637
0.132304 0.110248 0.121312 0.012768 -0.999909 0.004250
0.667684 0.118802 0.069050 0.021150 0.989554 -0.142600
0.949728 0.112424 0.169487 -0.143903 -0.350569 0.925415
0.378233 0.110083 0.173738 -0.045379 0.957323 0.285436
0.601059 0.110083 0.074798 -0.010710 0.998455 -0.054530
0.671220 0.031909 0.154817 0.032490 -0.907166 0.419517
0.829588 0.118803 0.171455 0.046578 0.961885 0.269458
0.687852 0.110083 0.097691 0.063116 0.984802 -0.161807
0.389564 0.110083 0.152136 -0.149543 0.987944 0.040048
0.601839 0.118802 0.065622 0.007750 0.989878 -0.141711
0.211079 0.118802 0.140271 -0.028437 0.997515 -0.064460
0.051318 0.118802 0.161102 -0.132228 0.988578 0.072309
0.695936 0.112265 0.058064 0.086625 -0.983365 -0.159657
0.353669 0.110083 0.190640 0.016306 0.998448 0.053259
0.314301 0.110083 0.159849 0.013237 0.999716 0.019838
0.354922 0.110248 0.146308 0.000472 -0.999973 -0.007344
0.594377 0.039349 0.169861 0.036630 -0.676482 0.735548
0.787358 0.118803 0.149096 0.127250 0.991773 0.013932
0.491667 0.118802 0.233781 0.130976 0.968414 0.212179
0.508045 0.118802 0.211995 0.067372 0.989605 0.127053
0.145704 0.110248 0.153609 0.016945 -0.999616 0.021941
0.228238 0.110248 0.192166 0.011675 -0.998465 0.054140
0.831353 0.085994 0.105087 0.099153 -0.439994 -0.892510
0.966015 0.110236 0.125303 0.272494 -0.961836 0.024881
0.416515 0.110083 0.158751 -0.108232 0.992070 0.063892
0.665386 0.110083 0.089110 0.046206 0.988330 -0.145151
0.057585 0.110083 0.157957 -0.252949 0.966243 0.048892
0.685901 0.110248 0.136051 -0.018614 -0.999720 0.014642
0.587978 0.110248 0.176211 -0.056927 -0.995962 0.069424
0.234979 0.116426 0.037143 0.008643 0.469084 -0.883111
0.804279 0.067473 0.108948 0.149188 -0.268413 -0.951681
0.687565 0.110248 0.090882 -0.009206 -0.999946 -0.004880
0.668960 0.115021 0.035042 0.759235 -0.116300 -0.640341
0.321184 0.104120 0.045514 -0.123575 -0.280725 -0.951800
0.377527 0.110248 0.176748 -0.003606 -0.999753 0.021935
0.128445 0.118802 0.106425 -0.028339 0.994595 -0.099889
0.384555 0.088252 0.065795 -0.003589 -0.708055 -0.706149
0.382295 0.118802 0.083366 -0.088298 0.979529 -0.180907
0.121176 0.110248 0.201113 -0.016220 -0.998814 0.045909
0.353117 0.110083 0.083153 -0.031674 0.984087 -0.174842
0.480101 0.035373 0.170481 0.003465 -0.789949 0.613163
0.860790 0.102194 0.164676 0.073630 -0.327452 0.941995
0.725141 0.090807 0.172919 0.141980 -0.186737 0.972096
0.768579 0.110248 0.094883 0.015452 -0.997895 -0.062981
0.805089 0.117120 0.086490 0.048839 0.831488 -0.553392
0.136413 0.110248 0.144917 0.018926 -0.999676 0.017001
0.470570 0.118802 0.139272 -0.011722 0.993359 -0.114456
0.853885 0.110249 0.134626 0.039033 -0.999231 0.003727
0.639515 0.118802 0.032842 0.007120 0.985738 -0.168137
0.729891 0.113294 0.069870 0.291177 -0.745391 -0.599673
0.381193 0.110248 0.215695 -0.028793 -0.997854 0.058816
0.183843 0.084020 0.086210 0.115975 0.939740 -0.321619
0.565085 0.118802 0.037395 -0.012508 0.993818 -0.110312
0.524152 0.110248 0.160205 0.170598 -0.982448 0.075451
0.222348 0.083596 0.171305 -0.030301 0.804985 0.592521
0.139679 0.078748 0.088930 -0.198336 0.027002 -0.979762
0.343632 0.027972 0.130407 0.004345 -0.999453 0.032773
0.145826 0.100404 0.090293 -0.142181 0.771558 -0.620066
0.519918 0.049090 0.179471 0.025012 -0.339255 0.940362
0.031164 0.086678 0.128913 -0.997418 0.018372 -0.069424
0.792728 0.118802 0.179911 0.082057 0.384369 0.919526
0.444096 0.030269 0.158535 -0.010314 -0.969823 0.243592
0.196775 0.110248 0.092668 0.088055 -0.994787 -0.051424
0.392716 0.118802 0.077766 0.001605 0.986383 -0.164459
0.138912 0.039300 0.126747 -0.201429 -0.950874 -0.235085
0.595338 0.110248 0.064536 0.007340 -0.999006 -0.043972
0.431658 0.107278 0.172033 -0.022096 -0.842994 0.537468
0.812244 0.070525 0.109172 0.143016 -0.299521 -0.943310
0.058336 0.064096 0.101139 -0.228974 -0.518427 -0.823896
0.290638 0.093972 0.056687 -0.079523 -0.633137 -0.769944
0.693814 0.084055 0.088632 0.176306 -0.527960 -0.830768
0.267766 0.110083 0.058229 -0.019742 0.967316 -0.252805
0.147675 0.083229 0.196809 -0.187222 -0.628830 0.754666
0.908219 0.118742 0.093245 -0.012322 0.975704 -0.218745
0.729431 0.065182 0.166437 0.188206 -0.240740 0.952168
0.784571 0.110248 0.101242 0.013837 -0.998184 -0.058634
0.476085 0.118802 0.188460 0.025566 0.998811 -0.041501
0.683028 0.115722 0.234056 -0.372399 0.762125 -0.529608
0.329947 0.110083 0.152582 0.118251 0.991718 0.050129
0.152338 0.086332 0.208038 -0.099665 -0.634640 0.766355
0.796230 0.110249 0.124165 0.005752 -0.999836 -0.017173
0.794839 0.110083 0.159205 0.024441 0.996553 0.079276
0.178673 0.110248 0.172162 -0.025651 -0.999653 0.006031
0.113534 0.110083 0.127851 -0.153733 0.979800 -0.127903
0.574555 0.110083 0.162148 -0.061213 0.994489 0.085109
0.533883 0.118802 0.216372 0.109083 0.980431 0.163879
0.181289 0.110248 0.169521 0.040125 -0.999116 0.012509
0.273548 0.081469 0.198047 0.011715 -0.834223 0.551303
0.348474 0.118802 0.223733 -0.046900 0.998275 0.035306
0.443284 0.118802 0.048849 -0.073951 0.985245 -0.154347
0.358449 0.110083 0.119385 0.002054 0.999943 0.010484
0.562145 0.047679 0.176690 0.049536 -0.430977 0.901002
0.542190 0.118802 0.184812 0.005068 0.999952 0.008362
0.284831 0.118802 0.183765 -0.013800 0.997356 -0.071349
0.685680 0.110083 0.166711 0.025666 0.993746 0.108675
0.352321 0.118802 0.188779 -0.009597 0.999106 -0.041170
0.071226 0.110083 0.173162 -0.212918 0.970288 0.114926
0.149515 0.110083 0.201757 0.106326 0.955017 0.276835
0.558100 0.110083 0.131501 -0.045374 0.998720 0.022353
0.159954 0.110083 0.147340 -0.041420 0.997447 -0.058168
0.487145 0.087636 0.204144 -0.038390 -0.270047 0.962081
0.039874 0.060787 0.108595 -0.545741 -0.718242 -0.431619
0.495277 0.118802 0.175486 0.029044 0.998136 -0.053675
0.580250 0.108324 0.045514 0.022424 0.917054 -0.398133
0.314582 0.118802 0.144042 -0.003789 0.997143 -0.075445
0.377047 0.118802 0.168277 -0.006681 0.995406 -0.095514
0.171738 0.110083 0.152370 -0.021843 0.999136 -0.035347
0.188879 0.079430 0.186643 0.042726 -0.426078 0.903677
0.725399 0.058277 0.165420 0.187079 -0.325393 0.926888
0.733021 0.110249 0.152546 0.013568 -0.999522 0.027774
0.154546 0.110248 0.064821 -0.009241 -0.999840 -0.015293
0.452707 0.029513 0.153940 -0.008427 -0.980228 0.197691
0.085733 0.110248 0.164530 -0.054432 -0.998496 0.006622
0.228805 0.053879 0.177708 -0.050976 -0.479718 0.875941
0.368724 0.031259 0.103986 -0.014541 -0.930417 -0.366214
0.221074 0.082020 0.082059 -0.099555 0.030775 -0.994556
0.261720 0.094753 0.055677 -0.114595 -0.557192 -0.822439
0.303098 0.118802 0.061737 0.010684 0.985423 -0.169787
0.786384 0.118802 0.107317 0.000326 0.993513 -0.113717
0.717479 0.110248 0.096788 0.010283 -0.999938 0.004341
0.468473 0.110083 0.090192 -0.028100 0.994636 -0.099545
0.256899 0.110248 0.087170 -0.013216 -0.998253 -0.057580
0.476499 0.088948 0.064945 0.001508 -0.740855 -0.671663
0.568972 0.110083 0.063630 -0.006550 0.995795 -0.091371
0.199715 0.108298 0.082830 0.033911 -0.269837 -0.962309
0.374941 0.110083 0.118211 -0.023991 0.999494 -0.020907
0.679850 0.084104 0.087383 0.203508 -0.611540 -0.764594
0.329417 0.084376 0.202758 0.000053 -0.577420 0.816447
0.189077 0.110083 0.134185 -0.038586 0.990796 -0.129747
0.062734 0.083341 0.181555 -0.303294 -0.611694 0.730645
0.263190 0.118802 0.078970 0.007129 0.992286 -0.123766
0.818321 0.110083 0.145978 0.036409 0.998914 0.029077
0.475268 0.110248 0.138545 0.039487 -0.999052 0.018307
0.605942 0.036393 0.166315 0.031147 -0.758694 0.650702
0.725693 0.108974 0.087179 0.117708 0.943872 -0.308626
0.903808 0.089744 0.110928 0.094474 -0.591733 -0.800579
0.533240 0.110248 0.189709 0.171942 -0.981253 0.087052
0.836752 0.110083 0.166100 0.039283 0.872021 0.487889
0.084286 0.110247 0.204532 -0.082676 -0.993427 0.079170
0.094347 0.065976 0.168559 -0.139252 -0.733073 0.665742
0.756205 0.118803 0.129783 -0.003941 0.994600 -0.103704
0.449919 0.110083 0.084465 -0.026067 0.992464 -0.119730
0.821949 0.118803 0.165361 0.077297 0.996476 0.032560
0.160701 0.107112 0.089522 -0.094940 0.892252 -0.441444
0.747446 0.110249 0.179342 0.024652 -0.998596 0.046880
0.873858 0.113267 0.176560 -0.020242 0.986695 -0.161316
0.787576 0.110083 0.093547 0.046040 0.819067 -0.571847
0.130089 0.110083 0.108267 -0.136235 0.959823 -0.245315
0.292121 0.110248 0.168661 -0.034232 -0.999129 0.023846
0.954706 0.110250 0.152529 -0.006954 -0.999960 0.005564
0.277537 0.110083 0.175142 0.009454 0.995336 0.096010
0.504696 0.110083 0.189520 -0.013445 0.988551 0.150287
0.189294 0.118802 0.056791 -0.028927 0.986481 -0.161301
0.180814 0.074628 0.085053 -0.051186 -0.428149 -0.902257
0.215262 0.110083 0.184690 0.005823 0.989050 0.147467
0.240208 0.110083 0.177448 0.004223 0.991088 0.133142
0.215173 0.110248 0.131602 0.103767 -0.994548 -0.010339
0.221482 0.083499 0.082033 -0.099884 0.938133 -0.331556
0.153677 0.094198 0.210375 0.018691 -0.536296 0.843823
0.381769 0.115472 0.241169 0.056792 0.799553 0.597904
0.619658 0.110083 0.106372 -0.001506 0.999921 0.012448
0.282283 0.110248 0.094187 -0.006101 -0.998559 -0.053308
0.832262 0.086876 0.158613 0.110935 -0.432635 0.894718
0.613733 0.110248 0.143377 -0.030235 -0.998885 0.036267
0.419971 0.110248 0.092162 0.035129 -0.999274 -0.014765
0.907758 0.118803 0.114488 0.232607 0.972457 -0.014863
0.512458 0.080236 0.185985 0.096686 -0.087741 0.991440
0.375559 0.110248 0.176089 -0.004109 -0.999761 0.021482
0.595612 0.118802 0.150317 0.018026 0.996857 -0.077140
0.637654 0.046535 0.092813 0.073573 -0.372056 -0.925290
0.046113 0.114602 0.098817 -0.131914 -0.731995 -0.668418
0.686034 0.110249 0.198290 -0.026770 -0.998858 0.039579
0.402984 0.106238 0.182941 0.354174 -0.919412 0.171005
0.498789 0.118802 0.059042 0.022568 0.982144 -0.186774
0.133490 0.110083 0.126363 -0.114364 0.981783 -0.151733
0.891632 0.110083 0.129044 0.058398 0.997315 -0.044176
0.208912 0.025399 0.130947 -0.029768 -0.996857 -0.073411
0.960448 0.110083 0.137737 0.113884 0.990449 0.077719
0.348689 0.118802 0.195948 -0.018790 0.999751 -0.012048
0.166044 0.098326 0.210375 0.493925 0.278662 0.823641
0.186000 0.087126 0.170809 0.208971 0.426821 0.879861
0.507849 0.089762 0.063900 0.002105 -0.745045 -0.667011
0.290985 0.110083 0.129732 0.011629 0.999511 -0.029011
0.893584 0.110083 0.115806 0.067675 0.954466 -0.290544
0.242247 0.065916 0.182218 0.002556 -0.257135 0.966372
0.712443 0.054704 0.166233 0.153095 -0.388493 0.908645
0.820606 0.118803 0.126813 0.081019 0.993772 -0.076504
0.760715 0.114794 0.182745 0.537781 0.156221 0.828484
0.262328 0.080384 0.196133 -0.151370 -0.709964 0.687778
0.647380 0.110083 0.106887 0.017661 0.999816 0.007531
0.558596 0.086654 0.068300 0.016060 -0.661660 -0.749632
0.471315 0.110248 0.061758 0.002253 -0.999982 -0.005513
0.843212 0.118803 0.106369 -0.008421 0.987075 -0.160035
0.329154 0.110248 0.195012 -0.030755 -0.998421 0.046998
0.311371 0.089027 0.063079 -0.033952 -0.709656 -0.703730
0.474829 0.110083 0.073983 -0.018483 0.992056 -0.124434
0.624945 0.110248 0.124832 -0.016210 -0.999716 0.017447
0.441812 0.056583 0.086823 -0.000769 -0.175881 -0.984411
0.054116 0.118802 0.142171 -0.138137 0.989011 0.052689
0.881833 0.118803 0.133848 0.173938 0.984750 0.003615
0.068428 0.110248 0.143485 -0.055090 -0.997805 -0.036749
0.523302 0.118802 0.179694 0.024994 0.997908 -0.059618
0.702595 0.118802 0.209211 0.061828 0.978596 0.196282
0.380584 0.118802 0.219856 -0.009600 0.999928 -0.007146
0.614351 0.110248 0.042543 0.033387 -0.992769 -0.115301
0.713667 0.118802 0.088211 0.129922 0.978630 -0.159386
0.732463 0.068598 0.098382 0.137887 -0.244291 -0.959848
0.123178 0.100738 0.092205 -0.172295 0.786113 -0.593583
0.512967 0.105174 0.185984 -0.776199 0.506178 0.375897
0.197469 0.110248 0.157437 0.143044 -0.989576 0.016694
0.041162 0.066321 0.154388 -0.363249 -0.810024 0.460338
0.821705 0.068436 0.152713 0.148848 -0.274317 0.950050
0.578318 0.110083 0.119442 -0.037220 0.999237 0.011864
0.945298 0.110250 0.139202 -0.056465 -0.998229 0.018718
0.478987 0.110248 0.055984 -0.003345 -0.999853 -0.016828
0.245430 0.110248 0.060852 0.006188 -0.996432 -0.084169
0.919844 0.118803 0.122704 0.207772 0.978161 -0.005697
0.958269 0.097963 0.120323 0.597178 -0.770748 -0.222096
0.409778 0.114502 0.036832 0.073221 0.148791 -0.986154
0.371180 0.110083 0.095109 -0.037372 0.988840 -0.144216
0.280980 0.118802 0.223196 -0.150784 0.980333 0.127321
0.365035 0.110083 0.104634 -0.029484 0.995644 -0.088457
0.639343 0.110083 0.201283 0.128907 0.713446 0.688751
0.628520 0.118802 0.211583 -0.068238 0.980290 0.185403
0.939976 0.116125 0.171798 0.098033 -0.932758 0.346917
0.285077 0.110083 0.112304 0.066391 0.997419 0.027343
0.827434 0.055056 0.147904 0.145700 -0.274895 0.950371
0.158997 0.112495 0.232716 0.141563 -0.144892 0.979268
0.505916 0.118802 0.195868 0.002013 0.999459 -0.032842
0.867395 0.038927 0.123566 0.091691 -0.133429 -0.986808
0.251304 0.110248 0.188657 -0.059012 -0.997016 0.049757
0.376745 0.039777 0.173981 -0.015166 -0.690922 0.722771
0.466019 0.098800 0.192915 -0.755953 0.583854 0.296058
0.624972 0.110248 0.150250 -0.031581 -0.998832 0.036580
0.338709 0.118802 0.122915 0.008460 0.994106 -0.108077
0.531743 0.118802 0.217117 0.109702 0.980048 0.165745
0.375316 0.143897 0.201386 0.003399 -0.343050 -0.939311
0.395378 0.053288 0.180422 -0.007210 -0.315805 0.948797
0.066649 0.110248 0.137713 -0.049402 -0.997447 -0.051568
0.085159 0.110083 0.143410 -0.201489 0.979043 -0.029625
0.690653 0.110083 0.178461 0.030028 0.990777 0.132133
0.433235 0.110083 0.093742 -0.032466 0.993111 -0.112591
0.788564 0.110248 0.090761 0.017954 -0.996418 -0.082636
0.335575 0.106726 0.210372 0.020460 -0.063036 0.997802
0.351650 0.132359 0.212981 -0.329460 -0.478572 0.813895
0.605019 0.029517 0.114494 0.008797 -0.976777 -0.214078
0.782212 0.113109 0.183172 -0.046655 0.958531 -0.281144
0.239076 0.116965 0.041860 0.000847 0.990613 -0.136694
0.150980 0.110248 0.079720 -0.009461 -0.999882 -0.012144
0.957172 0.118581 0.092782 -0.416322 0.385901 0.823260
0.432930 0.091617 0.061070 -0.003859 -0.744225 -0.667918
0.515324 0.027371 0.128392 0.006725 -0.999787 -0.019492
0.724308 0.118802 0.142361 0.007057 0.999726 -0.022318
0.320675 0.118802 0.213630 -0.044024 0.998626 0.028424
0.182986 0.110248 0.138216 0.139979 -0.990148 -0.003636
0.455771 0.114151 0.044722 0.169635 0.222423 -0.960079
0.617686 0.110248 0.061414 0.016517 -0.998757 -0.047037
0.876416 0.110249 0.117116 0.005530 -0.999697 -0.023978
0.543920 0.110083 0.159327 -0.061904 0.996028 0.064005
0.530019 0.118802 0.156722 0.032640 0.997017 -0.069943
0.069874 0.110083 0.168231 -0.219325 0.971241 0.092669
0.428146 0.027759 0.130690 -0.008067 -0.999967 -0.000237
0.115398 0.055948 0.167148 -0.137842 -0.667372 0.731857
0.858679 0.110083 0.135131 0.049503 0.998637 -0.016560
0.595412 0.118802 0.125742 0.027382 0.988984 -0.145471
0.467708 0.040947 0.090525 -0.000375 -0.505151 -0.863031
0.867120 0.109061 0.097534 0.047656 0.759750 -0.648467
0.348645 0.118802 0.097258 0.010593 0.990799 -0.134924
0.295640 0.110083 0.064213 -0.024528 0.970977 -0.237913
0.555774 0.110083 0.183070 -0.007547 0.982104 0.188187
0.212107 0.110083 0.168508 -0.008243 0.997995 0.062756
0.806706 0.064901 0.109924 0.147226 -0.270915 -0.951278
0.084021 0.050974 0.131093 -0.307356 -0.941085 0.141035
0.498415 0.110083 0.167103 0.010070 0.987438 0.157685
0.948978 0.114209 0.091062 -0.009816 0.447630 0.894165
0.741446 0.110248 0.090881 0.015644 -0.998295 -0.056233
0.269852 0.110083 0.193358 -0.012358 0.969330 0.245452
0.194743 0.110248 0.077958 0.077222 -0.994771 -0.066840
0.480504 0.110083 0.185981 -0.139285 0.982794 0.121308
0.046475 0.110083 0.177805 -0.227141 0.956526 0.182932
0.571520 0.099983 0.172627 -0.227230 -0.091879 0.969497
0.431525 0.102387 0.171333 -0.240971 -0.180508 0.953598
0.407051 0.110083 0.060381 -0.015190 0.982695 -0.184606
0.483400 0.112970 0.039141 -0.050030 0.996570 0.065918
0.038757 0.097878 0.179623 -0.775580 0.158199 0.611105
0.489510 0.032498 0.165180 0.006380 -0.883807 0.467809
0.281934 0.063998 0.085064 -0.002348 -0.296883 -0.954911
0.409952 0.114726 0.237765 -0.506713 0.464173 0.726488
0.378880 0.110248 0.072558 0.028737 -0.998919 -0.036532
0.617188 0.031826 0.106389 0.013275 -0.934445 -0.355860
0.066557 0.118802 0.169518 -0.109938 0.989041 0.098549
0.938739 0.086810 0.120916 0.380860 -0.781525 -0.494129
0.282568 0.110083 0.140583 0.010638 0.999923 0.006357
0.201165 0.096072 0.170978 0.231108 0.032562 0.972383
0.776434 0.118802 0.100895 0.004520 0.994857 -0.101188
0.855413 0.113317 0.083546 -0.001707 0.993688 0.112169
0.852042 0.115398 0.089555 -0.074323 0.161368 -0.984092
0.740983 0.110249 0.152140 0.032005 -0.998324 0.048222
0.613224 0.100168 0.051547 0.073795 -0.746298 -0.661509
0.327310 0.110248 0.113556 0.003546 -0.999255 -0.038442
0.306049 0.042651 0.173348 -0.036353 -0.655629 0.754208
0.508079 0.110083 0.053577 -0.004855 0.989898 -0.141700
0.611958 0.118802 0.054990 -0.022778 0.989862 -0.140194
0.670858 0.110083 0.133494 0.014048 0.998982 0.042872
0.638450 0.069807 0.178474 0.086394 -0.168369 0.981931
0.823512 0.029507 0.137384 0.036863 -0.892538 0.449463
0.050195 0.110247 0.176599 -0.070065 -0.997533 -0.004397
0.033526 0.094263 0.125767 -0.885460 0.459551 -0.069084
0.290737 0.118802 0.184599 -0.015255 0.998115 -0.059440
0.483814 0.110083 0.081198 -0.021979 0.994022 -0.106947
0.884461 0.056923 0.139981 0.152207 -0.212133 0.965315
0.817023 0.118803 0.110738 -0.005989 0.989939 -0.141365
0.217701 0.088576 0.170927 -0.038124 0.624041 0.780461
0.851121 0.110249 0.169509 0.091303 -0.989425 0.112703
0.599437 0.110248 0.149055 -0.038146 -0.998390 0.041971
0.479917 0.088204 0.066030 0.001706 -0.737655 -0.675176
0.414298 0.034660 0.168347 -0.014667 -0.852833 0.521978
0.823117 0.108397 0.167920 0.053526 0.710428 0.701731
0.032274 0.113099 0.113591 -0.458330 -0.883834 -0.093658
0.447434 0.110248 0.227537 -0.014082 -0.998166 0.058876
0.691784 0.110083 0.163066 0.015787 0.995840 0.089745
0.141687 0.118802 0.201326 -0.020970 0.994449 0.103110
0.599446 0.118802 0.201484 -0.176056 0.972839 0.150291
0.322929 0.118802 0.128120 0.005901 0.996596 -0.082223
0.700304 0.045289 0.163999 0.123249 -0.471474 0.873225
0.304363 0.118802 0.167811 -0.030523 0.999297 -0.021748
0.667581 0.073258 0.176673 0.090375 -0.159722 0.983016
0.126563 0.118802 0.184180 -0.090197 0.993158 0.074172
0.683402 0.110249 0.067420 0.035096 -0.998556 -0.040662
0.549363 0.110083 0.082999 -0.018684 0.997502 -0.068118
0.507072 0.027550 0.122654 0.007884 -0.997315 -0.072805
0.202618 0.118802 0.190053 0.017749 0.995786 0.089970
0.588897 0.118802 0.091112 0.059286 0.995489 -0.074077
0.832656 0.031954 0.139501 0.068838 -0.636903 0.767865
0.588960 0.110248 0.103688 -0.016498 -0.999855 -0.004225
0.534019 0.118802 0.095207 -0.016339 0.994549 -0.102983
0.642417 0.110249 0.087416 0.010383 -0.999735 -0.020557
0.368520 0.086347 0.204334 0.159747 -0.709777 0.686074
0.327396 0.074655 0.083702 -0.015853 -0.633255 -0.773781
0.628756 0.040649 0.169205 0.062556 -0.588775 0.805872
0.389714 0.118802 0.111508 0.011324 0.995253 -0.096664
0.053366 0.110247 0.184803 -0.073584 -0.997256 0.008066
0.646686 0.110249 0.125020 -0.011220 -0.999917 0.006402
0.367423 0.110083 0.200383 0.017391 0.997898 0.062419
0.231871 0.118802 0.165446 -0.014560 0.994495 -0.103771
0.883254 0.110249 0.093845 0.021321 -0.991463 -0.128636
0.590882 0.063455 0.181842 0.034949 -0.322619 0.945884
0.736099 0.118802 0.189167 0.042299 0.987164 0.154005
0.217442 0.049869 0.175253 -0.066156 -0.563154 0.823700
0.295881 0.118802 0.146558 -0.021030 0.997507 -0.067355
0.214146 0.118802 0.130309 -0.053949 0.997192 -0.051930
0.234510 0.110083 0.151665 -0.001691 0.998834 0.048254
0.137574 0.110248 0.101499 0.002841 -0.999977 -0.006176
0.295079 0.045848 0.092853 -0.040712 -0.546639 -0.836378
0.425250 0.050755 0.087958 -0.005433 -0.220718 -0.975323
0.913029 0.110249 0.119296 0.045372 -0.998931 0.008817
0.215658 0.073704 0.083482 -0.086171 -0.475226 -0.875634
0.534420 0.028228 0.118020 0.010765 -0.993013 -0.117515
0.143006 0.044378 0.155136 -0.141432 -0.928974 0.342058
0.635629 0.118802 0.134831 0.020341 0.993745 -0.109802
0.616514 0.110083 0.075625 0.004842 0.999021 -0.043961
0.294084 0.118802 0.092918 0.009243 0.994011 -0.108889
0.178808 0.118802 0.216741 -0.148854 0.985487 0.081601
0.498519 0.110083 0.067917 -0.013516 0.992426 -0.122101
0.262878 0.110083 0.073843 -0.006688 0.987084 -0.160066
0.241813 0.106751 0.071062 -0.073914 0.828220 -0.555507
0.354214 0.118802 0.188078 -0.007749 0.999139 -0.040769
0.225747 0.118802 0.118570 -0.051406 0.997905 -0.039273
0.466020 0.108256 0.204901 -0.676283 0.618490 0.400139
0.627969 0.118802 0.198628 -0.083103 0.984397 0.155100
0.430816 0.110248 0.141199 0.027573 -0.999620 -0.000705
0.221558 0.118802 0.065592 -0.012557 0.989299 -0.145358
0.768286 0.110083 0.143640 0.029884 0.999059 0.031421
0.586363 0.088557 0.065521 0.026095 -0.652685 -0.757180
0.594954 0.080613 0.185984 -0.026613 0.187313 0.981940
0.364455 0.087109 0.066928 -0.009859 -0.704471 -0.709664
0.516499 0.110083 0.093249 -0.026642 0.997333 -0.067943
0.772185 0.072033 0.161218 0.141774 -0.335190 0.931422
0.201673 0.083596 0.173743 0.014665 0.789111 0.614075
0.666898 0.110248 0.196181 -0.040456 -0.998530 0.036074
0.382386 0.101062 0.047566 -0.011049 -0.779922 -0.625779
0.146228 0.117344 0.083228 -0.163365 0.974594 -0.153225
0.203720 0.110248 0.193371 0.121343 -0.991098 0.054783
0.562162 0.110248 0.061551 -0.002072 -0.998886 -0.047134
0.857747 0.088858 0.106337 0.075383 -0.516902 -0.852719
0.918593 0.118803 0.127844 0.192170 0.981362 -0.000466
0.229971 0.118802 0.139710 -0.047732 0.997679 -0.048571
0.195051 0.055104 0.176088 -0.069730 -0.491286 0.868203
0.688660 0.073250 0.174568 0.111664 -0.167218 0.979576
0.376208 0.129644 0.212994 -0.036168 -0.185493 0.981980
0.041157 0.118801 0.187851 -0.172109 0.983724 0.051621
0.307683 0.110083 0.058666 -0.020599 0.970379 -0.240706
0.713044 0.110249 0.203790 0.021915 -0.996397 0.081936
0.549253 0.110248 0.120828 0.051120 -0.998520 0.018533
0.539979 0.118802 0.088735 -0.018006 0.993842 -0.109331
0.167369 0.104895 0.187094 0.123128 0.937969 0.324121
0.272440 0.110248 0.092453 -0.009285 -0.998502 -0.053929
0.458942 0.110083 0.109324 -0.039651 0.996691 -0.070954
0.221034 0.118802 0.110191 -0.051951 0.997940 -0.037630
0.216515 0.069734 0.182227 0.158300 -0.200282 0.966865
0.445767 0.043881 0.177969 -0.016458 -0.459334 0.888111
0.681772 0.110248 0.219966 0.020096 -0.993452 0.112469
0.540394 0.031383 0.103589 0.019539 -0.929372 -0.368628
0.749350 0.040567 0.153307 0.119814 -0.502811 0.856052
0.055927 0.110247 0.132355 -0.051986 -0.997117 -0.055281
0.381692 0.110083 0.173481 -0.046509 0.957446 0.284840
0.866792 0.110249 0.086102 0.036047 -0.933498 -0.356766
0.084747 0.110247 0.205517 -0.082502 -0.993328 0.080580
0.115020 0.110083 0.182406 -0.087268 0.982249 0.166047
0.337138 0.075594 0.184115 0.018864 -0.800197 0.599441
0.546398 0.118802 0.114897 0.001182 0.995068 -0.099190
0.937255 0.110249 0.154546 0.006464 -0.995456 0.095000
0.823084 0.059656 0.113693 0.149236 -0.269160 -0.951463
0.758991 0.110083 0.111980 0.047859 0.995984 -0.075661
0.617118 0.110083 0.118089 -0.010960 0.999441 0.031599
0.448852 0.028626 0.147696 -0.008103 -0.992647 0.120772
0.665179 0.110083 0.166496 0.048309 0.989092 0.139153
0.581868 0.110083 0.142492 -0.049826 0.997273 0.054441
0.109472 0.097266 0.199523 -0.201848 -0.522730 0.828258
0.251711 0.113190 0.216962 -0.409534 -0.877968 0.247898
0.853586 0.097452 0.100482 0.065241 -0.426297 -0.902228
0.351179 0.039962 0.173356 -0.025382 -0.699463 0.714218
0.279734 0.118802 0.091076 0.010031 0.993639 -0.112162
0.546511 0.118802 0.177431 0.007071 0.998261 -0.058524
0.451846 0.109934 0.187697 -0.075044 0.917885 0.389686
0.677961 0.118802 0.162813 0.084966 0.996145 0.021795
0.303858 0.110248 0.072747 0.009458 -0.997541 -0.069449
0.528982 0.110228 0.239268 0.003327 -0.773541 0.633738
0.241813 0.109814 0.059401 -0.013823 0.967552 -0.252295
0.340279 0.028228 0.135591 0.004694 -0.996410 0.084525
0.962291 0.118804 0.154981 0.109172 0.993573 0.029908
0.451582 0.093864 0.171414 -0.491397 -0.035091 0.870228
0.123470 0.108311 0.207668 -0.047508 0.272317 0.961034
0.912708 0.040093 0.133842 0.291131 -0.059553 0.954828
0.972890 0.113112 0.142000 0.191595 0.981040 0.029197
0.175812 0.118802 0.048908 -0.032703 0.984941 -0.169772
0.070237 0.053789 0.130318 -0.329759 -0.937956 0.107230
0.161725 0.118802 0.192170 -0.065832 0.994789 0.077849
0.235504 0.107108 0.186867 0.209410 -0.052418 0.976422
0.326588 0.110083 0.109772 0.007512 0.999888 -0.012976
0.771860 0.110249 0.178945 0.014869 -0.994467 0.103988
0.306212 0.118802 0.070906 0.013258 0.987251 -0.158617
0.721424 0.103735 0.090448 0.234324 -0.167946 -0.957542
0.272131 0.110248 0.093116 -0.009695 -0.998537 -0.053195
0.679487 0.118802 0.075413 0.045831 0.978828 -0.199489
0.303065 0.118802 0.175147 -0.031928 0.999150 -0.026083
0.552144 0.118802 0.110510 -0.003319 0.994849 -0.101314
0.760960 0.033074 0.115157 0.062556 -0.668070 -0.741464
0.840825 0.083295 0.155677 0.120200 -0.426420 0.896503
0.114794 0.110248 0.129268 0.027312 -0.999399 0.021369
0.475016 0.110083 0.114040 -0.041248 0.997701 -0.053767
0.553004 0.035432 0.096696 0.023655 -0.785746 -0.618097
0.938659 0.110249 0.151546 -0.001041 -0.996675 0.081474
0.480275 0.118802 0.171862 -0.008935 0.998765 -0.048882
0.354739 0.110248 0.070737 0.022933 -0.998609 -0.047486
0.817221 0.088922 0.102183 0.081825 -0.417155 -0.905145
0.688672 0.118803 0.175176 0.047036 0.998280 0.035008
0.512141 0.109983 0.210565 0.223438 0.950837 0.214440
0.516303 0.118802 0.076131 0.010763 0.995370 -0.095518
0.546689 0.028319 0.118872 0.009093 -0.993091 -0.116997
0.082439 0.118802 0.102715 -0.018549 0.978770 -0.204122
0.308746 0.091463 0.206791 -0.041355 -0.456705 0.888657
0.905424 0.110249 0.107527 0.024998 -0.999002 -0.037018
0.434761 0.095028 0.171232 -0.319214 0.046607 0.946536
0.453208 0.030857 0.102647 -0.006441 -0.929342 -0.369164
0.489341 0.029964 0.157716 0.003112 -0.966355 0.257194
0.963562 0.105245 0.106710 0.529834 -0.096151 -0.842633
0.889563 0.118803 0.109901 0.050327 0.996840 -0.061457
0.225788 0.106766 0.171460 -0.095512 -0.823085 0.559828
0.082565 0.090691 0.095029 -0.258046 0.516632 -0.816397
0.458853 0.110248 0.081096 0.041996 -0.999118 -0.000291
0.210558 0.118802 0.104638 -0.054861 0.997674 -0.040463
0.652330 0.087078 0.179883 0.121290 -0.280862 0.952053
0.194423 0.110248 0.119731 0.113585 -0.993262 -0.022996
0.218654 0.110248 0.111559 0.084040 -0.995967 -0.031428
0.464507 0.028916 0.150429 -0.006161 -0.987279 0.158878
0.841970 0.110249 0.168955 0.086656 -0.990995 0.102075
0.160189 0.118802 0.077762 -0.068810 0.996168 -0.053979
0.296818 0.027536 0.123838 0.004698 -0.998291 -0.058244
0.820797 0.110083 0.099819 0.048853 0.872557 -0.486063
0.245191 0.118802 0.061245 0.007271 0.990356 -0.138357
0.168516 0.118802 0.211169 -0.168338 0.982925 0.074300
0.551513 0.118802 0.054537 -0.021368 0.994964 -0.097927
0.788393 0.027690 0.130446 0.007475 -0.999123 0.041196
0.374285 0.110083 0.199261 0.066616 0.994322 0.082980
0.503903 0.118802 0.182278 0.029695 0.998571 -0.044420
0.874326 0.110083 0.124127 0.058655 0.996622 -0.057477
0.500143 0.110083 0.096357 -0.029493 0.997013 -0.071376
0.244606 0.110083 0.120687 0.007454 0.999970 -0.002107
0.293945 0.118802 0.145757 -0.023226 0.997967 -0.059344
0.893848 0.110083 0.143687 0.049802 0.998744 0.005580
0.455468 0.110248 0.078502 0.047059 -0.998891 -0.001762
0.354273 0.110248 0.137282 0.004101 -0.999851 -0.016768
0.345455 0.118802 0.125422 0.001445 0.993900 -0.110273
0.163693 0.110248 0.099487 -0.029758 -0.999557 -0.000745
0.461742 0.034487 0.095928 -0.002758 -0.795105 -0.606465
0.536184 0.090229 0.063232 0.007573 -0.694670 -0.719288
0.258372 0.118802 0.202699 -0.091814 0.993577 0.066138
0.757342 0.068887 0.101644 0.122242 -0.264948 -0.956483
0.460333 0.110248 0.051263 -0.017731 -0.999784 -0.010830
0.285951 0.113311 0.039086 -0.114487 -0.041903 -0.992541
0.397017 0.118802 0.208361 -0.008289 0.999229 -0.038372
0.606177 0.118802 0.087335 0.074951 0.988751 -0.129440
0.676602 0.118802 0.152958 -0.000532 0.998601 -0.052883
0.579802 0.110083 0.074588 -0.011974 0.997723 -0.066379
0.600135 0.086990 0.068032 0.037795 -0.665859 -0.745120
0.734284 0.110249 0.135554 0.026717 -0.998972 0.036622
0.365057 0.110083 0.053912 -0.014238 0.975833 -0.218055
0.175764 0.080572 0.186680 -0.042737 -0.092653 0.994781
0.945061 0.110249 0.155098 -0.082265 -0.992831 0.086708
0.132865 0.118802 0.191744 -0.054658 0.994628 0.087906
0.484972 0.039777 0.175464 0.012256 -0.598128 0.801307
0.200054 0.110248 0.073758 0.068654 -0.995097 -0.071194
0.586588 0.110248 0.132322 -0.033172 -0.999139 0.024907
0.177406 0.118802 0.216685 -0.156949 0.984348 0.080166
0.382510 0.118802 0.206641 -0.001229 0.999762 -0.021786
0.641528 0.118802 0.115605 0.073169 0.989287 -0.126325
0.278778 0.051788 0.178195 -0.023112 -0.428964 0.903026
0.262519 0.110248 0.148186 -0.037255 -0.999288 0.005922
0.789053 0.102616 0.176869 0.229652 0.749444 0.620962
0.501221 0.110083 0.051254 -0.003998 0.988770 -0.149389
0.576347 0.110248 0.135736 -0.038480 -0.998858 0.028334
0.351986 0.119990 0.212981 -0.264252 -0.355988 0.896350
0.462063 0.118192 0.234603 -0.162723 0.291872 0.942514
0.034660 0.100041 0.118231 -0.688481 0.716024 -0.115339
0.630928 0.118802 0.121136 0.068666 0.990338 -0.120480
0.774504 0.043877 0.111181 0.113787 -0.319577 -0.940704
0.577654 0.058432 0.180364 0.034568 -0.357373 0.933322
0.270763 0.110083 0.183504 0.008630 0.992325 0.123357
0.161546 0.110083 0.139747 -0.045012 0.993887 -0.100811
0.626197 0.118802 0.130497 0.090602 0.989376 -0.113693
0.398935 0.110083 0.121201 -0.032419 0.999084 -0.027931
0.260224 0.110248 0.100069 -0.017449 -0.998860 -0.044439
0.421792 0.118802 0.136913 -0.007245 0.993017 -0.117752
0.843497 0.118803 0.126254 0.197048 0.980372 -0.006547
0.931071 0.107151 0.159806 0.256916 0.448965 0.855818
0.274366 0.095758 0.054378 -0.105515 -0.581662 -0.806558
0.365416 0.110083 0.102757 -0.031016 0.994540 -0.099637
0.371781 0.118802 0.226580 -0.023276 0.999608 0.015565
0.466674 0.110083 0.049629 -0.005309 0.985295 -0.170777
0.575226 0.110248 0.168551 -0.006764 -0.997865 0.064952
0.558049 0.082046 0.074865 0.018023 -0.659885 -0.751151
0.427811 0.118776 0.046822 0.017319 0.971096 -0.238062
0.648973 0.052946 0.173182 0.088753 -0.372862 0.923632
0.524316 0.118802 0.199645 0.037818 0.995849 0.082787
0.053220 0.118802 0.158562 -0.136765 0.987236 0.081608
0.405121 0.118802 0.188134 -0.002632 0.998655 -0.051788
0.620128 0.118802 0.105422 0.060959 0.993613 -0.094960
0.392893 0.140591 0.215287 0.133116 0.839199 0.527281
0.509871 0.118802 0.231268 0.139685 0.966971 0.213204
0.519403 0.110248 0.198578 0.028230 -0.998443 0.048107
0.039334 0.116839 0.189267 -0.626163 0.776573 0.069668
