0.101566 0.124754 0.780823 0.488223 -0.792192 0.366156
0.101848 0.116475 0.541756 -0.024129 0.999705 0.002765
0.101343 0.133696 0.514205 1.000000 0.000000 0.000000
0.026358 0.103712 0.769221 -0.999971 0.005348 0.005377
0.115748 0.103601 0.562014 0.999929 0.011740 -0.001885
0.101343 0.133791 0.568013 1.000000 0.000000 0.000000
0.101343 0.138201 0.547867 0.749272 -0.650954 0.121864
0.025930 0.081708 0.572356 -0.998351 0.057327 0.002817
0.028116 0.117212 0.464984 0.554030 0.814978 0.169885
0.113826 0.139205 0.510743 0.155403 0.987845 -0.003483
0.101513 0.146226 0.380091 -0.896083 -0.433114 0.097201
0.071182 0.220733 0.489658 0.005603 -0.043028 -0.999058
0.041121 0.137750 0.271391 -0.759002 -0.650388 -0.030175
0.051450 0.139205 0.262274 0.051683 0.967993 0.245597
0.087461 0.078466 0.396315 0.265145 -0.964189 -0.006167
0.105536 0.126645 0.495628 0.066824 -0.997157 0.034826
0.041121 0.137369 0.325367 -0.856593 -0.515747 -0.015888
0.104125 0.057254 0.898923 0.965143 -0.073746 0.251118
0.040663 0.125594 0.325754 -0.983674 -0.179958 0.000283
0.047011 0.144166 0.765334 -0.391923 0.916198 0.083537
0.092108 0.139205 0.608439 0.133911 0.990993 -0.000684
0.071163 0.170504 0.672117 -0.009838 0.587483 -0.809177
0.080687 0.025372 0.703573 0.069999 -0.997547 -0.000277
0.115070 0.089954 0.799974 0.998325 0.014354 0.056040
0.113305 0.139205 0.784050 0.009553 0.926798 0.375440
0.061469 0.188289 0.479375 -0.985150 0.069831 -0.156851
0.087129 0.147820 0.278874 0.998664 0.000000 -0.051680
0.036389 0.138614 0.508972 -0.007894 -0.999968 0.001421
0.116044 0.092974 0.780511 0.999453 0.010778 0.031261
0.074221 0.126915 0.203052 -0.632142 0.256225 -0.731263
0.079993 0.180673 0.376302 0.925087 0.113466 -0.362407
0.049792 0.144006 0.621518 -0.295062 0.949581 -0.105989
0.109184 0.093471 0.223278 0.987110 -0.145163 -0.067397
0.083946 0.117773 0.029494 -0.473219 0.267477 0.839357
0.034558 0.037958 0.615519 -0.820481 -0.571673 -0.000808
0.092837 0.139205 0.454678 -0.118074 0.993004 0.001456
0.101343 0.137287 0.679693 0.863813 -0.487955 0.125405
0.086215 0.151133 0.732401 0.288709 0.957065 0.025941
0.101343 0.130138 0.413372 0.935866 0.352168 0.011505
0.102812 0.138614 0.375584 0.000453 -1.000000 0.000043
0.054426 0.048805 0.166934 -0.978812 0.014990 -0.204209
0.030436 0.126645 0.527269 -0.242766 -0.969834 -0.022064
0.086568 0.138817 0.568254 0.074294 -0.994641 -0.071905
0.067138 0.114496 0.970406 0.207683 0.951586 -0.226609
0.065292 0.116475 0.236100 0.094513 0.995472 -0.010159
0.030078 0.126645 0.306763 -0.318593 -0.947401 -0.030489
0.111919 0.105979 0.859958 0.996024 0.001377 0.089075
0.072427 0.151133 0.368005 0.268939 0.926831 -0.262025
0.075241 0.036851 0.101480 0.987316 -0.051658 -0.150128
0.026449 0.136724 0.666403 0.999876 0.012345 0.009828
0.050761 0.128408 0.260531 -0.681401 0.200615 -0.703880
0.036318 0.034368 0.793043 -0.719621 -0.694324 0.007702
0.041636 0.078466 0.552594 -0.653343 -0.757055 0.003240
0.096265 0.106590 0.197465 0.995894 0.056819 -0.070479
0.073970 0.093338 0.780823 -0.291071 -0.915685 0.277126
0.065516 0.234752 0.585215 0.692749 0.110065 -0.712730
0.061341 0.222723 0.475332 -0.996609 -0.019139 -0.080024
0.086732 0.060798 0.150834 0.952112 -0.205001 -0.226842
0.105065 0.037544 0.400390 0.792799 -0.609294 -0.015216
0.042134 0.139205 0.436596 -0.032095 0.999435 0.009981
0.045616 0.097865 0.923373 -0.948192 -0.002504 0.317688
0.097708 0.134293 0.242096 -0.255799 -0.948261 -0.188063
0.042411 0.062679 0.200852 -0.958087 -0.206948 -0.198095
0.032710 0.068529 0.257338 -0.988251 -0.120976 -0.093410
0.078085 0.233982 0.686225 0.777019 0.043991 0.627938
0.066756 0.116475 0.211391 0.013429 0.996821 -0.078537
0.048090 0.028840 0.745686 -0.382821 -0.923822 -0.001442
0.106759 0.116475 0.640653 0.005915 0.999981 0.001497
0.089914 0.139205 0.289341 -0.085758 0.996310 0.003401
0.039361 0.058998 0.218432 -0.959729 -0.216458 -0.179073
0.061527 0.139205 0.592764 0.010638 0.999943 -0.000095
0.101343 0.131285 0.656063 0.978893 0.203802 0.015262
0.053961 0.109508 0.201467 0.643115 -0.085922 0.760934
0.066403 0.116475 0.465831 0.008087 0.999942 0.007129
0.086073 0.138817 0.591789 0.061453 -0.996141 -0.062662
0.039438 0.148532 0.285798 0.135423 0.990753 0.008283
0.066522 0.078466 0.674409 -0.246867 -0.968093 0.043042
0.115938 0.096629 0.632583 0.999844 0.017529 -0.002223
0.033995 0.126645 0.341709 -0.011779 -0.999900 -0.007800
0.080496 0.025382 0.676475 0.067063 -0.997749 -0.000447
0.040663 0.104918 0.349684 -0.973766 -0.227107 -0.014230
0.088001 0.027630 0.366733 0.336477 -0.941675 -0.005625
0.090296 0.027481 0.627545 0.342305 -0.939586 -0.002332
0.063227 0.228425 0.481542 0.843820 0.330090 -0.423095
0.027127 0.112010 0.506001 -0.998731 0.050363 0.000222
0.088754 0.116475 0.464249 -0.031558 0.999491 0.004751
0.053351 0.139205 0.481103 -0.022359 0.999739 0.004636
0.029028 0.122571 0.360389 -0.996774 0.049359 -0.063292
0.113807 0.127195 0.741318 0.300935 0.953502 0.016498
0.070564 0.151133 0.781265 0.043572 0.994494 0.095307
0.086235 0.116475 0.556801 0.008989 0.999950 0.004322
0.063500 0.139205 0.561931 -0.042620 0.999091 0.000028
0.103340 0.116475 0.770870 0.016756 0.999857 -0.002292
0.031780 0.141509 0.700939 -0.987600 0.060386 -0.144916
0.040663 0.116609 0.718273 -0.973018 -0.052450 0.224688
0.112520 0.048918 0.424728 0.915779 -0.401375 -0.015704
0.095204 0.112571 0.928453 0.941435 0.011180 0.337009
0.058216 0.043526 0.950372 -0.898066 -0.233366 0.372851
0.043096 0.078466 0.701206 -0.703600 -0.709415 0.040948
0.059665 0.139205 0.531905 0.067447 0.997615 -0.014691
0.040663 0.081212 0.291920 -0.589775 -0.805398 -0.059158
0.087206 0.116475 0.474678 -0.024774 0.999681 0.004839
0.098896 0.114496 0.123578 -0.161908 0.981890 0.098379
0.101343 0.135542 0.712010 1.000000 0.000000 0.000000
0.108746 0.038821 0.680410 0.834143 -0.551542 0.002778
0.069479 0.078466 0.777276 -0.243724 -0.966800 0.076784
0.028810 0.135589 0.343342 0.355144 -0.447282 -0.820860
0.027053 0.121276 0.597229 -0.998340 0.056617 0.010564
0.026253 0.137844 0.612508 -0.707119 -0.707063 -0.006658
0.091930 0.029174 0.403312 0.397527 -0.917573 -0.005728
0.101831 0.140942 0.375314 0.641312 -0.766608 0.032100
0.101802 0.120409 0.329045 1.000000 0.000000 0.000000
0.116506 0.078984 0.670451 0.999367 0.035326 0.004170
0.114765 0.086027 0.376008 0.998597 0.049865 -0.017842
0.096159 0.116475 0.664945 0.073215 0.997316 0.000395
0.107780 0.052856 0.262925 0.962554 -0.259679 -0.077827
0.101802 0.102367 0.756309 0.875816 -0.398927 0.271669
0.027061 0.122738 0.608114 -0.994167 0.107770 -0.004213
0.056867 0.151133 0.383805 -0.431293 0.901231 0.042051
0.086565 0.138817 0.692546 0.018547 -0.999506 -0.025356
0.067484 0.229097 0.587860 0.467328 0.042086 -0.883082
0.052306 0.139205 0.622635 0.083272 0.996527 0.000314
0.040663 0.113313 0.678448 -0.964048 -0.102548 0.245143
0.115920 0.109792 0.686517 0.999970 0.007445 -0.002196
0.030029 0.114715 0.302198 -0.999389 0.027474 -0.021605
0.048284 0.031433 0.897898 -0.634967 -0.757730 0.150542
0.052544 0.116475 0.393270 0.003948 0.999950 0.009161
0.043475 0.139205 0.632697 0.170783 0.985308 0.000864
0.090722 0.130131 0.254903 0.369049 0.540259 -0.756256
0.110465 0.041104 0.753587 0.864091 -0.503280 0.007505
0.117139 0.066645 0.519121 0.998352 -0.057373 -0.001320
0.106488 0.127195 0.420437 0.003156 0.999995 -0.000897
0.091679 0.114496 0.911371 -0.154253 0.986374 -0.057203
0.101831 0.139127 0.673576 0.678743 -0.731343 -0.066678
0.082878 0.138817 0.508181 0.014408 -0.998731 0.048259
0.091675 0.145214 0.523350 0.262070 0.922265 0.284159
0.089367 0.145214 0.525248 0.152617 0.960349 0.233320
0.081570 0.074931 0.116065 0.918288 -0.352710 -0.179839
0.044547 0.060041 0.195272 -0.951332 -0.226920 -0.208508
0.025707 0.136343 0.708977 -0.996955 0.059992 -0.049817
0.054304 0.078466 0.504387 -0.409195 -0.912409 -0.008338
0.040663 0.081471 0.254747 -0.575226 -0.815142 -0.068253
0.026313 0.093742 0.752198 -0.999968 0.003199 0.007337
0.034175 0.116475 0.739606 0.263388 0.964687 -0.002524
0.095474 0.031226 0.367041 0.461885 -0.886901 -0.008285
0.101343 0.127790 0.323519 0.878746 0.475724 -0.038626
0.101802 0.094191 0.424490 0.884268 -0.466000 -0.030217
0.040629 0.146068 0.381925 0.867957 -0.466445 0.170528
0.043792 0.054223 0.915496 -0.952224 -0.088822 0.292198
0.035525 0.127195 0.319263 -0.014063 0.999901 -0.000081
0.116576 0.126895 0.677127 0.963941 0.265895 -0.010838
0.029472 0.048611 0.445668 -0.912912 -0.407978 -0.012026
0.109760 0.116475 0.403436 -0.091983 0.995756 0.002948
0.116909 0.135843 0.743047 0.997093 0.076170 -0.001916
0.060933 0.127195 0.240257 0.080582 0.990071 0.115175
0.047742 0.114496 0.091936 0.195610 0.980229 0.029811
0.070699 0.279272 0.859491 -0.513454 -0.086657 -0.853731
0.043574 0.030684 0.744967 -0.410726 -0.911759 0.000292
0.073532 0.038348 0.056320 0.999469 0.004153 0.032309
0.031900 0.127195 0.325663 -0.023223 0.999730 0.000008
0.096691 0.050414 0.920269 0.944112 -0.134624 0.300881
0.080781 0.025560 0.455408 0.091903 -0.995766 -0.002040
0.074671 0.151133 0.630974 0.393587 0.905390 0.159240
0.037504 0.138614 0.324165 -0.000602 -0.999986 -0.005299
0.053805 0.116475 0.590462 0.098007 0.995182 -0.002618
0.095281 0.038915 0.151928 0.741334 0.661675 -0.112296
0.025959 0.075094 0.752882 -0.998682 0.047009 0.020581
0.041121 0.129703 0.361792 -0.975990 0.216698 -0.022033
0.025697 0.061044 0.450689 -0.994268 -0.106619 -0.007983
0.047792 0.124413 0.817137 0.962225 -0.018065 -0.271655
0.038235 0.138944 0.713676 -0.575963 -0.815939 -0.050106
0.044337 0.139205 0.404501 0.247508 0.968883 0.002408
0.038838 0.032761 0.716601 -0.530044 -0.847965 0.002902
0.029755 0.045151 0.793525 -0.911900 -0.410164 0.014259
0.114211 0.085995 0.816383 0.998203 0.026180 0.053901
0.101802 0.113434 0.469446 0.992417 -0.097536 0.074795
0.097519 0.033264 0.296849 0.602487 -0.798040 -0.011896
0.101802 0.093468 0.362655 0.915668 -0.400283 -0.036412
0.031010 0.116475 0.523193 0.188362 0.982046 0.010299
0.101802 0.104101 0.571821 0.929898 -0.354092 0.099546
0.068507 0.025512 0.227330 -0.008870 -0.999959 0.002036
0.032355 0.108761 0.180962 -0.999420 -0.019600 -0.027859
0.090481 0.114496 0.894622 -0.107132 0.993304 -0.043248
0.061807 0.222515 0.573136 -0.967274 -0.058256 -0.246955
0.040728 0.127195 0.421301 -0.001377 0.999999 -0.000011
0.111486 0.085647 0.271016 0.998754 -0.011918 -0.048462
0.041347 0.032221 0.590714 -0.450300 -0.892873 -0.002578
0.088338 0.150722 0.497466 0.530848 -0.776083 0.340434
0.049168 0.116475 0.536397 0.094024 0.995543 -0.007338
0.083357 0.044812 0.121285 0.674614 0.717692 -0.172668
0.115073 0.072263 0.340460 0.997567 -0.058907 -0.037276
0.079428 0.139205 0.274970 -0.070360 0.997452 0.011813
0.051419 0.114496 0.092071 0.172577 0.984560 0.029310
0.040633 0.141440 0.591877 -0.956903 -0.034787 -0.288318
0.115693 0.055141 0.769781 0.989858 -0.140492 0.021042
0.046238 0.105155 0.839312 0.111849 0.992275 0.053660
0.040864 0.142195 0.694849 -0.658465 0.717807 -0.226222
0.050291 0.120410 0.236824 -0.634498 0.396476 -0.663490
0.101802 0.113247 0.536963 0.985227 -0.102556 0.137148
0.115214 0.126645 0.438499 0.954757 -0.297280 -0.007977
0.087687 0.074036 0.226833 0.341476 -0.938643 0.048402
0.028215 0.050379 0.474647 -0.931401 -0.363902 -0.008148
0.034757 0.127195 0.551157 -0.457572 0.889105 -0.010970
0.040663 0.116839 0.442556 -0.999649 -0.011313 0.023974
0.026859 0.054299 0.677753 -0.981960 -0.188689 0.012290
0.029454 0.127372 0.294444 -0.451889 0.890486 0.053210
0.047519 0.029166 0.713845 -0.387946 -0.921681 -0.001442
0.025917 0.127243 0.670833 -0.995361 -0.095970 -0.006769
0.070328 0.116475 0.777232 0.140407 0.990094 -0.000442
0.082814 0.078466 0.512925 0.243950 -0.969334 0.029661
0.113294 0.126645 0.477305 0.203578 -0.978733 0.025241
0.084353 0.114496 0.116597 -0.102149 0.990741 0.089432
0.053963 0.145214 0.444492 -0.032428 0.981776 -0.187253
0.077873 0.114496 0.089906 -0.102548 0.991547 0.079492
0.040663 0.109825 0.545944 -0.980739 -0.141820 0.134307
0.092036 0.078466 0.427134 0.309775 -0.950794 -0.005564
0.034013 0.107625 0.152119 0.942923 0.331885 0.027345
0.101802 0.099842 0.499576 0.882360 -0.470353 -0.014430
0.111405 0.078936 0.271304 0.997741 -0.024715 -0.062464
0.101520 0.144166 0.781753 0.383279 0.912825 0.140882
0.071938 0.139156 0.785972 0.016411 -0.275970 0.961026
0.089405 0.027558 0.463528 0.341839 -0.939750 -0.003949
0.026334 0.087656 0.709964 -0.999734 0.022946 0.002098
0.046315 0.029536 0.755434 -0.393338 -0.919394 -0.000692
0.033657 0.040679 0.458550 -0.840840 -0.541192 -0.009966
0.090959 0.139205 0.641976 -0.018028 0.999837 0.000179
0.030833 0.078188 0.276320 -0.997864 -0.020770 -0.061928
0.104455 0.117851 0.077283 -0.980568 0.140755 0.136657
0.050731 0.078466 0.406380 -0.420780 -0.906512 -0.034355
0.085827 0.139205 0.715217 0.067213 0.997739 -0.000454
0.093996 0.078466 0.243188 0.368084 -0.928558 -0.047903
0.101802 0.105021 0.417972 0.945191 -0.322868 -0.048678
0.052871 0.078466 0.597172 -0.494091 -0.869242 0.017102
0.059514 0.139205 0.512005 -0.027434 0.999624 0.000065
0.078163 0.116475 0.271907 0.074381 0.997089 0.016753
0.116030 0.096467 0.683108 0.999889 0.014784 -0.001707
0.107497 0.105616 0.139611 0.907665 -0.415165 -0.061496
0.071842 0.026021 0.089524 0.296319 -0.954908 -0.018605
0.093158 0.145214 0.420116 0.281893 0.937435 0.204333
0.081262 0.138817 0.378835 0.023522 -0.999705 0.005963
0.092428 0.030202 0.283958 0.424552 -0.905374 -0.007358
0.061370 0.224503 0.478289 -0.994357 0.007050 0.105849
0.111398 0.127195 0.466644 0.319218 0.947499 0.018580
0.109350 0.138614 0.636437 0.184726 -0.977844 0.098471
0.042346 0.034698 0.333371 -0.647517 -0.761894 -0.015473
0.038933 0.126645 0.752874 -0.492477 -0.869987 0.024285
0.026005 0.142963 0.552686 -0.975687 0.219021 0.008037
0.091735 0.139205 0.298747 -0.138389 0.990036 -0.026017
0.071753 0.116475 0.587710 0.114266 0.993445 -0.003287
0.067016 0.144856 0.274462 -0.110160 0.723305 -0.681685
0.029616 0.057780 0.333859 -0.974040 -0.221819 -0.045193
0.104048 0.138614 0.780123 0.276011 -0.938395 0.207924
0.101802 0.100791 0.402899 0.926509 -0.372389 -0.053914
0.082642 0.112718 0.209750 -0.060145 0.009690 -0.998143
0.115250 0.138614 0.544738 0.093857 -0.995521 -0.011334
0.048203 0.114496 0.077104 0.199377 0.979225 0.036966
0.045798 0.144006 0.696430 -0.334095 0.941402 -0.046284
0.032032 0.116475 0.472558 0.372501 0.928025 0.003389
0.086130 0.116475 0.214333 -0.031091 0.999516 0.000560
0.087221 0.078466 0.544302 0.288263 -0.957066 0.030476
0.101343 0.131610 0.727315 0.989840 0.141825 0.010103
0.096755 0.138817 0.495948 0.135176 -0.990507 -0.024945
0.057258 0.150125 0.518871 -0.438394 -0.190265 0.878413
0.114611 0.057930 0.387049 0.982390 -0.184807 -0.027511
0.029387 0.124044 0.341140 -0.997300 0.018504 0.071065
0.060212 0.083059 0.098136 -0.867272 -0.477915 -0.139412
0.069852 0.139205 0.705928 -0.098417 0.995145 -0.000226
0.091992 0.145214 0.367587 0.349989 0.936484 0.022473
0.090961 0.027314 0.792655 0.342173 -0.939636 -0.001106
0.030044 0.116475 0.717540 0.194940 0.980815 0.000300
0.101802 0.100780 0.707396 0.869882 -0.446523 0.209579
0.069943 0.224434 0.690298 0.153167 -0.048102 -0.987029
0.035997 0.116475 0.474712 0.169061 0.985570 0.008408
0.026464 0.116934 0.762234 -0.999948 0.008811 0.005104
0.100363 0.127529 0.132155 0.085294 0.173082 0.981207
0.110228 0.127195 0.653377 0.420952 0.906836 0.021152
0.046259 0.144006 0.693596 -0.336069 0.940649 -0.047302
0.097849 0.112686 0.046627 0.843714 -0.394853 -0.363646
0.040663 0.110275 0.369666 -0.993802 -0.109730 0.017826
0.108490 0.138614 0.770298 0.304770 -0.942568 0.136675
0.092908 0.105155 0.198801 -0.035454 0.999370 0.001851
0.104332 0.139205 0.574657 0.152427 0.988314 -0.000906
0.031016 0.053244 0.852816 -0.985498 -0.141975 0.092931
0.089648 0.030311 0.161746 -0.004167 -0.999988 0.002605
0.086373 0.116475 0.661598 0.134641 0.990894 0.001296
0.032124 0.110187 0.201909 -0.998890 -0.000040 -0.047097
0.051549 0.028095 0.481859 -0.355912 -0.934513 -0.003510
0.040663 0.118679 0.281882 -0.999984 -0.000935 -0.005597
0.104529 0.107842 0.092966 0.924476 -0.365512 -0.108378
0.101343 0.129542 0.495248 0.863211 0.503968 0.029727
0.057878 0.151133 0.705946 -0.335742 0.940185 0.057709
0.085548 0.118836 0.049307 0.588314 0.102392 -0.802124
0.029631 0.104948 0.311461 -0.999572 0.017924 -0.023122
0.080228 0.230777 0.677387 -0.965051 0.252953 -0.068499
0.092257 0.139205 0.492009 0.075440 0.996855 0.024257
0.115779 0.054793 0.589682 0.979754 -0.200161 0.004218
0.092135 0.116475 0.370806 -0.074006 0.997245 0.005088
0.077370 0.163246 0.698227 0.624347 0.492688 0.606176
0.101802 0.125073 0.358549 0.978793 -0.199242 0.047614
0.101802 0.105211 0.687528 0.919761 -0.320954 0.225893
0.062929 0.151133 0.575151 -0.682142 0.306440 -0.663910
0.101802 0.090644 0.282643 0.940623 -0.337298 -0.038177
0.046761 0.138817 0.401279 -0.092886 -0.986897 0.131932
0.048560 0.064641 0.931634 -0.939252 -0.033667 0.341574
0.069793 0.139205 0.512155 0.051825 0.998528 0.016006
0.079378 0.192070 0.373073 0.877350 0.125053 -0.463270
0.114468 0.127195 0.563597 0.323147 0.945929 0.028196
0.104157 0.127195 0.269579 0.372514 0.924277 0.083336
0.047741 0.029137 0.692762 -0.387618 -0.921819 -0.001672
0.101802 0.084944 0.657218 0.620406 -0.783599 0.032697
0.039083 0.148657 0.622497 0.092635 0.995582 -0.015370
0.040663 0.079129 0.547602 -0.676683 -0.736269 0.002739
0.027091 0.122930 0.717915 0.956394 0.292066 0.002875
0.084451 0.078466 0.746227 0.141154 -0.987901 0.064249
0.038131 0.095849 0.157434 -0.876403 -0.472907 -0.090977
0.101456 0.138817 0.399618 0.133734 -0.991002 0.005421
0.059936 0.116475 0.393125 -0.009012 0.999924 0.008375
0.074724 0.116475 0.235346 -0.066886 0.997760 -0.001232
0.117164 0.068490 0.547031 0.999377 -0.035290 0.000588
0.063075 0.163388 0.478334 -0.883933 0.152438 -0.442069
0.101802 0.124999 0.690965 0.853169 -0.500650 0.146466
0.090702 0.145214 0.501815 0.322734 0.925329 0.199020
0.027194 0.052681 0.631634 -0.966232 -0.257597 0.006300
0.114025 0.098015 0.357025 0.999557 0.017974 -0.023733
0.042244 0.037611 0.224104 -0.845734 -0.532992 -0.025575
0.037734 0.139205 0.729001 -0.154032 0.988066 -0.000529
0.035114 0.116379 0.885227 0.924940 0.286544 -0.249758
0.094783 0.145214 0.387330 0.349697 0.932183 0.093523
0.027761 0.139205 0.689628 0.060453 0.998171 0.000355
0.075725 0.196708 0.392257 0.543882 0.166046 0.822569
0.109174 0.126645 0.783040 0.160464 -0.975969 0.147432
0.072710 0.025439 0.376173 0.017696 -0.999843 -0.001192
0.025905 0.139065 0.673956 -0.211971 0.977276 0.000543
0.104897 0.138614 0.326957 0.000403 -1.000000 0.000115
0.062760 0.116475 0.403519 -0.009882 0.999919 0.007994
0.111070 0.081282 0.262379 0.997780 -0.027323 -0.060727
0.047072 0.028775 0.869180 -0.408414 -0.912727 0.011306
0.080995 0.139205 0.487089 -0.038928 0.999242 -0.000157
0.064803 0.087925 0.066904 -0.827436 -0.414771 -0.378569
0.070872 0.139205 0.597955 0.054550 0.998511 0.000110
0.080080 0.151133 0.770346 0.149340 0.986241 0.070894
0.089463 0.105155 0.868617 -0.089691 0.995897 -0.011991
0.073119 0.209856 0.464731 0.373845 -0.130653 -0.918243
0.116372 0.141791 0.640999 -0.850835 0.525410 0.004908
0.052038 0.067366 0.158168 -0.942981 -0.235487 -0.235230
0.102052 0.100730 0.103522 0.809026 -0.578989 -0.101230
0.053845 0.026668 0.654879 -0.318600 -0.947887 -0.002060
0.041454 0.144289 0.329085 0.997746 0.029608 0.060213
0.032759 0.138614 0.399665 -0.001075 -0.999934 -0.011394
0.101802 0.092256 0.764026 0.723087 -0.665442 0.185291
0.026329 0.056194 0.561949 -0.986680 -0.162658 0.002346
0.074151 0.078466 0.747475 -0.106704 -0.992020 0.067162
0.105408 0.127195 0.330848 0.032373 0.999475 0.000923
0.031311 0.090102 0.258295 -0.998309 -0.035847 -0.045755
0.029784 0.141319 0.271851 0.766321 0.642088 0.021809
0.055642 0.030653 0.174812 0.064031 -0.997946 0.002172
0.115915 0.086861 0.494933 0.999130 0.041362 -0.005377
0.075911 0.035367 0.106446 0.965387 -0.105869 -0.238368
0.112796 0.098634 0.304865 0.999586 0.010622 -0.026757
0.061053 0.080892 0.205383 -0.604988 -0.149604 -0.782054
0.069760 0.124661 0.880871 -0.823029 0.050918 0.565713
0.080794 0.078466 0.521955 0.227319 -0.973188 0.035102
0.106552 0.116475 0.383396 -0.094211 0.995546 0.003442
0.040663 0.108638 0.534976 -0.980009 -0.159778 0.118545
0.039181 0.105155 0.177410 0.084557 0.996409 0.004460
0.101802 0.112091 0.435475 0.990769 -0.131781 0.031799
0.098396 0.079403 0.918656 0.954854 -0.001951 0.297069
0.047126 0.132689 0.780579 -0.034054 0.055117 0.997899
0.053021 0.144006 0.559359 -0.340869 0.918221 -0.201689
0.055335 0.152000 0.277171 -0.527652 0.806829 -0.265726
0.101802 0.080980 0.698973 0.549327 -0.834185 0.048727
0.043919 0.139205 0.508763 -0.020992 0.999780 0.000212
0.082086 0.138817 0.322692 0.158474 -0.981367 -0.108654
0.069952 0.025318 0.558296 -0.006919 -0.999976 -0.000680
0.027553 0.123023 0.613510 0.998906 0.044151 0.015418
0.062898 0.120356 0.218247 -0.999287 0.033995 -0.016423
0.114104 0.114990 0.380884 0.998713 0.049603 -0.010537
0.033242 0.126645 0.453321 -0.383243 -0.923555 -0.013091
0.116414 0.136795 0.750880 -0.999538 0.028360 0.010967
0.050068 0.078466 0.576205 -0.533252 -0.845888 0.010755
0.089293 0.026802 0.728571 0.325242 -0.945630 -0.001508
0.101802 0.115316 0.549688 0.985402 -0.050759 0.162500
0.046577 0.144166 0.735325 -0.221440 0.973610 0.055206
0.099342 0.116475 0.364216 -0.089137 0.996010 0.004361
0.026893 0.111830 0.545893 -0.998830 0.048293 -0.002616
0.095354 0.038280 0.148983 0.778796 0.616866 -0.113809
0.099988 0.130706 0.265616 0.804161 0.315232 -0.503938
0.078368 0.116475 0.544094 0.017739 0.999829 0.005257
0.061796 0.222226 0.673932 -0.968110 -0.055555 -0.244287
0.116202 0.084645 0.571821 0.998727 0.050395 0.002063
0.083024 0.139205 0.609570 0.057311 0.998356 0.000088
0.031084 0.116475 0.431720 0.230796 0.973000 -0.002311
0.116582 0.067617 0.731699 0.999770 -0.016059 0.014198
0.066462 0.025332 0.517237 -0.025797 -0.999667 -0.000993
0.074976 0.226713 0.666032 -0.518279 0.304694 0.799092
0.038156 0.126645 0.291808 -0.001649 -0.999999 0.000029
0.025389 0.065220 0.504283 -0.997578 -0.069511 -0.002504
0.101802 0.101733 0.483501 0.908487 -0.417704 -0.013188
0.067382 0.152451 0.284643 0.202104 0.979326 -0.008623
0.036879 0.105155 0.166203 0.100992 0.994850 0.008592
0.111960 0.105155 0.277150 0.999522 0.015431 -0.026777
0.087456 0.078466 0.638418 0.291635 -0.955303 0.048425
0.026529 0.109321 0.693389 -0.999937 0.009743 -0.005512
0.078556 0.078466 0.362359 0.179893 -0.983686 -0.000943
0.102222 0.117218 0.905365 -0.639938 0.761248 -0.104786
0.110628 0.044126 0.449266 0.873411 -0.486856 -0.011167
0.043574 0.054958 0.914998 -0.952719 -0.084118 0.291978
0.109426 0.042153 0.447596 0.854528 -0.519283 -0.011274
0.082059 0.151133 0.361508 0.332188 0.924801 -0.185458
0.092610 0.144006 0.589341 0.334841 0.938437 -0.084953
0.026519 0.091911 0.565738 -0.999741 0.022708 -0.001730
0.101343 0.128073 0.496646 0.775065 0.631758 0.012485
0.088500 0.147619 0.754572 0.994561 0.019328 0.102347
0.101802 0.094736 0.310047 0.943959 -0.326732 -0.046778
0.115270 0.118261 0.639225 -0.998103 0.027705 -0.054986
0.053980 0.028226 0.306275 -0.357395 -0.933920 -0.007908
0.116584 0.077644 0.633213 0.999280 0.037879 0.001967
0.109274 0.139205 0.279757 -0.193153 0.981166 0.002314
0.065596 0.211073 0.588847 0.634531 0.250767 -0.731086
0.053761 0.150722 0.585789 -0.855936 -0.463866 -0.228479
0.043814 0.144166 0.716322 -0.213001 0.976758 0.023965
0.063271 0.209164 0.576789 0.815702 0.567141 0.113932
0.056938 0.078466 0.313676 -0.026846 -0.999440 0.019960
0.097106 0.127195 0.784877 0.015222 0.963262 0.268131
0.075093 0.211063 0.390626 0.489250 0.233029 0.840435
0.025788 0.068658 0.702650 -0.999924 -0.003924 0.011695
0.086985 0.026138 0.699889 0.264397 -0.964413 -0.001295
0.079880 0.139205 0.705630 -0.043496 0.999054 0.000157
0.114951 0.096447 0.395422 0.999551 0.022186 -0.020129
0.112129 0.064061 0.853573 0.994948 -0.044903 0.089785
0.041921 0.127195 0.251216 -0.007847 0.996559 0.082509
0.080426 0.197623 0.586729 0.952853 0.119791 0.278784
0.064866 0.221251 0.567276 -0.738351 -0.116867 -0.664213
0.039099 0.142257 0.785165 -0.254984 0.704197 0.662639
0.030700 0.139205 0.596996 -0.124716 0.992192 -0.000752
0.034851 0.063769 0.885185 -0.977883 -0.043554 0.204567
0.027401 0.068144 0.809950 -0.999119 -0.024775 0.033882
0.060160 0.151133 0.355095 -0.226910 0.840546 -0.491929
0.070450 0.205212 0.870865 -0.546551 -0.036234 0.836642
0.044176 0.078466 0.275993 -0.466838 -0.881903 -0.065654
0.037593 0.139136 0.264796 -0.017583 0.405505 0.913924
0.063234 0.105155 0.181720 0.005680 0.999975 0.004259
0.107569 0.127195 0.618109 0.359389 0.931974 0.047587
0.062898 0.125119 0.230164 -0.960618 -0.019377 -0.277196
0.028600 0.097606 0.349817 -0.999561 0.016753 -0.024440
0.093283 0.127195 0.262857 0.440006 0.873861 -0.206791
0.027767 0.050474 0.781238 -0.958204 -0.285529 0.017842
0.085973 0.138817 0.454537 0.171323 -0.978072 -0.118419
0.094046 0.114496 0.915016 -0.177351 0.982172 -0.062326
0.101802 0.091433 0.565926 0.757068 -0.653336 -0.000194
0.080828 0.151133 0.755461 0.193786 0.977896 0.078531
0.025919 0.071632 0.746857 -0.999811 0.007510 0.017951
0.088500 0.148258 0.781264 0.973118 0.139508 0.183246
0.056523 0.079168 0.952546 -0.926333 -0.001901 0.376702
0.056775 0.138817 0.563685 -0.061946 -0.996974 -0.046966
0.033896 0.127195 0.544902 -0.432840 0.901327 -0.016095
0.081583 0.116475 0.529334 0.006390 0.999967 0.005027
0.101802 0.088221 0.584989 0.717005 -0.696955 0.012554
0.074522 0.139205 0.275294 -0.054862 0.998406 0.013244
0.063323 0.223649 0.671996 0.888786 0.314567 0.333328
0.112374 0.118241 0.324099 -0.987379 0.084851 -0.133724
0.099681 0.078466 0.513483 0.557121 -0.830218 0.018792
0.100250 0.051694 0.909790 0.954889 -0.113972 0.274222
0.063062 0.116475 0.778119 0.163547 0.986536 -0.000101
0.077740 0.078466 0.296304 0.161354 -0.986770 -0.015824
0.037902 0.116475 0.359675 0.016370 0.999806 0.010976
0.033402 0.105155 0.819121 0.070371 0.975268 0.209524
0.035144 0.036528 0.690742 -0.799064 -0.601239 0.003048
0.093026 0.088651 0.242337 0.488124 -0.840548 -0.234978
0.068974 0.114496 0.037138 0.114164 0.982625 0.146335
0.060479 0.027601 0.922454 -0.359555 -0.926266 0.112919
0.040663 0.101115 0.442141 -0.960444 -0.278431 0.004803
0.091670 0.144166 0.712810 0.215821 0.976426 0.003765
0.030213 0.083937 0.853608 -0.995327 0.012584 0.095736
0.040663 0.109231 0.269574 -0.987485 -0.154984 -0.029200
0.040663 0.085298 0.504814 -0.771092 -0.636724 -0.000023
0.026515 0.091622 0.563384 -0.999721 0.023537 -0.001736
0.078242 0.056159 0.965868 0.745246 -0.103138 0.658765
0.101802 0.093863 0.559621 0.779384 -0.626488 -0.008566
0.068339 0.234547 0.462072 -0.110243 0.907376 -0.405606
0.114147 0.144166 0.752730 0.294225 0.945312 0.140772
0.044911 0.075632 0.176834 -0.925245 -0.311837 -0.216055
0.113656 0.117513 0.359038 0.994150 0.084234 0.067603
0.101802 0.091635 0.406002 0.882800 -0.469089 -0.024897
0.096108 0.138817 0.600543 0.103754 -0.992267 -0.068123
0.102083 0.138614 0.335694 0.000471 -1.000000 0.000018
0.049948 0.106917 0.935685 -0.936094 0.001676 0.351745
0.116163 0.094295 0.765443 0.999960 0.003141 0.008331
0.047525 0.123822 0.242810 -0.093964 -0.013864 -0.995479
0.074045 0.225899 0.690634 0.347590 0.135826 0.927757
0.106105 0.127195 0.602920 0.241448 0.969542 0.041116
0.072501 0.240857 0.864995 0.990302 0.061442 -0.124608
0.116105 0.055861 0.479810 0.979874 -0.199537 -0.005617
0.035203 0.069196 0.887199 -0.972691 -0.026358 0.230602
0.027957 0.139205 0.620593 0.080619 0.996745 0.000453
0.095475 0.058029 0.187770 0.942939 -0.249155 -0.220878
0.050066 0.139205 0.440230 -0.021279 0.999771 0.002437
0.086122 0.138817 0.608646 0.054114 -0.996941 -0.056389
0.091358 0.105155 0.841499 -0.087419 0.994803 0.052204
0.109195 0.086779 0.234771 0.988940 -0.124064 -0.081273
0.096335 0.115667 0.043008 -0.674964 0.675721 0.296352
0.098084 0.144166 0.716317 0.251471 0.967835 0.007582
0.039407 0.032226 0.795029 -0.497041 -0.867718 0.003977
0.112606 0.091808 0.296653 0.999296 0.009607 -0.036268
0.040559 0.076563 0.907862 -0.964042 -0.002844 0.265736
0.027980 0.126982 0.571408 0.995281 0.096993 0.002887
0.075103 0.139205 0.448241 -0.043521 0.998957 -0.013824
0.033893 0.040438 0.833556 -0.874493 -0.482639 0.048189
0.057177 0.026539 0.412766 -0.227655 -0.973733 -0.004043
0.027749 0.119103 0.545856 0.707447 0.706745 -0.005535
0.049444 0.114972 0.239961 -0.859369 -0.027679 -0.510607
0.034497 0.147327 0.653286 -0.960794 -0.259214 0.098400
0.033192 0.116475 0.409197 0.403051 0.915164 0.004952
0.030619 0.139205 0.579909 -0.145624 0.989340 -0.000844
0.106939 0.138614 0.465597 0.079165 -0.996607 0.022529
0.097473 0.029956 0.796520 0.399476 -0.916743 0.000101
0.110400 0.110031 0.874345 0.979162 0.003233 0.203056
0.034867 0.113463 0.101851 -0.971295 -0.217926 -0.095366
0.092133 0.031431 0.115488 0.466180 -0.467390 -0.751148
0.074425 0.078466 0.528195 0.066089 -0.997705 0.014733
0.054985 0.139205 0.332610 0.132425 0.991190 0.002327
0.067630 0.029822 0.109045 -0.893078 -0.442724 -0.080049
0.028374 0.121990 0.402156 -0.999028 0.042296 -0.012433
0.061314 0.138817 0.606732 -0.060063 -0.997585 -0.034874
0.101382 0.145214 0.421101 0.361010 0.906802 0.217673
0.055518 0.138817 0.443101 -0.039135 -0.996865 -0.068772
0.074290 0.025312 0.713778 0.014477 -0.999895 -0.000079
0.050302 0.028802 0.463618 -0.379328 -0.925253 -0.004070
0.114190 0.132304 0.392911 -0.771937 0.002052 0.635696
0.091853 0.098869 0.940123 -0.747830 0.488859 -0.449185
0.089190 0.144166 0.751771 0.351131 0.935760 0.032567
0.094211 0.047550 0.926514 0.931217 -0.183615 0.314833
0.092378 0.139205 0.602286 0.095483 0.995431 -0.000434
0.088086 0.026520 0.623144 0.310569 -0.950548 -0.002268
0.061884 0.197157 0.677506 -0.961457 0.027745 -0.273553
0.077556 0.116475 0.684547 0.122387 0.992482 0.000039
0.040663 0.106351 0.256602 -0.970536 -0.238010 -0.037575
0.088273 0.151133 0.406055 0.244475 0.945261 0.216132
0.029027 0.096618 0.330660 -0.999567 0.014799 -0.025429
0.045984 0.124713 0.079398 -0.180144 0.459849 -0.869533
0.108533 0.139205 0.521224 0.187129 0.982326 -0.004224
0.025805 0.061511 0.579837 -0.995971 -0.089627 0.002825
0.088864 0.039008 0.116982 0.633099 0.652619 -0.416262
0.083078 0.078466 0.554433 0.253392 -0.966554 0.039578
0.040663 0.086376 0.775585 -0.833012 -0.541048 0.115575
0.090647 0.114496 0.905199 -0.120559 0.991569 -0.047499
0.040663 0.117290 0.399107 -0.999877 -0.002790 -0.015450
0.078262 0.139205 0.422074 -0.041768 0.999127 0.000200
0.086239 0.026003 0.691449 0.236233 -0.971696 -0.001122
0.115889 0.118659 0.704636 0.999796 0.013477 -0.015043
0.103946 0.126645 0.546785 0.085336 -0.995048 0.050972
0.061456 0.169386 0.387269 -0.832249 0.536346 0.140334
0.050244 0.078466 0.399763 -0.426267 -0.903880 -0.036024
0.065165 0.116475 0.676637 0.099907 0.994996 -0.001413
0.041121 0.138388 0.557383 -0.494694 -0.869066 -0.001207
0.116958 0.074858 0.498745 0.997109 0.075960 0.001670
0.050365 0.114496 0.107345 0.118144 0.991446 0.055476
0.101802 0.080145 0.305565 0.886417 -0.462858 -0.005196
0.050262 0.105155 0.872056 0.065795 0.892859 -0.445504
0.040663 0.079139 0.655182 -0.725053 -0.688067 0.029355
0.060127 0.151133 0.602368 -0.359573 0.933092 0.006779
0.101343 0.127583 0.693617 0.552983 0.830891 0.061893
0.075705 0.025304 0.696722 0.020254 -0.999795 -0.000107
0.025952 0.068893 0.755157 -0.999781 -0.011766 0.017327
0.038819 0.033204 0.629097 -0.554508 -0.832178 -0.000958
0.031841 0.138614 0.760086 -0.309852 -0.950743 0.008923
0.053111 0.145214 0.473584 -0.314870 0.942106 -0.115294
0.090046 0.116475 0.760025 -0.117623 0.993054 0.003071
0.035989 0.127195 0.723896 -0.522826 0.850839 0.052207
0.058317 0.127772 0.229964 0.370357 0.799815 0.472368
0.098338 0.116475 0.348844 -0.093382 0.995620 0.004583
0.105446 0.126645 0.299057 0.002168 -0.999998 0.000124
0.076442 0.115834 0.203715 0.222790 0.249293 -0.942453
0.104968 0.108321 0.095239 0.929859 -0.353665 -0.101411
0.081057 0.179426 0.682670 0.986521 0.122288 -0.108733
0.048431 0.143667 0.314301 -0.224128 0.904440 -0.362982
0.087607 0.054346 0.159916 0.957704 -0.190539 -0.215633
0.061694 0.139205 0.323269 0.034215 0.999414 0.000869
0.040663 0.123733 0.700967 -0.997419 -0.071784 0.001737
0.094508 0.144166 0.743587 0.339478 0.940215 0.027374
0.026433 0.091192 0.624779 -0.999994 0.003322 0.001295
0.085425 0.078466 0.712092 0.178397 -0.982525 0.053105
0.099587 0.116475 0.600515 0.002764 0.999993 0.002565
0.052473 0.072805 0.942089 -0.931113 -0.011314 0.364555
0.027212 0.138944 0.767323 -0.423626 -0.898165 0.117644
0.026648 0.095463 0.544364 -0.999766 0.021484 -0.002534
0.104095 0.116475 0.614411 0.000326 0.999998 0.001979
0.032097 0.116475 0.588321 0.166680 0.986007 0.002974
0.080002 0.219174 0.373703 -0.809966 0.577566 0.101843
0.025752 0.127339 0.701146 -0.987723 -0.155975 0.008706
0.116426 0.060900 0.660537 0.995998 -0.088892 0.009305
0.104210 0.148812 0.688610 -0.028344 0.999588 -0.004548
0.092034 0.114496 0.922415 -0.143827 0.988147 -0.053651
0.074220 0.127195 0.233868 0.000485 0.995757 0.092019
0.101802 0.102839 0.361867 0.951263 -0.301430 -0.065106
0.037604 0.126645 0.255170 -0.572741 -0.819621 0.013721
0.040036 0.139205 0.482585 -0.037974 0.999249 0.007765
0.052116 0.028712 0.896405 -0.485730 -0.867619 0.106315
0.040663 0.125125 0.557328 -0.865531 -0.500605 0.015833
0.069953 0.151133 0.617560 -0.166152 0.928264 0.332747
0.094894 0.138817 0.420557 0.065775 -0.995932 0.061581
0.075809 0.108705 0.971124 0.744549 -0.001183 0.667566
0.040663 0.099791 0.633197 -0.939901 -0.319071 0.121573
0.101802 0.121164 0.379761 1.000000 0.000000 0.000000
0.101802 0.116133 0.398598 0.999415 -0.034136 0.001956
0.029898 0.076604 0.292836 -0.998239 -0.015836 -0.057164
0.041536 0.038754 0.219641 -0.906193 -0.421378 -0.035413
0.115903 0.122557 0.728689 0.999955 0.000363 0.009517
0.109380 0.138944 0.704644 0.516450 -0.854884 -0.049536
0.104064 0.116690 0.888670 0.454076 0.466740 0.758926
0.088500 0.149473 0.575009 0.998771 -0.005674 -0.049241
0.035695 0.105155 0.869623 0.240091 0.970631 -0.015237
0.025914 0.126645 0.699669 -0.173479 -0.984838 0.000049
0.101802 0.109402 0.425869 0.979181 -0.202986 -0.000641
0.095423 0.078466 0.745669 0.356792 -0.932352 0.058473
0.116869 0.127845 0.728881 0.992197 0.121022 0.029980
0.110666 0.138614 0.378470 0.095183 -0.995341 0.015412
0.041121 0.135035 0.374012 -0.999782 -0.020801 0.001926
0.099175 0.032122 0.448165 0.448345 -0.893837 -0.006474
0.026252 0.128172 0.612610 -0.986906 0.161119 0.007584
0.101802 0.120651 0.313936 1.000000 0.000000 0.000000
0.078996 0.139205 0.407346 -0.002928 0.999995 0.001088
0.084697 0.105155 0.200501 -0.026221 0.999656 0.000645
0.072770 0.116475 0.687071 0.066530 0.997783 -0.001655
0.026262 0.061957 0.787578 -0.997251 -0.071510 0.019388
0.070280 0.193199 0.872322 -0.687381 0.026655 0.725807
0.045931 0.139205 0.377415 0.148120 0.988968 0.001636
0.050761 0.131633 0.258129 -0.658379 0.054749 -0.750693
0.059933 0.031056 0.156672 -0.112982 -0.993347 -0.022292
0.101792 0.033024 0.481408 0.505735 -0.862665 -0.006372
0.116110 0.091820 0.705168 0.999991 0.002965 0.003134
0.111601 0.116475 0.600304 -0.018280 0.999832 0.001280
0.044942 0.082668 0.167343 -0.911476 -0.363837 -0.191920
0.091568 0.138817 0.579222 0.092428 -0.993102 -0.072147
0.061668 0.026148 0.326017 -0.150655 -0.988583 -0.002623
0.116285 0.062482 0.770973 0.997586 -0.067125 0.017761
0.026754 0.097003 0.506232 -0.999762 0.021695 -0.002301
0.101802 0.105427 0.268063 0.982243 -0.168931 -0.081610
0.041670 0.138817 0.711939 -0.090377 -0.995816 -0.013535
0.108184 0.147002 0.618877 0.996327 0.081908 -0.024979
0.062499 0.193431 0.374208 -0.921858 -0.000301 -0.387528
0.029677 0.123604 0.343143 0.971451 -0.157771 0.177178
0.113521 0.126645 0.705563 0.247492 -0.967045 0.059771
0.081935 0.116475 0.678476 0.085988 0.996295 -0.001382
0.025715 0.074964 0.615884 -0.997083 0.076303 0.001708
0.026677 0.094986 0.520923 -0.999705 0.024130 -0.002771
0.068356 0.105155 0.166806 -0.005095 0.999975 0.004870
0.026876 0.138867 0.502133 -0.932615 -0.283441 -0.223363
0.046784 0.078466 0.530592 -0.563943 -0.825812 -0.001847
0.070909 0.116475 0.459846 -0.002108 0.999975 0.006694
0.028767 0.054447 0.389716 -0.959723 -0.279689 -0.026581
0.027477 0.123952 0.634723 0.997512 -0.059697 -0.037501
0.115943 0.119247 0.738691 0.999853 0.016635 -0.004164
0.071880 0.078466 0.388532 0.123040 -0.992277 0.015761
0.076956 0.116475 0.224367 0.036401 0.999337 0.000412
0.081068 0.231444 0.376841 0.991266 -0.025090 0.129470
0.035159 0.103511 0.147712 -0.912432 -0.404165 -0.064182
0.048040 0.078466 0.629568 -0.597456 -0.801524 0.024605
0.098015 0.138817 0.632824 0.098107 -0.993498 -0.057760
0.075201 0.116475 0.302760 0.115227 0.993322 0.005906
0.060890 0.025900 0.406056 -0.132061 -0.991237 -0.003081
0.040663 0.099829 0.744536 -0.922293 -0.332011 0.197849
0.074864 0.138817 0.339502 0.062859 -0.996245 -0.059537
0.065773 0.039570 0.113052 -0.933520 -0.014323 -0.358240
0.116459 0.141602 0.518168 0.998316 0.058011 0.000331
0.044163 0.141796 0.421239 -0.654948 -0.349612 0.669936
0.101802 0.121744 0.416089 1.000000 0.000000 0.000000
0.045872 0.078466 0.691994 -0.662407 -0.748069 0.040127
0.092741 0.139205 0.623973 -0.010158 0.999948 0.000129
0.104869 0.105155 0.200777 -0.087498 0.996164 0.000681
0.062185 0.078466 0.391963 -0.035219 -0.999318 0.011139
0.047529 0.115915 0.927579 0.795271 0.538898 -0.277729
0.087932 0.052595 0.162812 0.966713 -0.141481 -0.213189
0.041121 0.138267 0.486519 -0.548925 -0.835827 -0.008651
0.104706 0.110821 0.804422 -0.153596 0.012993 0.988048
0.111292 0.128256 0.281031 -0.999422 -0.021657 0.026199
0.088483 0.114496 0.091016 -0.150962 0.984866 0.085143
0.101802 0.124094 0.451125 0.987538 -0.151868 0.041294
0.114047 0.111833 0.368923 0.999353 0.030609 -0.018886
0.090167 0.116475 0.341166 -0.082147 0.996605 0.005520
0.079078 0.231352 0.483712 0.861103 0.036915 0.507088
0.040663 0.084408 0.284039 -0.650401 -0.757305 -0.058893
0.040663 0.087686 0.505175 -0.811980 -0.583677 0.003286
0.053471 0.045918 0.169988 -0.914979 0.364137 -0.173831
0.101695 0.036074 0.334207 0.711376 -0.702576 -0.018227
0.040663 0.084538 0.607500 -0.798868 -0.600979 0.025202
0.040788 0.138817 0.407277 -0.108885 -0.981436 0.157885
0.061099 0.151133 0.615925 -0.433054 0.901367 0.000937
0.088306 0.112306 0.181184 -0.866817 0.401360 0.295869
0.073229 0.133619 0.780579 0.004615 -0.020409 0.999781
0.116060 0.088902 0.644927 0.999991 0.004015 -0.000975
0.114097 0.096919 0.359223 0.999549 0.018881 -0.023358
0.026693 0.104899 0.580077 -0.999944 0.010400 -0.001859
0.073823 0.138817 0.562211 0.017879 -0.997858 -0.062919
0.115510 0.053898 0.686232 0.979793 -0.199610 0.012705
0.027091 0.122972 0.717870 0.957734 0.287641 0.002845
0.105201 0.139205 0.631837 -0.023276 0.999729 0.000168
0.027630 0.118078 0.558234 0.919265 0.391214 -0.043634
0.093993 0.078466 0.378861 0.318064 -0.947857 -0.020047
0.075658 0.074036 0.207508 0.089289 -0.618306 -0.780849
0.116438 0.069054 0.778916 0.999690 -0.014967 0.019907
0.055414 0.138817 0.697282 -0.066978 -0.997628 -0.015860
0.070890 0.121805 0.090732 0.036671 -0.988040 0.149772
0.035391 0.116475 0.254721 0.143265 0.989624 -0.010966
0.036267 0.034500 0.778480 -0.728816 -0.684672 0.007150
0.030505 0.127195 0.349583 -0.296902 0.954023 -0.041097
0.034500 0.042213 0.396296 -0.854135 -0.519762 -0.017333
0.055654 0.081206 0.125856 -0.865965 -0.456683 -0.203826
0.069095 0.124239 0.093775 -0.029240 0.358486 0.933077
0.101802 0.120166 0.416808 1.000000 0.000000 0.000000
0.060817 0.140897 0.439729 0.036424 -0.909463 -0.414186
0.081041 0.025446 0.596838 0.083585 -0.996500 -0.001073
0.070224 0.138817 0.564552 0.000082 -0.998269 -0.058812
0.077084 0.114496 0.071501 -0.120175 0.989952 0.074515
0.026993 0.116475 0.749492 0.184544 0.982816 -0.004065
0.059760 0.139205 0.538125 0.070636 0.997498 -0.002701
0.081077 0.230762 0.674816 0.991566 -0.065503 -0.111829
0.115911 0.091972 0.547334 0.999444 0.033077 -0.004208
0.101831 0.144562 0.388404 0.393165 0.908057 0.144411
0.115442 0.106637 0.479419 0.999146 0.040980 -0.005226
0.109630 0.116475 0.684010 0.029732 0.999558 -0.000062
0.043759 0.145214 0.479444 -0.262400 0.961994 -0.075597
0.101346 0.147260 0.605613 0.074027 0.856770 -0.510357
0.101343 0.129599 0.715244 0.829115 0.557110 0.046867
0.077772 0.151133 0.672062 0.644276 0.685413 -0.339290
0.101343 0.129145 0.463337 0.862895 0.505157 0.015120
0.101802 0.115636 0.773648 0.932311 -0.042052 0.359204
0.069909 0.157171 0.573698 -0.186621 0.527067 -0.829080
0.106509 0.127195 0.416289 0.003168 0.999995 -0.000903
0.040663 0.090200 0.581656 -0.875400 -0.482680 0.026375
0.067719 0.124691 0.204073 -0.163169 -0.153578 -0.974572
0.041933 0.138817 0.325257 -0.138185 -0.990251 -0.017549
0.068564 0.038051 0.097953 -0.883680 -0.468081 -0.003057
0.068269 0.222601 0.364164 0.383269 0.312452 0.869183
0.052389 0.036969 0.107898 -0.499266 -0.153526 -0.852738
0.077330 0.025303 0.649613 0.028021 -0.999607 -0.000300
0.056281 0.116475 0.255150 0.001404 0.999962 -0.008632
0.046301 0.139205 0.498684 -0.022031 0.999736 0.006485
0.078597 0.078466 0.418661 0.189809 -0.981737 0.012859
0.066059 0.116475 0.354568 -0.034795 0.999362 0.008012
0.046811 0.139205 0.279780 0.042236 0.999104 -0.002740
0.043816 0.105155 0.152710 0.086125 0.996082 0.020098
0.068415 0.116475 0.618826 0.184925 0.982753 -0.000080
0.073921 0.103094 0.203715 0.122136 0.107798 -0.986642
0.038300 0.147339 0.300851 0.214901 0.162446 -0.963031
0.062381 0.081103 0.084908 -0.885274 -0.447341 -0.127184
0.116350 0.069504 0.404008 0.998858 -0.044088 -0.018397
0.101343 0.134263 0.359844 1.000000 0.000000 0.000000
0.113932 0.139508 0.341802 -0.138895 0.990306 0.001208
0.101802 0.119086 0.377308 0.999958 -0.003008 -0.008608
0.099100 0.031161 0.871070 0.524570 -0.850604 0.036030
0.028278 0.051056 0.447967 -0.936092 -0.351556 -0.011857
0.040663 0.090559 0.371472 -0.808127 -0.588306 -0.028736
0.026698 0.111421 0.604144 -0.999966 0.008102 -0.001733
0.037863 0.106489 0.899407 -0.962692 -0.001723 0.270594
0.028349 0.128431 0.382546 0.337363 -0.287122 -0.896520
0.098788 0.114496 0.083778 -0.206352 0.974490 0.088251
0.101802 0.091718 0.506406 0.811079 -0.584845 -0.010315
0.101002 0.114620 0.804422 -0.120272 0.034352 0.992146
0.044172 0.114496 0.886262 0.065470 0.995758 -0.064655
0.041332 0.145214 0.524331 -0.336839 0.935084 0.110265
0.115979 0.090370 0.570180 -0.999993 -0.003692 0.000981
0.104405 0.138944 0.730816 0.438790 -0.898033 -0.031618
0.026345 0.134275 0.595351 -0.954660 -0.297695 -0.001441
0.026559 0.067867 0.390527 -0.997801 -0.062020 -0.023377
0.079284 0.211709 0.385781 0.859619 0.133329 0.493232
0.066242 0.212010 0.668118 -0.596137 -0.090316 -0.797787
0.101802 0.084327 0.640864 0.633425 -0.773140 0.032040
0.079312 0.216394 0.671208 0.871909 -0.062575 -0.485652
0.027139 0.061174 0.802995 -0.996467 -0.076341 0.035002
0.078449 0.034545 0.955248 0.765930 -0.540328 0.348422
0.109458 0.039752 0.708942 0.845856 -0.533394 0.004307
0.036229 0.126645 0.596870 -0.441107 -0.897447 0.003708
0.080126 0.225124 0.377625 -0.921133 0.349318 -0.171728
0.061900 0.156494 0.583174 -0.958643 0.151309 -0.241057
0.074927 0.116475 0.425891 -0.022394 0.999728 0.006523
0.087357 0.026472 0.573389 0.285971 -0.958235 -0.002440
0.051335 0.087343 0.233210 -0.949951 -0.100669 -0.295734
0.071651 0.116475 0.349116 -0.046707 0.998881 0.007453
0.058622 0.025973 0.884807 -0.125860 -0.991795 0.022390
0.099578 0.144006 0.675651 0.287595 0.956042 -0.057208
0.040633 0.142532 0.563657 -0.778674 0.541331 -0.317218
0.078382 0.156914 0.597355 0.689076 0.588249 0.423247
0.081772 0.116475 0.382183 -0.051461 0.998656 0.006117
0.096618 0.078466 0.712009 0.395157 -0.916878 0.056441
0.114932 0.125832 0.550848 0.998898 0.046640 0.005238
0.116160 0.090748 0.750697 0.999994 0.003414 0.000757
0.079478 0.105196 0.138140 -0.046666 0.142386 0.988711
0.115111 0.126645 0.717060 0.240072 -0.970156 0.034102
0.051273 0.108945 0.138140 0.066843 0.061726 0.995852
0.072707 0.231412 0.387072 -0.172253 -0.016241 -0.984919
0.032193 0.116475 0.281236 0.156489 0.987671 0.004088
0.033888 0.051288 0.286273 -0.953066 -0.296025 -0.063518
0.040633 0.142802 0.447401 -0.531043 0.745152 -0.403413
0.025813 0.074965 0.673193 -0.997171 0.075152 0.001725
0.100641 0.032251 0.531953 0.439771 -0.898100 -0.004343
0.116544 0.071799 0.747508 0.999801 0.008366 0.018129
0.109827 0.138614 0.421082 0.117730 -0.992275 0.039126
0.046561 0.029469 0.743989 -0.392385 -0.919801 -0.000865
0.099141 0.116475 0.509431 -0.032038 0.999481 0.003298
0.099083 0.030615 0.851997 0.453570 -0.891103 0.014485
0.027536 0.138944 0.770936 -0.418349 -0.899827 0.123673
0.113702 0.118171 0.398106 -0.994916 0.031498 0.095655
0.114218 0.128588 0.534324 -0.998387 -0.055822 0.010382
0.117027 0.072282 0.436268 0.998567 0.052845 -0.008470
0.096794 0.114496 0.900381 -0.107554 0.993483 -0.037744
0.045818 0.114496 0.061378 0.235414 0.970442 0.053129
0.065035 0.194711 0.671989 -0.733829 0.092303 -0.673034
0.048290 0.078466 0.342722 -0.429947 -0.901455 -0.050236
0.066780 0.025310 0.676592 -0.021005 -0.999779 -0.000226
0.035739 0.035667 0.681359 -0.784962 -0.619539 0.002436
0.034148 0.039199 0.537160 -0.830552 -0.556917 -0.005263
0.035693 0.045213 0.298789 -0.923046 -0.382584 -0.040198
0.101802 0.103987 0.406412 0.937442 -0.342285 -0.063597
0.039407 0.120119 0.902799 -0.946265 0.140301 0.291372
0.034893 0.145969 0.347713 -0.875355 -0.481217 0.046738
0.095602 0.029589 0.660598 0.394651 -0.918830 -0.001555
0.094550 0.124102 0.825420 0.857060 0.297370 0.420736
0.082006 0.139205 0.696353 -0.077082 0.997025 -0.000156
0.088854 0.139205 0.422224 -0.044273 0.998975 -0.009422
0.102386 0.127195 0.746162 0.404315 0.911813 0.071600
0.113718 0.097138 0.823719 0.998561 0.002216 0.053580
0.079515 0.230460 0.684525 0.894619 0.030809 0.445766
0.099775 0.139205 0.477253 0.125869 0.991741 0.024617
0.030497 0.085689 0.282596 -0.998986 0.009236 -0.044069
0.094225 0.116475 0.537642 -0.012423 0.999916 0.003612
0.077247 0.165052 0.698078 0.614524 0.495830 0.613606
0.026954 0.116562 0.771032 0.168888 0.985534 0.014158
0.112393 0.116475 0.801952 -0.113928 0.945215 0.305923
0.052358 0.138817 0.409555 -0.072004 -0.988009 0.136576
0.030474 0.044957 0.608847 -0.893783 -0.448499 0.000541
0.030920 0.064477 0.862458 -0.994272 -0.042208 0.098196
0.083387 0.078466 0.287520 0.210653 -0.977204 -0.026403
0.065640 0.207672 0.467862 -0.637522 -0.065459 -0.767646
0.086581 0.077186 0.132463 0.899773 -0.376374 -0.220795
0.098466 0.037302 0.167897 0.995543 0.047166 -0.081671
0.101802 0.124701 0.584645 0.917418 -0.381991 0.111479
0.036087 0.046477 0.273443 -0.941065 -0.333371 -0.057098
0.071326 0.138817 0.781085 -0.013765 -0.999895 -0.004490
0.029988 0.139205 0.516601 -0.157157 0.987571 -0.002078
0.043128 0.138944 0.785164 -0.307160 -0.927497 0.213079
0.101343 0.138383 0.418755 0.904227 -0.427024 0.004809
0.059294 0.116403 0.221429 -0.469546 0.769578 -0.432754
0.070949 0.229935 0.387469 0.031850 0.040345 -0.998678
0.041106 0.138817 0.699595 -0.094661 -0.995393 -0.015239
0.046901 0.040224 0.161864 -0.694202 0.711517 -0.108748
0.081219 0.209813 0.378001 0.998549 0.052701 -0.011050
0.087261 0.116475 0.594002 0.071128 0.997465 0.002131
0.065667 0.078466 0.270953 0.046536 -0.998910 -0.003654
0.039249 0.116475 0.410955 0.154481 0.987981 0.005395
