0.278403 0.100744 0.107383 -0.955191 0.255638 -0.149195
0.231465 0.081878 0.112857 -0.005801 0.999718 0.023036
0.315666 0.152414 0.110911 0.129616 0.991147 0.028758
0.438724 0.144593 0.103049 0.480072 -0.106800 0.870703
0.868563 0.058423 0.150751 0.149539 0.816883 0.557082
0.506578 0.078412 0.109296 0.016269 0.999846 0.006640
0.895316 0.062919 0.140033 0.158913 0.908743 0.385918
0.575664 0.052433 0.044715 0.140006 0.256762 -0.956280
0.506732 0.025000 0.125837 0.011542 0.998816 0.047249
0.605993 0.043959 0.172235 0.029772 0.863389 0.503660
0.389110 0.078820 0.123869 -0.049911 0.997880 0.041762
0.289892 0.049103 0.059674 -0.052165 -0.031849 -0.998131
0.682411 0.198459 0.111070 -0.319183 0.000000 0.947693
0.203533 0.058050 0.159096 -0.122126 -0.015865 0.992388
0.846550 0.031919 0.064591 0.177235 0.794902 -0.580274
0.387589 0.098168 0.097779 0.189042 0.139012 -0.972080
0.044940 0.072907 0.116980 -0.746090 0.011523 0.665745
0.612175 0.078412 0.069563 0.014093 0.990519 -0.136654
0.355565 0.025000 0.112257 -0.026874 0.999634 0.003242
0.896468 0.025000 0.081674 0.149824 0.932325 -0.329123
0.732091 0.063063 0.074361 0.105180 0.872584 -0.477006
0.768505 0.062989 0.151371 0.059926 0.941040 0.332946
0.278839 0.025000 0.118836 -0.035531 0.998983 -0.027770
0.366469 0.025000 0.131796 -0.025893 0.997445 0.066584
0.095035 0.078483 0.135758 -0.165551 0.813130 0.558043
0.329571 0.080326 0.067517 -0.722249 -0.649694 0.237179
0.439089 0.118582 0.100460 -0.702804 0.207075 -0.680578
0.786782 0.079666 0.095410 0.318989 0.812006 -0.488767
0.508646 0.033599 0.038047 0.066502 0.696498 -0.714471
0.224783 0.025000 0.138541 -0.053621 0.984816 0.165110
0.327124 0.207761 0.109552 0.933747 -0.348890 -0.079956
0.375523 0.078820 0.101105 -0.030772 0.998408 -0.047262
0.246972 0.074958 0.090440 -0.058074 0.414689 -0.908108
0.396796 0.025000 0.067387 -0.019991 0.990144 -0.138622
0.434422 0.039755 0.038047 -0.074610 0.368192 -0.926751
0.407082 0.067688 0.056929 -0.187272 0.883288 -0.429804
0.353465 0.078820 0.114268 -0.019170 0.999363 -0.030094
0.459378 0.025000 0.065957 -0.006405 0.989808 -0.142266
0.612337 0.025000 0.103248 0.012229 0.999923 -0.001892
0.570056 0.069781 0.122575 -0.530056 0.045262 0.846754
0.140133 0.081878 0.108952 -0.010137 0.999934 -0.005379
0.480661 0.046103 0.051910 0.179053 -0.489644 0.853340
0.059900 0.052771 0.101505 -0.501152 -0.025254 -0.864991
0.620900 0.025000 0.163558 0.013199 0.985665 0.168199
0.693381 0.078412 0.059250 0.001817 0.999812 -0.019279
0.604804 0.078412 0.147877 0.017423 0.996351 0.083554
0.839493 0.062919 0.149240 0.079426 0.973877 0.212734
0.749522 0.063027 0.102668 0.081059 0.987140 0.137784
0.289629 0.080508 0.075350 -0.011270 0.958086 -0.286260
0.292634 0.079597 0.138247 0.355372 -0.562379 -0.746620
0.667302 0.025000 0.148198 0.018412 0.991895 0.125723
0.827150 0.060803 0.060108 0.061309 0.950496 -0.304630
0.308377 0.034782 0.049502 -0.077179 0.813773 -0.576036
0.135741 0.081616 0.095959 -0.018387 0.994389 -0.104179
0.664242 0.078412 0.125237 0.006805 0.998202 -0.059549
0.388194 0.025000 0.129447 -0.022118 0.997204 0.071379
0.255531 0.081878 0.128356 -0.004698 0.997855 0.065291
0.350037 0.109399 0.104676 0.161340 0.967587 -0.194282
0.319375 0.025000 0.156215 -0.028541 0.992761 0.116663
0.322917 0.203584 0.104729 0.187528 -0.925892 -0.327958
0.361077 0.025000 0.072264 -0.026197 0.993552 -0.110306
0.387071 0.077351 0.122650 0.054993 0.071839 0.995899
0.925278 0.061695 0.131259 0.689577 0.659198 0.299903
0.389938 0.069893 0.059540 -0.003980 0.018044 -0.999829
0.866999 0.062919 0.094369 0.080311 0.982248 -0.169526
0.324467 0.109603 0.091221 0.214945 -0.974945 -0.057275
0.895547 0.056671 0.144515 0.217748 0.732424 0.645090
0.818958 0.062919 0.092456 0.046407 0.995636 -0.080961
0.501377 0.078412 0.148094 0.006808 0.994468 0.104819
0.493564 0.062842 0.043248 0.219724 0.860628 -0.459392
0.920450 0.045389 0.133635 0.326563 -0.703291 0.631457
0.340527 0.100308 0.131416 -0.152388 0.650377 0.744169
0.551462 0.030677 0.182382 0.036357 0.877749 0.477739
0.830327 0.032222 0.060842 0.152059 0.800111 -0.580258
0.279658 0.081878 0.124799 -0.003762 0.998612 0.052534
0.101211 0.077053 0.080617 -0.220665 0.570441 -0.791141
0.444778 0.129314 0.118573 0.215407 -0.045977 -0.975441
0.098664 0.025000 0.088850 -0.104597 0.943242 -0.315204
0.451579 0.081837 0.097779 0.439690 0.084341 -0.894181
0.241184 0.025000 0.108837 -0.044318 0.998094 -0.042933
0.749007 0.063028 0.159663 0.072017 0.888213 0.453753
0.317761 0.034743 0.048312 -0.075602 0.817345 -0.571167
0.555604 0.069049 0.176754 0.126366 0.868505 -0.479302
0.408628 0.069078 0.047885 0.009518 0.988639 -0.150005
0.924761 0.058131 0.138755 0.508834 0.253811 0.822599
0.489499 0.025011 0.038047 0.007735 0.972748 -0.231738
0.823999 0.025000 0.127970 0.072568 0.993496 0.087746
0.324860 0.025000 0.125129 -0.028121 0.999171 0.029427
0.252701 0.081113 0.082775 -0.009611 0.980328 -0.197141
0.765984 0.025000 0.150102 0.044911 0.985458 0.163875
0.390110 0.129191 0.118573 -0.086890 -0.043017 -0.995289
0.276414 0.078322 0.120062 0.912927 -0.301980 -0.274541
0.778634 0.079488 0.089479 0.000558 0.680851 -0.732422
0.799398 0.063642 0.120688 0.744090 0.553351 0.374342
0.456554 0.133578 0.162652 0.216854 0.976204 0.000000
0.549117 0.025000 0.103336 0.007815 0.999587 -0.027638
0.486716 0.025000 0.093478 0.006513 0.998297 -0.057976
0.464875 0.131135 0.161384 0.000000 0.000000 -1.000000
0.083426 0.044324 0.092141 -0.363975 0.067031 -0.928994
0.338746 0.083004 0.089013 -0.214084 0.346841 -0.913164
0.921369 0.051433 0.132616 0.384994 0.322800 0.864627
0.086355 0.081252 0.098063 -0.042908 0.984622 -0.169347
0.394865 0.129490 0.104700 -0.864279 -0.056496 0.499829
0.493425 0.078412 0.146262 0.000181 0.995034 0.099531
0.098913 0.025843 0.087630 -0.111427 0.922070 -0.370636
0.616528 0.078412 0.112368 0.014210 0.996625 -0.080852
0.370049 0.078820 0.133131 -0.036105 0.999093 0.022555
0.663419 0.058041 0.165869 0.106284 0.566971 0.816852
0.552833 0.025000 0.055517 0.008052 0.987229 -0.159103
0.673720 0.078412 0.139292 0.005513 0.998954 -0.045384
0.690204 0.095432 0.108472 -0.959056 -0.012697 -0.282931
0.501719 0.151898 0.103477 0.591293 -0.133536 0.795324
0.331308 0.139669 0.112953 0.729469 -0.643606 0.231616
0.159955 0.081878 0.114423 -0.009072 0.999792 0.018290
0.416421 0.034686 0.181541 -0.053765 0.667333 0.742817
0.743642 0.025000 0.059964 0.041377 0.982108 -0.183715
0.630878 0.043959 0.051461 0.039786 0.867411 -0.495999
0.316802 0.092071 0.091403 -0.014089 -0.997784 0.065022
0.555721 0.078412 0.153088 0.025797 0.982850 0.182594
0.699546 0.078604 0.115719 0.383223 -0.006692 0.923632
0.312190 0.123945 0.109966 -0.998530 0.000003 0.054200
0.895004 0.047357 0.071721 0.699320 -0.466875 -0.541276
0.582795 0.123907 0.100252 0.470162 0.227198 -0.852836
0.494635 0.064353 0.182382 0.072951 0.567206 0.820338
0.238377 0.076524 0.128699 -0.396544 0.458840 0.795122
0.063238 0.054840 0.099810 -0.476696 -0.053741 -0.877424
0.677239 0.081569 0.054560 0.100490 0.206184 -0.973340
0.378754 0.025000 0.087880 -0.023538 0.997976 -0.059082
0.377161 0.078820 0.093630 -0.030282 0.997830 -0.058466
0.682049 0.128906 0.109426 -0.512975 0.000000 -0.858404
0.309282 0.152414 0.103972 0.177014 0.944337 0.277299
0.823086 0.062919 0.072264 0.048174 0.985773 -0.161030
0.707887 0.063112 0.142525 0.115935 0.876943 0.466401
0.570147 0.061345 0.041613 0.172216 0.315010 -0.933333
0.705821 0.078412 0.147498 0.001182 0.999995 -0.003045
0.922646 0.053488 0.080567 0.372809 -0.056754 -0.926171
0.447904 0.173839 0.101856 0.075895 -0.192678 0.978323
0.714361 0.084332 0.121800 -0.057990 0.256039 0.964926
0.434560 0.103685 0.115109 -0.907420 0.151537 0.391950
0.844874 0.062919 0.152412 0.090733 0.957521 0.273719
0.318806 0.109603 0.109141 -0.046938 -0.998898 -0.000260
0.746896 0.066760 0.091508 0.806445 0.023148 -0.590856
0.187832 0.050894 0.065638 -0.153071 0.077888 -0.985141
0.791761 0.055189 0.092104 0.517986 0.301694 -0.800420
0.332352 0.025000 0.105249 -0.027533 0.999302 -0.025249
0.268862 0.029715 0.054516 -0.059514 0.913434 -0.402613
0.678957 0.111066 0.105570 -0.714079 0.000013 -0.700065
0.501380 0.078412 0.118467 0.007473 0.999720 0.022440
0.262959 0.042193 0.055265 -0.126501 0.459324 -0.879215
0.303948 0.081878 0.101512 -0.002828 0.999993 0.002607
0.352915 0.025000 0.079385 -0.026748 0.995245 -0.093661
0.530101 0.059366 0.182382 0.098075 0.236311 0.966715
0.715076 0.078412 0.114590 0.000652 0.999995 -0.003202
0.571890 0.025000 0.060715 0.009191 0.991071 -0.133017
0.232569 0.079334 0.073235 -0.029193 0.954804 -0.295799
0.040278 0.025000 0.112715 -0.391382 0.818291 0.420975
0.639448 0.050790 0.054560 0.106877 0.281520 -0.953585
0.356566 0.025000 0.076261 -0.026503 0.994539 -0.100943
0.622255 0.061392 0.165869 0.119858 0.397149 0.909894
0.567913 0.137305 0.102256 -0.288592 0.075989 -0.954432
0.406948 0.062969 0.044303 -0.284052 0.602098 -0.746185
0.373106 0.105086 0.115636 -0.883275 0.156152 0.442088
0.770416 0.025000 0.095487 0.050575 0.997435 -0.050660
0.557156 0.025000 0.096883 0.008301 0.999170 -0.039876
0.437883 0.078412 0.091280 -0.032204 0.999381 -0.014157
0.332288 0.025000 0.111123 -0.027491 0.999592 -0.007754
0.231867 0.067087 0.098240 -0.686019 0.184648 -0.703763
0.260132 0.081371 0.135327 -0.007365 0.988666 0.149954
0.242676 0.043959 0.059738 -0.135935 0.406165 -0.903632
0.878596 0.025000 0.083963 0.130371 0.959045 -0.251467
0.841829 0.062919 0.153191 0.086591 0.959766 0.267117
0.683504 0.025000 0.054986 0.022038 0.985254 -0.169675
0.103791 0.025000 0.112418 -0.142688 0.981263 0.129476
0.602292 0.025000 0.137456 0.011157 0.995381 0.095351
0.599676 0.084290 0.054560 0.047016 0.206816 -0.977250
0.607248 0.067437 0.054560 0.103100 0.683001 -0.723104
0.676987 0.025000 0.169751 0.019384 0.982509 0.185202
0.825447 0.062919 0.148020 0.055426 0.990189 0.128274
0.611253 0.043959 0.052445 0.033531 0.901181 -0.432144
0.301807 0.028704 0.050336 -0.049468 0.935744 -0.349193
0.529728 0.078412 0.065675 0.056243 0.984703 -0.164916
0.565620 0.025000 0.090501 0.008827 0.998602 -0.052113
0.879875 0.055755 0.070368 -0.572618 0.158388 -0.804377
0.437971 0.088616 0.101610 -0.690764 0.108038 -0.714963
0.438668 0.077990 0.182382 -0.037950 0.985127 0.167586
0.817211 0.062919 0.092131 0.045157 0.995878 -0.078658
0.289546 0.081878 0.091656 -0.003578 0.999326 -0.036537
0.510219 0.173055 0.118573 -0.114161 -0.192484 -0.974637
0.765894 0.082489 0.099713 -0.470062 0.799541 -0.373865
0.521042 0.078186 0.182382 0.039524 0.968843 0.244500
0.144645 0.025000 0.077256 -0.078734 0.951528 -0.297312
0.755393 0.063015 0.122466 0.070174 0.951504 0.299525
0.126630 0.077097 0.143634 -0.189731 0.656974 0.729648
0.524696 0.078412 0.108635 0.046986 0.998895 0.000936
0.351710 0.111008 0.089013 0.055038 0.615764 -0.786006
0.706964 0.038853 0.043440 0.046849 0.794423 -0.605556
0.851777 0.048281 0.154630 0.185597 0.495809 0.848367
0.901824 0.033488 0.077697 0.246912 0.684047 -0.686377
0.234968 0.025000 0.124537 -0.048745 0.996827 0.062923
0.581501 0.083977 0.098958 0.553943 0.091528 -0.827508
0.943381 0.025000 0.112366 0.229901 0.971482 0.058044
0.195675 0.072753 0.059157 -0.120459 0.305186 -0.944643
0.814190 0.025000 0.129727 0.067425 0.994090 0.085077
0.240528 0.068322 0.161648 -0.079358 0.090900 0.992693
0.711365 0.078412 0.098663 0.000593 0.999992 -0.003996
0.499682 0.148086 0.114814 0.896880 -0.123607 -0.424650
0.621402 0.025000 0.099730 0.013235 0.999842 -0.011863
0.275815 0.060748 0.059763 -0.054833 -0.023312 -0.998223
0.613127 0.082352 0.165869 0.053567 0.316179 0.947186
0.455803 0.025000 0.095500 -0.008815 0.999024 -0.043290
0.781879 0.025000 0.146277 0.050556 0.985420 0.162458
0.750933 0.063024 0.136978 0.072490 0.925137 0.372648
0.577003 0.066925 0.182271 -0.028133 -0.971999 0.233293
0.504947 0.025000 0.136897 0.011867 0.996505 0.082691
0.614032 0.025000 0.144738 0.012470 0.993184 0.115888
0.366562 0.078820 0.078085 -0.024083 0.998576 -0.047599
0.850261 0.025000 0.101563 0.088960 0.996013 -0.006657
0.284073 0.066405 0.160590 -0.045085 0.001774 0.998982
0.475973 0.025000 0.154089 0.001396 0.989415 0.145110
0.379098 0.165976 0.101856 0.323578 -0.174138 0.930039
0.685044 0.078412 0.164843 0.004367 0.999680 0.024916
0.750458 0.025000 0.054896 0.044625 0.975905 -0.213583
0.433390 0.078412 0.090086 -0.034542 0.999008 -0.028090
0.879014 0.062919 0.095641 0.088762 0.978019 -0.188678
0.195112 0.081756 0.092267 -0.010988 0.995420 -0.094967
0.637106 0.078412 0.163765 0.012405 0.995243 0.096635
0.694077 0.128467 0.116943 0.719508 -0.538960 0.437985
0.566057 0.078560 0.118461 -0.810195 0.076606 0.581134
0.156280 0.025000 0.083310 -0.075126 0.967603 -0.241041
0.238337 0.025000 0.083891 -0.041820 0.985404 -0.165016
0.188636 0.025000 0.085599 -0.060243 0.985318 -0.159745
0.134212 0.079604 0.136703 -0.056441 0.959256 0.276843
0.474574 0.127423 0.059500 0.626870 0.779124 0.000000
0.557984 0.078412 0.069995 0.022667 0.986648 -0.161283
0.141563 0.081878 0.114162 -0.009930 0.999784 0.018230
0.316769 0.137940 0.115147 -0.140573 -0.957052 0.253556
0.377989 0.095658 0.120659 -0.575206 0.130092 0.807598
0.565155 0.046301 0.181625 0.104265 0.342974 0.933541
0.830111 0.057070 0.060792 0.083446 0.872648 -0.481168
0.456449 0.176695 0.104504 -0.643594 -0.228441 0.730480
0.968121 0.025000 0.108004 0.648000 0.685870 -0.331177
0.212841 0.081878 0.096291 -0.006979 0.998046 -0.062091
0.557393 0.025000 0.117591 0.008269 0.999780 0.019297
0.299138 0.040499 0.169755 -0.105569 0.620737 0.776879
0.223434 0.027759 0.060280 -0.057628 0.934892 -0.350223
0.532012 0.078412 0.156417 0.052762 0.984900 0.164890
0.898612 0.062919 0.083414 0.106929 0.966377 -0.233839
0.507147 0.078412 0.072163 0.017918 0.995206 -0.096150
0.377678 0.143594 0.118140 0.416848 -0.093496 -0.904155
0.342374 0.078820 0.148484 -0.016742 0.999860 -0.000311
0.565122 0.078412 0.137512 0.023912 0.994202 0.104837
0.501480 0.170313 0.116702 0.541111 -0.198406 -0.817211
0.503410 0.106615 0.120915 -0.497741 0.166888 0.851118
0.475105 0.043959 0.043221 -0.209875 -0.656941 -0.724141
0.772439 0.071173 0.130458 -0.358554 0.294524 0.885830
0.143780 0.081448 0.126086 -0.020175 0.994197 0.105665
0.290711 0.092071 0.084151 0.466982 -0.717164 0.517304
0.591697 0.042204 0.182212 0.031554 0.712345 0.701120
0.565419 0.078412 0.138033 0.023874 0.994027 0.106491
0.394175 0.025000 0.100082 -0.020829 0.999337 -0.029877
0.625813 0.078412 0.116217 0.012752 0.996735 -0.079733
0.504399 0.032924 0.038047 0.088971 0.712211 -0.696304
0.929421 0.048298 0.091466 0.908834 -0.409466 -0.079746
0.744476 0.041715 0.172652 0.075286 0.640120 0.764578
0.462293 0.078412 0.141359 -0.020382 0.995652 0.090889
0.554564 0.039811 0.182382 0.076483 0.521156 0.850027
0.150087 0.025000 0.097173 -0.081680 0.981088 -0.175485
0.570578 0.122232 0.097779 -0.475571 0.210454 -0.854132
0.451578 0.169899 0.118573 -0.291126 -0.187449 -0.938141
0.729631 0.063068 0.061408 0.099211 0.752282 -0.651329
0.435701 0.078412 0.121581 -0.033998 0.998896 0.032433
0.716577 0.025000 0.070084 0.029499 0.992043 -0.122398
0.375419 0.070702 0.102413 -0.685558 0.051367 -0.726204
0.802230 0.062920 0.119561 0.036788 0.997904 0.053239
0.692549 0.025000 0.095660 0.022817 0.998673 -0.046165
0.528899 0.066427 0.038047 0.107715 0.471411 -0.875311
0.851395 0.062919 0.136266 0.086664 0.988017 0.127720
0.413530 0.027984 0.181397 -0.031415 0.924730 0.379324
0.787937 0.062949 0.121943 0.046805 0.990270 0.131052
0.436481 0.078412 0.038223 -0.031758 0.991622 -0.125208
0.757773 0.063011 0.104720 0.069039 0.972906 0.220653
0.198483 0.025000 0.155750 -0.068444 0.944204 0.322171
0.279793 0.025000 0.079599 -0.035374 0.989059 -0.143217
0.377606 0.078820 0.072338 -0.029451 0.997732 -0.060531
0.634741 0.025000 0.154243 0.014766 0.989687 0.142483
0.581801 0.058005 0.048168 0.143892 0.255339 -0.956084
0.362393 0.079069 0.109198 0.928067 0.248705 0.277197
0.526104 0.047860 0.038047 0.077747 0.143936 -0.986528
0.133130 0.025000 0.104531 -0.091787 0.981295 -0.169220
0.235173 0.025000 0.072586 -0.042150 0.978878 -0.200051
0.637597 0.033348 0.180497 0.027336 0.890886 0.453404
0.568647 0.056012 0.179661 0.154883 0.314565 0.936515
0.918931 0.062919 0.102480 0.230906 0.955858 -0.181707
0.766371 0.025000 0.141607 0.045402 0.989417 0.137816
0.277733 0.053826 0.059657 -0.057451 -0.042418 -0.997447
0.589738 0.078412 0.107407 0.018682 0.998087 -0.058927
0.393128 0.025000 0.083508 -0.020826 0.996270 -0.083734
0.319298 0.081316 0.137956 -0.005354 0.988978 0.147968
0.720963 0.063085 0.119792 0.115835 0.970372 0.212038
0.568754 0.175797 0.118573 -0.142419 0.181688 0.972988
0.928353 0.062918 0.128812 0.363432 0.697105 0.618031
0.804554 0.055065 0.165543 0.077954 0.823847 0.561426
0.455970 0.052483 0.038047 -0.178799 0.159362 -0.970894
0.781176 0.062963 0.084722 0.050936 0.998409 0.024174
0.644207 0.075741 0.054560 0.074982 0.339748 -0.937523
0.949460 0.062918 0.113311 0.535775 0.793344 0.289052
0.710319 0.078040 0.120453 -0.727448 0.112012 0.676958
0.242036 0.083713 0.092036 -0.326161 0.692940 -0.643003
0.256237 0.081878 0.091630 -0.005094 0.998378 -0.056698
0.551973 0.043557 0.182382 0.073737 0.308411 0.948391
0.617072 0.078412 0.063257 0.013301 0.991455 -0.129766
0.362613 0.025000 0.162990 -0.026401 0.987872 0.153010
0.508049 0.114440 0.122650 -0.073562 0.190800 0.978869
0.570565 0.109204 0.097779 -0.414850 0.170985 -0.893680
0.446747 0.176878 0.103932 0.126515 -0.491296 0.861756
0.409533 0.025000 0.154110 -0.021553 0.989690 0.141597
0.373082 0.086107 0.104818 -0.883366 0.096836 -0.458570
0.504318 0.059028 0.182382 0.136535 0.373518 0.917520
0.299902 0.025000 0.161389 -0.033795 0.986711 0.158934
0.528826 0.025000 0.111895 0.007172 0.999955 0.006282
0.178383 0.025000 0.140275 -0.075732 0.984156 0.160316
0.275343 0.079806 0.112867 0.989949 -0.127255 -0.061699
0.774005 0.066087 0.129989 -0.202588 0.600463 0.773565
0.600671 0.029701 0.182179 0.016033 0.935326 0.353425
0.439344 0.086131 0.120232 -0.653146 0.097751 0.750896
0.625840 0.025000 0.177376 0.013693 0.978499 0.205796
0.126960 0.025000 0.085896 -0.089287 0.953831 -0.286766
0.701899 0.043959 0.054262 0.077554 0.703921 -0.706032
0.449826 0.045473 0.038047 -0.184746 0.054516 -0.981273
0.298139 0.073480 0.078765 0.365118 -0.377253 0.851099
0.687218 0.078412 0.072457 0.002863 0.999609 -0.027800
0.481706 0.078412 0.092879 -0.006929 0.998932 -0.045679
0.492582 0.078412 0.109512 0.000360 0.999997 -0.002532
0.522778 0.078412 0.102508 0.043857 0.998884 -0.017550
0.300238 0.096807 0.142968 0.463624 -0.552853 -0.692392
0.923892 0.025000 0.101522 0.197316 0.975547 -0.096823
0.328166 0.093485 0.060121 0.001331 -0.875374 0.483444
0.582761 0.025000 0.162780 0.009708 0.987116 0.159711
0.691928 0.125300 0.114040 0.453658 -0.851168 0.264020
0.264683 0.047634 0.060466 -0.082488 0.043844 -0.995627
0.625049 0.078412 0.057390 0.012052 0.992893 -0.118399
0.769738 0.062986 0.093666 0.059891 0.991413 0.116250
0.436409 0.157029 0.114950 0.852658 -0.156600 -0.498448
0.564217 0.160065 0.110616 -0.983054 0.163204 0.083482
0.810083 0.025000 0.119160 0.066622 0.997291 0.031193
0.281516 0.112792 0.097270 -0.513880 -0.769989 -0.378211
0.595475 0.025000 0.117811 0.010490 0.999192 0.038808
0.535248 0.078412 0.177707 0.047701 0.968889 0.242856
0.748764 0.055738 0.054560 0.106479 0.526615 -0.843409
0.903915 0.062919 0.107934 0.161434 0.986701 0.018954
0.284592 0.081397 0.132266 0.570690 -0.585798 -0.575459
0.287500 0.025000 0.148812 -0.035911 0.993424 0.108713
0.336957 0.025000 0.129036 -0.027284 0.998538 0.046662
0.457533 0.025000 0.072172 -0.007615 0.992551 -0.121594
0.346283 0.089516 0.160951 -0.001119 -0.003314 0.999994
0.206843 0.080171 0.139331 -0.023724 0.979275 0.201142
0.259243 0.081176 0.137270 -0.008497 0.983265 0.181982
0.633839 0.076135 0.165869 0.063484 0.474772 0.877816
0.437392 0.113716 0.118224 -0.693728 0.189768 0.694788
0.262439 0.080417 0.096810 0.540912 0.575619 -0.613251
0.849067 0.062919 0.112476 0.068879 0.995271 -0.068487
0.315383 0.096559 0.115723 -0.652712 0.000000 0.757606
0.706280 0.063115 0.161453 0.096102 0.762379 0.639955
0.582106 0.078412 0.090129 0.019315 0.992891 -0.117452
0.585956 0.126334 0.105830 0.967297 0.041360 -0.250250
0.167725 0.025000 0.138415 -0.087530 0.975951 0.199645
0.160386 0.077085 0.071581 -0.149736 0.744903 -0.650152
0.257820 0.025000 0.077228 -0.038747 0.984987 -0.168226
0.170666 0.081878 0.095632 -0.009728 0.997003 -0.076751
0.364443 0.078820 0.136242 -0.032174 0.999322 0.017915
0.846553 0.061556 0.155837 0.103608 0.920931 0.375700
0.283689 0.093219 0.088837 0.694777 -0.471224 0.543353
0.555860 0.066402 0.054560 0.123284 0.624657 -0.771106
0.616717 0.078412 0.079572 0.013508 0.991448 -0.129804
0.428792 0.025000 0.115323 -0.023065 0.999651 0.012878
0.446815 0.040795 0.182382 -0.185544 0.207132 0.960557
0.849633 0.025000 0.065380 0.109455 0.939868 -0.323524
0.447969 0.025000 0.127924 -0.013925 0.997762 0.065393
0.496132 0.025000 0.082964 0.010898 0.995740 -0.091561
0.497961 0.083796 0.109204 -0.984802 0.092994 -0.146690
0.715911 0.063095 0.109102 0.132666 0.990851 -0.024765
0.394178 0.078820 0.125656 -0.054908 0.996816 0.057816
0.434560 0.115599 0.113955 -0.907836 0.192158 0.372705
0.417137 0.078634 0.103054 -0.039396 0.999158 -0.011475
0.457610 0.078412 0.118410 -0.022874 0.999125 0.035026
0.413194 0.028915 0.181380 -0.034595 0.901851 0.430661
0.678611 0.025000 0.172724 0.019543 0.980951 0.193272
0.239216 0.025000 0.151686 -0.050650 0.975470 0.214224
0.745408 0.079197 0.130161 0.887313 0.009490 0.461071
0.918255 0.061695 0.088215 0.074445 0.925905 -0.370349
0.195666 0.025000 0.068225 -0.052960 0.968595 -0.242936
0.157051 0.037755 0.146600 -0.181073 0.407912 0.894886
0.524784 0.078412 0.123409 0.046617 0.997411 0.054755
0.137907 0.030515 0.078587 -0.124896 0.813237 -0.568372
0.411059 0.025000 0.064915 -0.021092 0.988728 -0.148227
0.572329 0.062918 0.173063 0.156455 0.348909 0.924004
0.244991 0.097762 0.096347 -0.361157 0.811229 -0.459862
0.628661 0.078412 0.139175 0.013079 0.999867 0.009693
0.690204 0.084915 0.105786 -0.646714 -0.014743 -0.762590
0.537015 0.025000 0.142932 0.007150 0.994883 0.100776
0.715328 0.025000 0.136372 0.027824 0.995767 0.087598
0.374907 0.122835 0.102940 -0.868567 0.220946 -0.443593
0.204214 0.025000 0.110264 -0.057016 0.998136 0.021779
0.904073 0.032797 0.141757 0.234418 0.755977 0.611185
0.349114 0.025000 0.157889 -0.026759 0.990574 0.134340
0.385849 0.145118 0.118573 0.005210 -0.091512 -0.995790
0.341676 0.109399 0.105836 -0.280533 0.951245 -0.128198
0.247926 0.098567 0.105433 -0.151766 0.975166 -0.161304
0.382618 0.043959 0.166491 -0.040611 0.940139 0.338363
0.564177 0.037372 0.038049 0.070076 0.647317 -0.758993
0.565491 0.062919 0.048798 0.155586 0.388336 -0.908289
0.589794 0.025000 0.069780 0.010045 0.994932 -0.100043
0.611416 0.078412 0.126657 0.015619 0.999777 -0.014236
0.504921 0.078412 0.066912 0.014325 0.993296 -0.114711
0.672438 0.043959 0.176666 0.043316 0.742809 0.668100
0.678077 0.078412 0.062015 0.004135 0.999136 -0.041345
0.325412 0.025000 0.111096 -0.028165 0.999532 -0.011925
0.615396 0.028738 0.038895 0.017789 0.955047 -0.295921
0.309275 0.081878 0.130142 -0.002605 0.998478 0.055085
0.497884 0.025000 0.105874 0.011762 0.999774 -0.017735
0.408595 0.067232 0.055841 -0.191936 0.861990 -0.469185
0.498249 0.072335 0.182382 0.038739 0.868725 0.493777
0.115086 0.050266 0.139117 -0.231379 -0.031607 0.972350
0.561716 0.078947 0.165869 0.029503 0.921529 0.387188
0.718312 0.078412 0.140805 0.000819 0.999997 -0.002147
0.239876 0.025000 0.084570 -0.041590 0.985951 -0.161777
0.204068 0.025000 0.143169 -0.061007 0.974294 0.216862
0.193882 0.066903 0.061432 -0.127381 0.074601 -0.989044
0.329571 0.071884 0.090904 -0.959271 -0.282106 -0.014660
0.512332 0.041948 0.038047 0.128132 0.119223 -0.984565
0.784010 0.025000 0.142479 0.051465 0.987023 0.152110
0.428151 0.025000 0.047322 -0.022341 0.979235 -0.201493
0.207092 0.059698 0.060355 -0.114459 -0.031703 -0.992922
0.183457 0.058769 0.154866 -0.137908 -0.062959 0.988442
0.567586 0.176878 0.110497 -0.797229 0.583772 0.153742
0.624735 0.078412 0.083209 0.012342 0.992925 -0.118100
0.679357 0.078412 0.092094 0.004225 0.999246 -0.038603
0.794022 0.078604 0.106557 0.522547 0.836452 -0.165206
0.617046 0.025000 0.171635 0.012745 0.981650 0.190264
0.374063 0.099576 0.103808 -0.863761 0.142111 -0.483447
0.261777 0.058130 0.059737 -0.067182 -0.044706 -0.996739
0.790705 0.076568 0.094163 0.437152 0.687189 -0.580233
0.772338 0.067607 0.108472 -0.394326 0.918935 -0.008146
0.242690 0.083713 0.095373 -0.292340 0.787190 -0.543018
0.624567 0.025000 0.153103 0.013634 0.990158 0.139291
0.298196 0.025000 0.098370 -0.032536 0.996831 -0.072597
0.223761 0.025000 0.060803 -0.043645 0.969223 -0.242284
0.834414 0.062919 0.097210 0.057594 0.993847 -0.094610
0.322565 0.123266 0.105090 0.509795 0.000017 -0.860296
0.306830 0.081507 0.135585 -0.004769 0.992880 0.119022
0.459631 0.066435 0.182382 -0.112455 0.538100 0.835345
0.328853 0.109603 0.126292 0.265092 -0.963884 0.025586
0.315476 0.100249 0.115878 -0.605216 0.000000 0.796062
0.472035 0.078412 0.046403 -0.012571 0.985328 -0.170206
0.668075 0.043959 0.166573 0.062637 0.792685 0.606404
0.173937 0.081878 0.096231 -0.009371 0.997385 -0.071661
0.388470 0.101347 0.097779 0.238775 0.148202 -0.959699
0.499329 0.066055 0.182382 0.091251 0.653649 0.751276
0.445123 0.153501 0.118573 0.064618 -0.116909 -0.991038
0.459227 0.096396 0.108563 0.983156 0.133278 -0.125066
0.683327 0.109012 0.104507 -0.007595 0.000020 -0.999971
0.566735 0.078412 0.080591 0.021610 0.990988 -0.132199
0.961255 0.045199 0.104789 0.533606 0.470152 -0.703008
0.546771 0.073315 0.176292 0.323954 0.749339 0.577533
0.574277 0.125300 0.112065 -0.056215 0.985312 0.161248
0.136585 0.025000 0.111229 -0.091760 0.988280 -0.121991
0.402139 0.076093 0.059476 -0.003424 0.009438 -0.999950
0.785523 0.025000 0.116522 0.055342 0.997990 0.030864
0.499290 0.025000 0.155424 0.012293 0.989911 0.141153
0.276413 0.043959 0.161123 -0.106900 0.680026 0.725353
0.549915 0.078412 0.071161 0.031149 0.988514 -0.147882
0.705692 0.078395 0.057090 0.228808 0.245350 -0.942046
0.395436 0.145925 0.115129 -0.835350 -0.112138 -0.538160
0.277434 0.025000 0.068025 -0.035643 0.983276 -0.178599
0.397118 0.078820 0.142852 -0.062731 0.992112 0.108531
0.784302 0.031364 0.168047 0.075789 0.861962 0.501276
0.319829 0.297242 0.109807 -0.617040 -0.000001 -0.786932
0.833072 0.041340 0.158953 0.172718 0.461219 0.870313
0.884812 0.054166 0.146996 0.215422 0.664348 0.715706
0.360034 0.109399 0.105166 0.609523 0.767681 -0.197858
0.327090 0.073518 0.159640 -0.802308 -0.265572 -0.534577
0.783159 0.075968 0.089904 0.256791 0.580914 -0.772397
0.228984 0.080813 0.137312 -0.014760 0.982962 0.183216
0.415744 0.035370 0.038922 -0.057527 0.635756 -0.769744
0.234581 0.060722 0.160628 -0.086517 -0.062915 0.994262
0.137180 0.079579 0.083309 -0.055786 0.958443 -0.279778
0.522869 0.078412 0.052552 0.044656 0.979430 -0.196781
0.243338 0.083713 0.126224 -0.074415 0.760060 0.645579
0.727472 0.025000 0.164521 0.031098 0.982624 0.182984
0.725496 0.063076 0.108708 0.115509 0.991817 0.054376
0.352591 0.078820 0.087280 -0.017381 0.999366 -0.031085
0.434560 0.118327 0.107602 -0.975855 0.201126 -0.085173
0.338609 0.078820 0.155313 -0.015600 0.999840 0.008727
0.588072 0.078412 0.114033 0.019222 0.999395 -0.028989
0.127764 0.025000 0.109422 -0.100288 0.988514 -0.113057
0.314114 0.152414 0.118919 0.234284 0.946289 -0.222821
0.589950 0.025000 0.126894 0.010262 0.998003 0.062329
0.376568 0.025000 0.128744 -0.024161 0.997525 0.066035
0.378984 0.053582 0.049767 -0.828120 -0.158154 -0.537777
0.895183 0.025000 0.075982 0.150457 0.915450 -0.373248
0.374470 0.154737 0.105657 0.895173 -0.141769 0.422573
0.476153 0.078412 0.153059 -0.011337 0.992623 0.120712
0.572615 0.078412 0.056150 0.019833 0.980854 -0.193730
0.520266 0.158655 0.105103 -0.808426 -0.163511 0.565430
0.951954 0.029793 0.121403 0.373524 0.787608 0.490055
0.817063 0.029984 0.162652 0.108626 0.882529 0.457540
0.100807 0.025000 0.114635 -0.149932 0.968128 0.200619
0.489383 0.043959 0.040243 0.102901 -0.268853 -0.957669
0.294260 0.032892 0.051293 -0.070739 0.855694 -0.512625
0.530832 0.045880 0.182382 0.047796 0.175875 0.983251
0.684414 0.025000 0.087891 0.021777 0.997497 -0.067271
0.325852 0.209210 0.101041 0.647196 -0.296104 -0.702467
0.321096 0.109603 0.063568 0.176380 -0.976384 -0.124755
0.487258 0.043959 0.050732 0.374473 -0.516676 0.769946
0.124303 0.081878 0.109942 -0.011271 0.999921 -0.005634
0.426829 0.025000 0.077861 -0.022650 0.994005 -0.106962
0.235400 0.083713 0.115737 -0.452439 0.840852 0.297097
0.740587 0.025000 0.078182 0.038720 0.994484 -0.097480
0.805611 0.025000 0.131010 0.062956 0.994678 0.081561
0.522629 0.077603 0.113724 0.924550 0.072649 0.374071
0.469140 0.130415 0.159464 0.464228 0.885716 0.000000
0.274658 0.033382 0.166649 -0.082202 0.825145 0.558909
0.180611 0.074082 0.062884 -0.141408 0.382701 -0.912986
0.753905 0.049123 0.054560 0.109811 0.407669 -0.906503
0.856036 0.062919 0.118022 0.074851 0.995528 -0.057630
0.579604 0.025000 0.069485 0.009589 0.994398 -0.105267
0.716546 0.063094 0.164038 0.090112 0.789144 0.607562
0.559954 0.025000 0.148892 0.008293 0.993919 0.109797
0.434560 0.111330 0.107030 -0.971138 0.176017 -0.160962
0.346834 0.078820 0.061843 -0.013167 0.999564 -0.026427
0.734296 0.078412 0.105840 0.000116 0.999998 -0.001753
0.384409 0.068723 0.177747 -0.015629 0.998668 0.049170
0.397837 0.078820 0.078546 -0.043182 0.997550 -0.055048
0.910582 0.025000 0.136941 0.135355 0.969326 0.205148
0.374013 0.146116 0.111581 0.990182 -0.110599 -0.085486
0.443483 0.025000 0.053825 -0.016450 0.983511 -0.180100
0.655100 0.085889 0.054560 0.085830 0.138512 -0.986634
0.924525 0.025000 0.124404 0.178044 0.976116 0.124491
0.455027 0.154829 0.103011 -0.490701 -0.139012 0.860168
0.714328 0.063099 0.152617 0.093438 0.803732 0.587609
0.045555 0.047439 0.111332 -0.860318 0.492668 0.130885
0.231100 0.080830 0.083020 -0.014849 0.981812 -0.189275
0.786362 0.079759 0.103926 0.379117 0.898852 -0.219852
0.515084 0.025000 0.089853 0.009877 0.997660 -0.067652
0.797825 0.025000 0.156993 0.055688 0.977760 0.202196
0.945493 0.036522 0.123795 0.443257 0.382918 0.810492
0.318050 0.137940 0.118878 -0.100304 -0.879126 0.465915
0.373518 0.081986 0.116060 -0.925067 0.084960 0.370179
0.820095 0.025000 0.154743 0.066685 0.976575 0.204583
0.792175 0.025000 0.097150 0.060217 0.995901 -0.067488
0.362393 0.103653 0.097307 0.692779 0.631867 -0.347566
0.504682 0.025000 0.042408 0.011685 0.976120 -0.216917
0.092685 0.039986 0.087811 -0.259791 0.244914 -0.934091
0.827774 0.025000 0.146063 0.071803 0.982073 0.174289
0.224578 0.081878 0.116360 -0.006043 0.999386 0.034512
0.333957 0.093925 0.089013 -0.533229 0.413871 -0.737819
0.449183 0.112243 0.097779 0.099225 0.182347 -0.978215
0.554461 0.078412 0.138065 0.026995 0.991961 0.123628
0.321279 0.101429 0.115923 0.255500 0.000000 0.966809
0.747550 0.063031 0.158708 0.073004 0.886079 0.457749
0.871257 0.060079 0.070301 0.096869 0.916963 -0.387034
0.915062 0.025000 0.096206 0.180906 0.968506 -0.171082
0.922593 0.045112 0.087293 0.365754 0.358822 -0.858761
0.668418 0.027451 0.041351 0.023604 0.961618 -0.273376
0.539293 0.025000 0.102275 0.007299 0.999530 -0.029762
0.585254 0.120247 0.117718 0.848414 0.214550 0.483902
0.326753 0.109603 0.072832 0.380874 -0.917734 -0.112688
0.329367 0.089278 0.120528 -0.926965 0.340008 0.158524
0.770646 0.025000 0.123315 0.047804 0.995727 0.079012
0.132100 0.080487 0.089474 -0.045021 0.976257 -0.211885
0.117427 0.081878 0.105215 -0.012572 0.999188 -0.038266
0.247374 0.065761 0.059759 -0.073989 -0.023858 -0.996974
0.095140 0.027170 0.131918 -0.191779 0.744947 0.638963
0.583592 0.115163 0.119380 0.730356 0.196798 0.654103
0.219334 0.025000 0.123115 -0.053431 0.995040 0.083903
0.108522 0.058945 0.139035 -0.248772 -0.097002 0.963692
0.463561 0.025000 0.052112 -0.004273 0.981994 -0.188863
0.826317 0.026926 0.160514 0.092962 0.942376 0.321380
0.697201 0.084916 0.165869 0.116753 0.189118 0.974989
0.310158 0.025000 0.112339 -0.030580 0.999313 -0.020957
0.866057 0.062919 0.118077 0.092379 0.995703 -0.006421
0.738060 0.063051 0.075064 0.099163 0.904605 -0.414556
0.455294 0.143125 0.117138 -0.518260 -0.102626 -0.849043
0.581033 0.078412 0.131525 0.021024 0.998286 0.054619
0.540976 0.078412 0.114244 0.044613 0.998630 0.027352
0.126379 0.047404 0.141106 -0.216937 0.005043 0.976173
0.397811 0.048864 0.039814 -0.199649 0.396995 -0.895843
0.210621 0.025000 0.097602 -0.052218 0.997201 -0.053516
0.322382 0.025000 0.153186 -0.028113 0.993507 0.110245
0.765917 0.025000 0.147104 0.045017 0.986954 0.154582
0.048403 0.047697 0.112384 -0.859985 0.436910 0.263697
0.587661 0.123928 0.106555 0.883108 0.220192 -0.414289
0.818241 0.062919 0.069925 0.044677 0.986147 -0.159745
0.699377 0.037080 0.177640 0.040441 0.835468 0.548049
0.385828 0.176878 0.111026 -0.055596 -0.994447 -0.089355
0.456243 0.078412 0.156147 -0.023645 0.989724 0.141019
0.508296 0.025000 0.067992 0.011142 0.990348 -0.138153
0.440259 0.078412 0.141047 -0.031927 0.996431 0.078140
0.544430 0.025000 0.105543 0.007551 0.999714 -0.022691
0.741268 0.063044 0.093540 0.096280 0.992230 -0.078805
0.552656 0.025000 0.064045 0.008049 0.990714 -0.135720
0.329123 0.092071 0.120909 -0.407029 -0.905232 -0.121993
0.595832 0.043959 0.178780 0.027960 0.761478 0.647588
0.676307 0.125300 0.113186 -0.377663 -0.919144 0.112003
0.860214 0.025000 0.141165 0.088332 0.978413 0.186829
0.520166 0.078412 0.066331 0.040048 0.988913 -0.142994
0.831713 0.041077 0.061162 0.167741 0.475303 -0.863684
0.455057 0.153198 0.103042 -0.504610 -0.134058 0.852876
0.669865 0.035823 0.179010 0.035251 0.854730 0.517874
0.424318 0.078536 0.055202 -0.036206 0.995182 -0.091112
0.560918 0.065716 0.165869 0.125869 0.609678 0.782592
0.132653 0.070784 0.147230 -0.219170 0.174780 0.959904
0.691661 0.078412 0.070543 0.002180 0.999768 -0.021433
0.376901 0.078820 0.074767 -0.029211 0.997798 -0.059555
0.886446 0.057078 0.153519 -0.124245 0.175632 0.976584
0.343377 0.078820 0.126181 -0.014591 0.999735 -0.017781
0.320705 0.160159 0.123049 0.431178 0.042580 -0.901262
0.633892 0.077165 0.054560 0.068317 0.319712 -0.945049
0.456610 0.130454 0.061208 -0.298358 -0.954454 0.000000
0.842528 0.062919 0.126441 0.064790 0.997891 -0.004056
0.486286 0.078412 0.171912 -0.004831 0.985497 0.169625
0.540699 0.078412 0.138058 0.043930 0.992582 0.113363
0.661547 0.025000 0.058923 0.018910 0.988797 -0.148066
0.384245 0.025000 0.152827 -0.022787 0.989627 0.141845
0.693647 0.129808 0.102247 0.704112 -0.426999 -0.567361
0.476062 0.043959 0.040979 -0.129033 -0.318514 -0.939095
0.353536 0.085086 0.059554 -0.002487 0.009443 -0.999952
0.798126 0.044983 0.054560 0.110405 0.409220 -0.905732
0.651222 0.025000 0.094000 0.016920 0.999305 -0.033210
0.381059 0.034659 0.179140 -0.106790 0.753130 0.649147
0.451663 0.079108 0.097779 0.458866 0.075461 -0.885295
0.137924 0.044331 0.143196 -0.214415 0.072809 0.974025
0.394108 0.025000 0.121398 -0.021003 0.998949 0.040752
0.763570 0.032421 0.170444 0.072059 0.837682 0.541384
0.350739 0.025000 0.161200 -0.026685 0.989174 0.144301
0.290098 0.117940 0.095227 -0.596211 -0.337005 -0.728670
0.543085 0.078412 0.083063 0.041711 0.994778 -0.093146
0.541491 0.078412 0.049715 0.041947 0.973384 -0.225310
0.133233 0.025000 0.129416 -0.122520 0.955747 0.267462
0.457047 0.048010 0.038047 -0.221841 0.052400 -0.973674
0.760862 0.038442 0.049672 0.084752 0.663141 -0.743681
0.740965 0.045150 0.165869 0.110139 0.363784 0.924949
0.113965 0.080530 0.129316 -0.044257 0.979662 0.195711
0.320108 0.150987 0.103726 0.000000 1.000000 0.000000
0.061841 0.079915 0.096448 -0.348986 0.676575 -0.648425
0.435783 0.159773 0.107429 0.968518 -0.156465 0.193625
0.456884 0.025000 0.130572 -0.008150 0.997132 0.075248
0.362393 0.095722 0.130188 0.705868 0.363494 0.607966
0.192954 0.081878 0.102197 -0.007786 0.999236 -0.038286
0.273789 0.025000 0.093692 -0.036373 0.993607 -0.106872
0.275843 0.073940 0.118180 0.947446 -0.197379 -0.251770
0.886986 0.025000 0.089253 0.136524 0.963448 -0.230496
0.787906 0.025000 0.151091 0.052393 0.982060 0.181146
0.352157 0.050547 0.160871 -0.013341 0.006919 0.999887
0.290496 0.029766 0.168658 -0.060806 0.912657 0.404177
0.532790 0.078412 0.059050 0.054644 0.981109 -0.185578
0.926030 0.025000 0.130385 0.174511 0.967557 0.182701
0.293033 0.092071 0.110298 0.373689 -0.925144 0.066821
0.097510 0.053042 0.084845 -0.265986 -0.038823 -0.963195
0.362393 0.111391 0.115962 0.851681 0.523739 0.018367
0.551710 0.062306 0.182382 0.157041 0.310435 0.937533
0.394617 0.056237 0.160913 -0.003416 0.015947 0.999867
0.460124 0.078412 0.039518 -0.020593 0.982521 -0.185008
0.608535 0.025000 0.071418 0.011649 0.995678 -0.092144
0.520299 0.145827 0.105139 -0.860854 -0.117235 0.495163
0.275959 0.096956 0.118562 0.980843 -0.103015 -0.165331
0.275519 0.078686 0.103316 0.979763 -0.085435 0.181010
0.217795 0.025000 0.126344 -0.054331 0.992866 0.106137
0.842336 0.062919 0.081329 0.062132 0.984006 -0.166949
0.525904 0.025000 0.048117 0.007610 0.980932 -0.194204
0.371966 0.056465 0.160793 -0.004703 0.031039 0.999507
0.622736 0.025000 0.062977 0.013376 0.992854 -0.118580
0.430455 0.025000 0.153876 -0.023115 0.990511 0.135475
0.760650 0.043692 0.049647 0.085983 0.544176 -0.834553
0.318364 0.152414 0.104860 0.118896 0.977621 0.173556
0.743648 0.025000 0.120668 0.038175 0.997666 0.056614
0.490007 0.078412 0.095386 -0.001154 0.999149 -0.041240
0.595596 0.078412 0.068197 0.016550 0.986887 -0.160562
0.321152 0.132799 0.115923 0.518126 0.000000 0.855305
0.816402 0.062919 0.146516 0.046284 0.991624 0.120582
0.836668 0.044529 0.158122 0.175574 0.374488 0.910457
0.842976 0.033125 0.156664 0.183075 0.767386 0.614493
0.653769 0.045526 0.054560 0.106056 0.225880 -0.968365
0.293597 0.092071 0.111148 0.360669 -0.931777 0.041338
0.606023 0.025000 0.058585 0.011283 0.991716 -0.127956
0.057302 0.076300 0.096103 -0.469315 0.165136 -0.867452
0.790071 0.062945 0.098323 0.044756 0.998465 0.032628
0.449519 0.025585 0.038047 -0.021215 0.965455 -0.259706
0.570503 0.025000 0.157371 0.008919 0.990219 0.139239
0.715257 0.094925 0.103824 0.008588 0.842833 -0.538108
0.454142 0.158875 0.118347 -0.368587 -0.152402 -0.917015
0.667314 0.078412 0.112523 0.006224 0.998441 -0.055464
0.334541 0.025000 0.132239 -0.027256 0.998081 0.055598
0.568063 0.066838 0.180566 -0.025988 -0.976193 0.215343
0.754626 0.058437 0.054560 0.095377 0.673043 -0.733428
0.252510 0.043959 0.162485 -0.134933 0.397797 0.907497
0.942488 0.033370 0.125098 0.417923 0.553725 0.720228
0.528581 0.074704 0.038047 0.076249 0.884739 -0.459807
0.733281 0.025000 0.170440 0.032848 0.978298 0.204581
0.522629 0.078844 0.112815 0.950584 0.077655 0.300598
0.849488 0.062919 0.080359 0.067007 0.980578 -0.184331
0.243714 0.025000 0.124615 -0.046021 0.997838 0.046922
0.482309 0.097963 0.163798 0.992836 0.119483 0.000000
0.329571 0.084245 0.061476 -0.509896 -0.797530 0.322416
0.666086 0.025000 0.112622 0.018685 0.999633 0.019595
0.580287 0.135066 0.118573 0.118608 0.061640 0.991026
0.825423 0.062918 0.158449 0.065254 0.967865 0.242858
0.153336 0.062774 0.149094 -0.186215 -0.105107 0.976871
0.449870 0.078412 0.078942 -0.026122 0.998308 -0.051945
0.198349 0.079283 0.076105 -0.035955 0.961755 -0.271542
0.872016 0.062919 0.101348 0.084413 0.984351 -0.154687
0.118053 0.025000 0.111675 -0.119653 0.992806 0.004462
0.284235 0.109603 0.113735 -0.360342 -0.927137 0.102813
0.736962 0.078412 0.109409 0.000092 0.999999 -0.001393
0.667270 0.025000 0.139104 0.018430 0.994795 0.100216
0.713103 0.060501 0.054560 0.108564 0.506138 -0.855592
0.526213 0.058154 0.182382 0.115519 0.194733 0.974030
0.455865 0.078412 0.123511 -0.023723 0.998275 0.053712
0.343521 0.042883 0.045197 -0.087044 0.704404 -0.704442
0.383893 0.057023 0.048803 -0.409314 0.462806 -0.786303
0.263325 0.069765 0.058782 -0.060493 0.117050 -0.991282
0.403996 0.071242 0.161280 -0.158953 0.932016 0.325699
0.354248 0.065601 0.059730 -0.005904 0.042171 -0.999093
0.948585 0.025000 0.118273 0.234041 0.964022 0.126042
0.816728 0.062919 0.112751 0.045673 0.998953 -0.002710
0.458004 0.156360 0.113763 -0.949013 -0.145642 -0.279577
0.458222 0.125301 0.107377 0.874115 0.311385 -0.372777
0.499185 0.134784 0.108449 0.962874 -0.072146 0.260131
0.767880 0.037393 0.169946 0.089380 0.671953 0.735181
0.482182 0.102634 0.162654 0.993554 0.113359 0.000000
0.642769 0.025000 0.173569 0.015581 0.980574 0.195530
0.377013 0.117987 0.100774 -0.723778 0.205730 -0.658650
0.328987 0.081493 0.136511 -0.003983 0.993088 0.117308
0.765270 0.070665 0.094632 -0.584814 0.268803 -0.765334
0.799835 0.067607 0.101402 0.605477 0.668542 -0.431797
0.327804 0.109603 0.061084 0.462597 -0.874654 -0.144855
0.871568 0.043243 0.070373 0.243779 0.339521 -0.908459
0.306640 0.100179 0.146943 0.536659 -0.238731 -0.809324
0.383195 0.078820 0.112426 -0.041111 0.999154 -0.001049
0.530699 0.062077 0.182382 0.107212 0.252399 0.961665
0.876635 0.062919 0.092401 0.086803 0.976884 -0.195352
0.485669 0.025000 0.105526 0.006031 0.999800 -0.019085
0.073309 0.071931 0.091174 -0.396662 0.109999 -0.911350
0.816068 0.025000 0.145490 0.066164 0.985022 0.159231
0.366253 0.025000 0.068679 -0.025499 0.992784 -0.117171
0.807294 0.073494 0.114872 0.023605 -0.956159 -0.291896
0.504857 0.025000 0.182356 0.011618 0.974500 0.224085
0.430691 0.025000 0.153463 -0.023139 0.990684 0.134199
0.686836 0.139775 0.106338 -0.147142 0.986718 0.068818
0.742133 0.025327 0.172923 0.036957 0.972302 0.230788
0.168254 0.036258 0.148945 -0.163434 0.498225 0.851505
0.308079 0.093450 0.147837 0.105939 -0.838193 -0.534986
0.458004 0.168495 0.108903 -0.956513 -0.199624 0.212682
0.583403 0.047273 0.171360 0.117004 0.212308 0.970173
0.512943 0.069551 0.097779 0.361972 0.047232 -0.930991
0.927240 0.025000 0.119167 0.189241 0.978495 0.082075
0.954345 0.044997 0.101601 0.464921 0.430282 -0.773761
0.262239 0.053187 0.059808 -0.071623 -0.040049 -0.996627
0.678263 0.105457 0.106714 -0.816365 0.000011 -0.577536
0.723080 0.058885 0.054560 0.108832 0.497426 -0.860653
0.329571 0.071010 0.137485 -0.920469 -0.203971 -0.333367
0.575926 0.025000 0.157737 0.009282 0.989721 0.142710
0.105299 0.025000 0.093771 -0.104533 0.957826 -0.267662
0.050754 0.032791 0.102374 -0.412139 0.619463 -0.668137
0.132318 0.079698 0.084497 -0.056452 0.960110 -0.273866
0.351776 0.112796 0.089013 0.024054 0.400503 -0.915980
0.060545 0.053045 0.119242 -0.494222 -0.039898 0.868420
0.802813 0.025000 0.058452 0.066901 0.964811 -0.254290
0.490770 0.043959 0.048291 0.544790 -0.612356 0.572908
0.048736 0.081878 0.110242 -0.153250 0.988179 -0.004047
0.143669 0.069458 0.149166 -0.203412 0.141665 0.968790
0.813847 0.025000 0.147389 0.064791 0.984098 0.165386
0.794749 0.066359 0.095092 0.417347 0.630975 -0.653982
0.806179 0.062919 0.137965 0.038770 0.993229 0.109510
0.535268 0.025000 0.122317 0.007099 0.999301 0.036703
0.768413 0.062989 0.111816 0.060924 0.979418 0.192430
0.517797 0.025000 0.108067 0.009360 0.999916 -0.008916
0.454693 0.077292 0.119845 0.549199 0.073162 0.832483
0.323774 0.092071 0.114667 -0.272365 -0.957249 -0.097430
0.238293 0.081878 0.106949 -0.005611 0.999984 0.000778
0.573996 0.025000 0.098588 0.009389 0.999634 -0.025376
0.712174 0.064904 0.062513 0.294557 0.427639 -0.854612
0.448612 0.025000 0.112076 -0.013497 0.999817 0.013568
0.288018 0.025000 0.167291 -0.037964 0.976094 0.214008
0.554203 0.025000 0.098398 0.008125 0.999252 -0.037821
0.369789 0.043959 0.165726 -0.040030 0.942894 0.330680
0.391568 0.056218 0.059532 -0.003593 0.017988 -0.999832
0.525101 0.025000 0.180021 0.007715 0.975857 0.218275
0.147572 0.081535 0.125857 -0.017860 0.995080 0.097449
0.564461 0.134175 0.114548 -0.953361 0.070490 0.293487
0.150847 0.081878 0.119240 -0.009390 0.999143 0.040303
0.478709 0.104702 0.059045 0.000000 0.000000 1.000000
0.840393 0.062919 0.097597 0.061850 0.992531 -0.105151
0.459227 0.091699 0.109033 0.991002 0.117048 -0.064916
0.294713 0.109603 0.113670 0.799704 0.591821 0.101100
0.392492 0.110669 0.100153 0.530173 0.181996 -0.828127
0.275343 0.079096 0.108043 0.991778 -0.101748 0.077611
0.490628 0.025000 0.164723 0.008214 0.984993 0.172397
0.296106 0.073608 0.080027 0.402709 -0.360664 0.841277
0.503770 0.039713 0.182382 0.169005 0.187789 0.967560
0.435562 0.072154 0.182382 -0.108800 0.850206 0.515086
0.660036 0.025000 0.168248 0.017519 0.983311 0.181089
0.756347 0.025000 0.129901 0.042344 0.994632 0.094414
0.693311 0.138348 0.106687 0.000000 1.000000 0.000000
0.563096 0.063790 0.054560 0.136792 0.512706 -0.847597
0.394417 0.063041 0.051590 -0.314303 0.713777 -0.625888
0.691086 0.078412 0.073741 0.002296 0.999752 -0.022169
0.357991 0.078820 0.130688 -0.024782 0.999634 -0.010848
0.804823 0.062919 0.055125 0.034580 0.982129 -0.185005
0.895843 0.025382 0.144447 0.109575 0.960873 0.254394
0.912402 0.058570 0.081955 -0.389380 0.343121 -0.854781
0.374013 0.165765 0.106240 0.950181 -0.174857 0.258033
0.672664 0.025000 0.165820 0.018930 0.984480 0.174473
0.084394 0.025000 0.118662 -0.203367 0.958988 0.197445
0.305638 0.025000 0.147273 -0.030905 0.996373 0.079288
0.319458 0.125344 0.115923 0.197270 0.000000 0.980349
0.158353 0.035788 0.146668 -0.170014 0.501441 0.848323
0.348953 0.025000 0.077405 -0.026947 0.994498 -0.101230
0.896273 0.046343 0.144347 0.286791 0.342159 0.894806
0.817691 0.025000 0.125579 0.069709 0.995132 0.069665
0.072062 0.055233 0.124718 -0.431302 -0.055759 0.900483
0.228047 0.072059 0.107535 -0.925082 0.336895 -0.175284
0.879914 0.042456 0.072301 0.262280 0.357913 -0.896163
0.590324 0.025000 0.059539 0.010004 0.991677 -0.128359
0.226885 0.081878 0.093379 -0.006394 0.997761 -0.066576
0.458880 0.130757 0.059045 0.000002 -0.000001 1.000000
0.571734 0.098716 0.097779 -0.279107 0.140254 -0.949962
0.285039 0.057392 0.160726 -0.049717 -0.024632 0.998460
0.166639 0.037182 0.071826 -0.151676 0.533213 -0.832273
0.569097 0.082447 0.098840 -0.412851 0.088087 -0.906529
0.575820 0.134704 0.118573 -0.071841 0.061671 0.995508
0.841208 0.033419 0.157073 0.179789 0.759473 0.625201
0.267540 0.072460 0.058729 -0.058312 0.264127 -0.962724
0.329537 0.025000 0.049410 -0.027537 0.981547 -0.189227
0.232732 0.080029 0.097375 -0.672979 0.566444 -0.475647
0.086284 0.044497 0.129529 -0.342294 0.030185 0.939108
0.570129 0.103157 0.122650 -0.354147 0.150848 0.922943
0.055720 0.025000 0.101025 -0.235482 0.893898 -0.381437
0.854531 0.025000 0.122235 0.088589 0.991546 0.094804
0.436310 0.142703 0.114845 0.910390 -0.103796 -0.400521
0.587099 0.103574 0.115873 0.903350 0.154349 0.400168
0.744875 0.053694 0.054560 0.109540 0.456890 -0.882753
0.498786 0.094590 0.104270 -0.875756 0.125004 -0.466289
0.151984 0.065333 0.070811 -0.190846 -0.008977 -0.981579
0.228133 0.025000 0.106611 -0.048121 0.998328 -0.032026
0.529404 0.025000 0.089924 0.007046 0.997955 -0.063525
0.695735 0.079197 0.054560 0.112952 0.239228 -0.964371
0.431033 0.028378 0.182267 -0.034142 0.916861 0.397744
0.082127 0.025000 0.094147 -0.156832 0.930622 -0.330675
0.473412 0.025000 0.047835 0.000272 0.979395 -0.201955
0.241591 0.045959 0.061234 -0.110741 0.118738 -0.986731
0.379485 0.087095 0.098231 -0.377479 0.101628 -0.920424
0.413803 0.043355 0.181411 -0.113653 0.281215 0.952891
0.575443 0.168065 0.118573 0.094858 0.173885 0.980187
0.461840 0.025000 0.111701 -0.005248 0.999934 0.010235
