0.758541 0.044160 0.116509 0.003943 0.995433 -0.095383
0.515047 0.060793 0.104263 0.028142 0.997142 -0.070115
0.724999 0.025000 0.061240 0.010311 0.991920 -0.126446
0.950519 0.044971 0.085158 0.070308 0.989187 -0.128709
0.348078 0.025000 0.091202 -0.006090 0.995227 -0.097392
0.632061 0.025000 0.115719 -0.000414 0.993727 -0.111831
0.409058 0.025000 0.094215 -0.006441 0.995453 -0.095031
0.673826 0.025000 0.124647 0.000338 0.999199 -0.040026
0.459296 0.076082 0.034685 0.078669 0.031103 -0.996415
0.453756 0.025000 0.071242 -0.005440 0.989687 -0.143142
0.430882 0.058084 0.131110 0.045167 0.939546 0.339431
0.307104 0.062001 0.117283 -0.010196 0.994455 0.104667
0.271633 0.025000 0.096333 -0.010845 0.995389 -0.095310
0.390597 0.048429 0.129749 0.171613 0.250918 0.952675
0.248835 0.062835 0.077885 -0.041459 0.994069 -0.100535
0.353320 0.061401 0.105950 0.014719 0.996877 0.077580
0.260351 0.041504 0.037905 -0.107338 0.043665 -0.993263
0.478404 0.025000 0.088444 -0.004495 0.994478 -0.104846
0.341228 0.025000 0.094755 -0.006797 0.995764 -0.091698
0.591141 0.028594 0.131717 -0.007476 0.927388 -0.374025
0.746746 0.026931 0.124911 0.000600 0.999881 -0.015429
0.939959 0.044888 0.083137 0.067272 0.984651 -0.161047
0.842000 0.044160 0.095182 0.006731 0.996919 -0.078147
0.323641 0.066136 0.117037 -0.362851 0.890029 -0.276020
0.350926 0.025000 0.033190 -0.010339 0.972458 -0.232847
0.193589 0.078934 0.077427 0.086265 0.117021 -0.989376
0.563976 0.025000 0.042810 0.000117 0.981053 -0.193740
0.151559 0.064486 0.106173 -0.095080 0.995422 -0.009781
0.275484 0.035841 0.120426 -0.057675 0.904695 0.422138
0.089871 0.025000 0.069883 -0.075463 0.947585 -0.310465
0.112954 0.025000 0.076963 -0.057362 0.980730 -0.186758
0.475430 0.025000 0.087130 -0.004632 0.994149 -0.107921
0.605770 0.033802 0.131609 -0.014393 0.581095 -0.813709
0.596011 0.096251 0.078257 0.906989 0.275648 -0.318417
0.638493 0.025000 0.090536 0.000733 0.991574 -0.129537
0.786484 0.044160 0.034567 0.028345 0.975944 -0.216170
0.282923 0.089384 0.085396 -0.693245 -0.719816 0.035730
0.617708 0.073523 0.120769 0.007162 -0.351909 -0.936007
0.658701 0.044160 0.098473 0.150995 0.984080 -0.093742
0.343590 0.067742 0.078059 0.097287 0.993308 -0.062243
0.405555 0.067742 0.092004 0.202829 0.955086 0.216035
0.462262 0.025000 0.130376 -0.004245 0.999893 -0.013981
0.328136 0.143213 0.080510 -0.049180 0.012392 0.998713
0.792607 0.025000 0.065059 0.019718 0.987623 -0.155602
0.361452 0.025000 0.112504 -0.004630 0.998828 -0.048173
0.441670 0.037232 0.130513 -0.042299 0.867322 0.495946
0.263077 0.025000 0.054987 -0.022160 0.975321 -0.219676
0.557593 0.041739 0.131963 -0.015317 0.241162 0.970364
0.758155 0.044160 0.108102 0.006330 0.993336 -0.115077
0.589020 0.078128 0.122490 -0.147887 0.455779 0.877721
0.359854 0.061374 0.113154 0.016944 0.995033 0.098090
0.098656 0.025534 0.094772 -0.091620 0.978864 0.182844
0.427650 0.061095 0.037521 0.001023 0.976528 -0.215389
0.605399 0.060793 0.073460 0.097247 0.982376 -0.159624
0.883275 0.026939 0.049219 0.099473 0.923212 -0.371194
0.320274 0.081524 0.080719 -0.480584 0.063550 0.874643
0.505937 0.060793 0.111245 0.021508 0.998042 -0.058732
0.357292 0.025000 0.063942 -0.008189 0.986720 -0.162225
0.343613 0.117668 0.072419 -0.521036 0.151225 -0.840031
0.143524 0.025000 0.072873 -0.043253 0.963632 -0.263710
0.689495 0.053061 0.067839 -0.710049 -0.648594 0.274147
0.430475 0.031132 0.129677 -0.026408 0.806246 0.590990
0.596011 0.063227 0.075396 0.969865 0.183128 0.160702
0.459911 0.044560 0.026291 -0.021128 0.096035 -0.995154
0.693019 0.044160 0.090339 0.016103 0.986009 -0.165912
0.483220 0.060866 0.120073 0.015387 0.998988 -0.042273
0.493900 0.025000 0.128210 -0.004704 0.999758 -0.021506
0.142541 0.025000 0.058876 -0.048254 0.949703 -0.309411
0.473116 0.025000 0.041215 -0.003378 0.979541 -0.201215
0.412326 0.085640 0.073309 0.905626 -0.074266 -0.417523
0.211434 0.050309 0.114726 -0.276245 -0.300296 0.912968
0.527464 0.099328 0.072982 -0.621933 0.131013 -0.772033
0.435440 0.042672 0.130317 0.016014 0.386733 -0.922053
0.273756 0.051478 0.035353 -0.107517 0.231492 -0.966877
0.770711 0.025000 0.088089 0.005939 0.997162 -0.075047
0.657971 0.044160 0.028388 0.337177 0.936234 -0.098879
0.332546 0.025000 0.037839 -0.012330 0.973474 -0.228467
0.376591 0.025000 0.032548 -0.008806 0.972952 -0.230839
0.140729 0.064677 0.060206 -0.036174 0.975069 -0.218934
0.118965 0.065061 0.069095 -0.043044 0.981032 -0.189005
0.624856 0.037987 0.025912 0.007344 0.153644 -0.988099
0.530297 0.060793 0.032719 0.034894 0.969768 -0.241519
0.464731 0.025000 0.068265 -0.004699 0.989013 -0.147756
0.338952 0.076159 0.118274 0.262675 0.351156 -0.898717
0.366501 0.025000 0.101989 -0.005461 0.997290 -0.073365
0.328063 0.080918 0.038288 0.409678 -0.910707 -0.052691
0.273516 0.062482 0.119361 -0.049221 0.994645 0.090874
0.268684 0.025000 0.107486 -0.006680 0.998337 -0.057259
0.490836 0.058790 0.025233 0.005450 0.912057 -0.410026
0.157914 0.046839 0.105553 -0.612817 -0.182334 0.768902
0.383566 0.061067 0.066144 -0.549998 0.441282 -0.709064
0.647432 0.025000 0.074230 0.001600 0.991029 -0.133639
0.259571 0.031035 0.118691 -0.014094 0.999846 -0.010464
0.242553 0.025000 0.103008 -0.007092 0.997829 -0.065476
0.353334 0.061401 0.084687 0.007417 0.999916 -0.010661
0.217413 0.030428 0.113784 -0.039292 0.804129 0.593155
0.882057 0.044435 0.107372 0.023504 0.998186 -0.055428
0.672683 0.025000 0.053800 0.007965 0.990102 -0.140125
0.250631 0.048893 0.119444 -0.061339 -0.380060 0.922926
0.592963 0.060793 0.055004 0.085876 0.971521 -0.220844
0.329688 0.152043 0.071915 -0.633850 0.516379 0.575836
0.729194 0.044160 0.084052 0.015578 0.985630 -0.168199
0.481107 0.025000 0.091909 -0.004438 0.995234 -0.097412
0.669759 0.046238 0.026576 0.017735 0.112092 -0.993540
0.667227 0.025000 0.110578 0.000709 0.997908 -0.064646
0.925276 0.038038 0.054675 0.090928 0.935810 -0.340575
0.537292 0.079645 0.078179 0.993779 -0.104338 0.038951
0.165937 0.060158 0.047749 -0.079144 0.848601 -0.523080
0.459110 0.068043 0.028636 0.412805 -0.127881 0.901797
0.576430 0.081544 0.082209 -0.915147 0.394525 0.082800
0.926253 0.025000 0.071718 0.134036 0.948817 -0.285974
0.273063 0.062488 0.053845 -0.014672 0.982736 -0.184430
0.573100 0.025000 0.070106 -0.000609 0.985611 -0.169025
0.463323 0.105853 0.086965 -0.689455 0.162520 0.705860
0.817150 0.044160 0.100922 0.006073 0.996388 -0.084699
0.263659 0.038813 0.037887 -0.104416 0.052812 -0.993130
0.739121 0.071385 0.096587 -0.220109 -0.913879 0.341143
0.269956 0.062533 0.119150 -0.052977 0.994743 0.087634
0.309586 0.075532 0.058378 -0.033205 0.878909 -0.475833
0.427477 0.025000 0.078747 -0.007227 0.991315 -0.131311
0.267553 0.069961 0.075003 -0.720637 0.682393 -0.122563
0.456538 0.058398 0.025897 -0.006002 0.890763 -0.454428
0.183419 0.054096 0.046442 -0.138891 0.426539 -0.893741
0.311807 0.068339 0.077030 -0.869818 0.041466 -0.491627
0.234223 0.063044 0.104845 -0.080592 0.996738 0.004288
0.472905 0.046021 0.025881 -0.016691 0.098603 -0.994987
0.320592 0.027345 0.124201 0.001361 0.974533 -0.224240
0.497544 0.060807 0.045595 0.012484 0.980137 -0.197929
0.340315 0.234930 0.078094 0.731890 -0.077668 -0.676982
0.458206 0.025000 0.056780 -0.004736 0.985109 -0.171866
0.323738 0.066392 0.039928 -0.355741 0.905217 0.232446
0.124498 0.064516 0.104412 -0.125245 0.992009 -0.015248
0.246716 0.062865 0.076261 -0.042404 0.993160 -0.108791
0.959606 0.045140 0.094242 0.284039 0.958387 0.028560
0.344940 0.119487 0.085385 -0.239197 0.117808 0.963798
0.464400 0.067742 0.090497 0.044897 0.968941 0.243181
0.227733 0.053161 0.117986 -0.166459 -0.030786 0.985568
0.561040 0.025000 0.069981 -0.000991 0.984908 -0.173078
0.178423 0.064013 0.084333 -0.061957 0.992577 -0.104650
0.906116 0.044623 0.064675 0.056240 0.969072 -0.240286
0.471945 0.060912 0.077872 0.010753 0.991316 -0.131062
0.397001 0.025000 0.100447 -0.005863 0.996827 -0.079380
0.803374 0.038175 0.121563 0.000128 0.999834 -0.018207
0.389290 0.043016 0.129149 0.061152 0.424090 -0.903553
0.895896 0.033613 0.107408 0.029115 0.999430 -0.017060
0.533097 0.025000 0.090593 -0.002360 0.993282 -0.115694
0.412892 0.075500 0.077611 0.993925 -0.105937 0.029835
0.435755 0.086059 0.067789 0.132872 -0.984707 -0.112681
0.638707 0.037849 0.131367 -0.016923 0.377600 -0.925814
0.578659 0.089639 0.081711 -0.740778 0.651452 0.163886
0.133853 0.058258 0.104103 -0.550667 0.830367 0.085185
0.605993 0.060793 0.046348 0.095194 0.958286 -0.269493
0.334745 0.073274 0.081109 -0.968217 0.134058 0.211150
0.252815 0.078211 0.076461 0.902522 0.247293 -0.352563
0.598145 0.051835 0.131665 0.109220 0.935856 0.335029
0.811962 0.036849 0.036892 0.025390 0.976066 -0.215988
0.821281 0.025000 0.068833 0.025078 0.984913 -0.171222
0.283837 0.088052 0.065313 -0.790861 -0.492376 -0.363462
0.195552 0.063711 0.085452 -0.065048 0.993492 -0.093502
0.067582 0.025000 0.079320 -0.113333 0.928747 -0.352966
0.795962 0.025000 0.075784 0.013468 0.992960 -0.117682
0.256045 0.077876 0.082686 0.028448 0.111635 0.993342
0.598491 0.060793 0.044895 0.089173 0.959519 -0.267154
0.735605 0.057381 0.091038 -0.751496 0.000000 0.659738
0.662131 0.045754 0.131042 -0.081327 0.584768 0.807114
0.815248 0.025000 0.068924 0.023358 0.986097 -0.164522
0.718476 0.053401 0.040747 -0.075178 0.985097 0.154703
0.500664 0.060794 0.037714 0.012408 0.976734 -0.214095
0.576430 0.077228 0.094520 -0.844902 0.393385 0.362477
0.272090 0.062502 0.070501 -0.009148 0.993084 -0.117045
0.321677 0.061793 0.127731 -0.002952 0.987626 0.156802
0.837088 0.044160 0.115249 0.001249 0.999363 -0.035661
0.498720 0.060802 0.071351 0.014484 0.989417 -0.144377
0.329266 0.025000 0.073819 -0.010259 0.989173 -0.146396
0.391254 0.077507 0.082305 -0.965321 0.144650 0.217328
0.563225 0.025000 0.081442 -0.001277 0.988509 -0.151158
0.537047 0.025000 0.046439 -0.000885 0.979708 -0.200430
0.591041 0.025000 0.113153 -0.001483 0.994748 -0.102340
0.865801 0.044307 0.054827 0.030964 0.979790 -0.197618
0.394837 0.025000 0.098737 -0.005970 0.996511 -0.083250
0.368661 0.061337 0.039691 -0.008015 0.977314 -0.211646
0.677669 0.045527 0.053635 -0.691718 -0.376133 0.616482
0.151944 0.025000 0.080643 -0.038034 0.972778 -0.228595
0.454732 0.077724 0.037099 0.985011 -0.163583 0.054709
0.373425 0.025550 0.029894 -0.009762 0.960076 -0.279569
0.390007 0.045300 0.129406 0.200662 0.759891 -0.618304
0.320822 0.076376 0.117566 0.994019 -0.054564 0.094601
0.440697 0.086059 0.082205 0.238429 -0.955938 0.171272
0.967375 0.045353 0.068054 0.566340 0.630120 -0.531233
0.329298 0.161719 0.080448 -0.370821 0.049748 0.927371
0.205677 0.025801 0.111760 -0.018544 0.996504 0.081466
0.117389 0.025176 0.097731 -0.061144 0.988731 0.136647
0.474376 0.060902 0.107185 0.013144 0.997499 -0.069445
0.238494 0.062983 0.045371 -0.024415 0.969834 -0.242539
0.382672 0.061280 0.051816 -0.004829 0.982679 -0.185255
0.593076 0.064263 0.117660 0.305308 0.855222 -0.418786
0.627587 0.060793 0.112994 0.116563 0.992930 -0.022419
0.461831 0.060954 0.098515 0.010596 0.996079 -0.087833
0.340470 0.116431 0.081780 -0.853094 0.188954 0.486341
0.711606 0.055428 0.038054 -0.218544 -0.345947 -0.912447
0.184382 0.040388 0.048190 -0.144426 0.033075 -0.988963
0.475186 0.063843 0.095324 0.310505 0.677533 0.666736
0.892161 0.044514 0.061177 0.047508 0.973026 -0.225749
0.703366 0.044160 0.029870 0.036128 0.971966 -0.232331
0.630759 0.025879 0.131425 -0.002125 0.987659 -0.156604
0.462553 0.060951 0.098794 0.010728 0.996130 -0.087236
0.696033 0.025000 0.085250 0.007001 0.996026 -0.088787
0.433046 0.061073 0.034456 0.001650 0.975137 -0.221595
0.520749 0.030016 0.132234 -0.021238 0.984760 0.172618
0.466375 0.025000 0.026783 -0.003334 0.973003 -0.230767
0.827819 0.033916 0.118415 0.000569 0.999814 -0.019282
0.355952 0.061390 0.101149 0.013003 0.998449 0.054135
0.612691 0.025693 0.131558 -0.002377 0.991405 -0.130808
0.536532 0.025000 0.075529 -0.001815 0.988949 -0.148244
0.415559 0.120711 0.070639 0.661675 0.024601 -0.749387
0.299014 0.074293 0.120197 -0.006324 -0.072097 0.997378
0.079437 0.066190 0.094798 -0.119151 0.984915 -0.125479
0.297772 0.062135 0.081934 -0.001126 0.998729 -0.050393
0.309663 0.099303 0.072301 0.687358 0.453709 -0.567174
0.576406 0.074292 0.035119 0.009177 0.000305 -0.999958
0.174995 0.064073 0.045994 -0.027946 0.964060 -0.264210
0.307244 0.075183 0.067531 0.698841 0.261309 -0.665837
0.314938 0.061198 0.127558 -0.010774 0.978623 0.205378
0.255498 0.062740 0.099448 -0.052593 0.998606 -0.004467
0.418450 0.026889 0.129216 -0.010253 0.988239 0.152573
0.177806 0.064024 0.057428 -0.038326 0.975409 -0.217047
0.243512 0.062911 0.035938 -0.025038 0.960963 -0.275540
0.041258 0.067740 0.079388 -0.151914 0.903439 -0.400900
0.499914 0.025000 0.033238 -0.001552 0.976904 -0.213674
0.585653 0.025000 0.047599 0.000636 0.983244 -0.182295
0.649186 0.044160 0.049928 0.373293 0.926339 -0.050491
0.312405 0.082890 0.081047 -0.831540 0.078164 0.549938
0.592972 0.040078 0.025677 0.002672 0.121695 -0.992564
0.285682 0.025000 0.041058 -0.019529 0.970171 -0.241635
0.306472 0.047304 0.124643 0.031010 -0.088226 0.995618
0.509166 0.025000 0.059004 -0.002052 0.986048 -0.166447
0.533338 0.025000 0.036693 -0.000641 0.977839 -0.209359
0.747067 0.033437 0.125890 0.000361 0.999763 -0.021782
0.470497 0.026978 0.026166 -0.005665 0.918760 -0.394776
0.299137 0.062115 0.055827 -0.009937 0.987474 -0.157466
0.323103 0.086270 0.067734 0.308760 -0.949815 0.050195
0.561381 0.059887 0.131935 0.069263 0.995129 -0.070154
0.420553 0.061124 0.052188 0.000934 0.982690 -0.185258
0.701103 0.025000 0.097038 0.005207 0.997674 -0.067960
0.743213 0.044160 0.104245 0.007993 0.990706 -0.135786
0.644016 0.057761 0.087826 0.197245 0.977405 -0.075979
0.408094 0.129412 0.078514 -0.007963 0.999955 -0.005093
0.287510 0.062282 0.034000 -0.018986 0.967434 -0.252410
0.349582 0.044031 0.128330 0.274458 0.575563 0.770325
0.276482 0.047172 0.121730 -0.015357 -0.197990 0.980084
0.133873 0.064798 0.069654 -0.043613 0.982225 -0.182568
0.409316 0.059381 0.026373 -0.010479 0.923293 -0.383954
0.287844 0.062277 0.075202 -0.005036 0.996294 -0.085868
0.375786 0.025000 0.125129 -0.003824 0.999801 -0.019599
0.480893 0.117794 0.087384 0.715180 0.013398 0.698811
0.911491 0.044665 0.105214 0.037796 0.998894 -0.027964
0.640979 0.028994 0.131350 -0.006470 0.897797 -0.440363
0.549946 0.060793 0.069594 0.053113 0.990017 -0.130556
0.647974 0.025000 0.130016 -0.000470 0.996103 -0.088194
0.718756 0.053311 0.119466 -0.045775 0.985809 0.161511
0.403198 0.068725 0.067977 0.386629 -0.043781 -0.921196
0.468128 0.081643 0.037325 0.375949 -0.895010 -0.240043
0.716253 0.025000 0.080607 0.007517 0.995511 -0.094345
0.584300 0.078089 0.027223 -0.302090 -0.529569 0.792653
0.245703 0.046540 0.118679 -0.061595 -0.284055 0.956828
0.609231 0.025000 0.122100 -0.001264 0.995537 -0.094364
0.890230 0.025000 0.102536 0.037452 0.999014 -0.023861
0.463054 0.025000 0.028693 -0.003589 0.973791 -0.227415
0.754217 0.044160 0.062076 0.021289 0.981624 -0.189632
0.398513 0.067742 0.077638 -0.035461 0.999331 -0.008952
0.690341 0.029750 0.130095 0.000901 0.999340 -0.036304
0.669165 0.060794 0.070617 -0.161162 -0.972841 0.166155
0.252394 0.082525 0.077920 -0.986858 0.128813 -0.097565
0.531057 0.025000 0.052758 -0.001276 0.981564 -0.191128
0.579182 0.048695 0.025576 0.004233 0.078637 -0.996894
0.292926 0.044411 0.122979 0.020310 0.008439 0.999758
0.650291 0.044160 0.116866 0.187566 0.980881 -0.051886
0.606762 0.060793 0.120352 0.100475 0.994936 -0.002785
0.371837 0.061324 0.083075 0.006261 0.999057 -0.042953
0.395713 0.061226 0.111421 0.015238 0.999019 0.041584
0.462192 0.060953 0.073434 0.008920 0.990043 -0.140482
0.669824 0.044160 0.087063 0.097188 0.986177 -0.134198
0.431796 0.087203 0.096587 -0.100034 -0.914257 0.392590
0.652691 0.044160 0.126562 0.171815 0.984015 -0.046838
0.326090 0.114151 0.076773 0.621457 -0.065588 -0.780698
0.320089 0.025000 0.060889 -0.012666 0.983449 -0.180745
0.568162 0.056951 0.131885 0.085172 0.931294 -0.354172
0.565466 0.060793 0.075300 0.065687 0.991430 -0.112921
0.144430 0.064612 0.077552 -0.051838 0.987954 -0.145807
0.335941 0.072744 0.039107 0.249340 -0.442684 0.861313
0.535624 0.092176 0.072746 0.609477 -0.033314 -0.792103
0.596011 0.094046 0.082083 0.928941 0.356425 -0.100145
0.178078 0.025000 0.075645 -0.031920 0.976233 -0.214360
0.238015 0.074069 0.081704 -0.887850 0.200632 0.414089
0.499282 0.060800 0.110446 0.017249 0.997910 -0.062274
0.067399 0.060364 0.066663 -0.166244 0.560966 -0.810975
0.237880 0.062992 0.079968 -0.055449 0.993573 -0.098687
0.664600 0.044160 0.086630 0.124567 0.984699 -0.121862
0.594689 0.025000 0.109875 -0.001287 0.993813 -0.111059
0.653086 0.025000 0.093420 0.001017 0.994260 -0.106986
0.831767 0.025000 0.058135 0.035049 0.974157 -0.223138
0.456674 0.058154 0.131452 0.043078 0.958432 0.282050
0.909379 0.044648 0.083509 0.053432 0.977738 -0.202912
0.833827 0.044160 0.092054 0.007934 0.995736 -0.091906
0.755527 0.042444 0.032117 0.029443 0.975365 -0.218623
0.655317 0.060794 0.058584 -0.101407 -0.941157 0.322398
0.459733 0.097779 0.080855 -0.966950 0.182863 0.177674
0.216282 0.063345 0.074449 -0.058071 0.989519 -0.132210
0.216839 0.025000 0.046457 -0.030526 0.964000 -0.264145
0.098724 0.065418 0.058599 -0.030814 0.970425 -0.239430
0.396654 0.061222 0.041331 -0.003542 0.978134 -0.207945
0.528761 0.071541 0.086228 -0.154127 0.027536 0.987667
0.465227 0.025000 0.040643 -0.003827 0.979093 -0.203377
0.754395 0.044160 0.123746 0.002062 0.996632 -0.081977
0.559891 0.025000 0.043127 -0.000026 0.980815 -0.194939
0.674518 0.060794 0.102763 -0.405994 -0.844419 -0.349465
0.609895 0.060793 0.081468 0.101351 0.986078 -0.131825
0.416014 0.048140 0.130311 0.306720 0.949051 -0.072280
0.658685 0.044160 0.115898 0.144863 0.986692 -0.073844
0.256109 0.062692 0.034738 -0.023848 0.961446 -0.273958
0.528221 0.060793 0.069495 0.036077 0.989699 -0.138540
0.705016 0.025000 0.073266 0.008702 0.994085 -0.108255
0.475224 0.028941 0.131396 -0.018526 0.931445 0.363410
0.747028 0.070058 0.079439 -0.012635 -0.999911 0.004260
0.746163 0.025000 0.116858 0.001880 0.999588 -0.028629
0.830571 0.025000 0.063436 0.031219 0.978952 -0.201689
0.824716 0.063047 0.080885 -0.431675 -0.875898 -0.215542
0.070312 0.066560 0.069901 -0.092368 0.908791 -0.406899
0.594388 0.060793 0.039053 0.085312 0.954508 -0.285720
0.326109 0.078701 0.030572 0.393856 -0.563870 0.725898
0.283293 0.062342 0.070690 -0.007318 0.994124 -0.107995
0.401399 0.061203 0.121715 0.018532 0.996935 0.076006
0.417054 0.027478 0.129162 -0.012421 0.977537 0.210397
0.246627 0.063590 0.070539 0.300098 0.100431 -0.948607
0.538078 0.025000 0.120378 -0.003114 0.998327 -0.057736
0.873779 0.034106 0.045742 0.053916 0.956888 -0.285408
0.480151 0.025000 0.114574 -0.005164 0.998674 -0.051220
0.623790 0.025000 0.119846 -0.000808 0.994245 -0.107127
0.079600 0.026630 0.090271 -0.151967 0.953677 0.259628
0.472394 0.060911 0.088858 0.011583 0.994084 -0.107998
0.107497 0.029334 0.096308 -0.256303 0.810600 0.526533
0.782828 0.025000 0.102591 0.003682 0.998805 -0.048731
0.551091 0.034441 0.025369 -0.002990 0.358279 -0.933610
0.463178 0.125052 0.080712 -0.861273 0.412028 0.297391
0.464731 0.060942 0.054153 0.007968 0.983517 -0.180638
0.362356 0.025000 0.098700 -0.005667 0.996714 -0.080807
0.918896 0.025000 0.074203 0.101774 0.975576 -0.194661
0.295033 0.106585 0.089849 0.301111 0.165142 0.939180
0.594682 0.071602 0.029086 -0.378648 -0.442232 0.813054
0.569224 0.025000 0.128679 -0.002528 0.998289 -0.058412
0.950627 0.033677 0.096102 0.111057 0.993704 0.014777
0.668016 0.025000 0.115899 0.000528 0.998270 -0.058801
0.621939 0.074006 0.120787 0.009319 0.255745 -0.966699
0.382742 0.025000 0.089920 -0.006512 0.994648 -0.103118
0.463580 0.127677 0.080631 -0.610558 0.735426 0.293883
0.268961 0.030454 0.037785 -0.060321 0.680313 -0.730435
0.594270 0.032699 0.131694 -0.013587 0.674684 -0.737982
0.144117 0.057027 0.052028 -0.128201 0.651033 -0.748144
0.331893 0.162320 0.077352 -0.334686 -0.941614 0.036705
0.447305 0.061014 0.054758 0.005289 0.983725 -0.179601
0.371350 0.061326 0.047908 -0.005823 0.982513 -0.186104
0.331741 0.033917 0.031565 -0.054933 0.348696 -0.935625
0.611468 0.060793 0.113648 0.103837 0.994479 -0.015120
0.639140 0.025000 0.078948 0.001186 0.990362 -0.138496
0.652112 0.025478 0.131162 -0.000354 0.996663 -0.081623
0.950289 0.044969 0.067709 0.082995 0.960077 -0.267139
0.837632 0.025000 0.075612 0.025049 0.986425 -0.162290
0.194971 0.051383 0.045121 -0.143206 0.183887 -0.972460
0.223259 0.057576 0.118177 -0.233882 0.769392 0.594420
0.060193 0.037770 0.085992 -0.170125 0.077288 0.982387
0.691566 0.041319 0.027376 0.034480 0.972707 -0.229461
0.565449 0.060793 0.062432 0.064804 0.984874 -0.160696
0.538852 0.025000 0.047178 -0.000855 0.979956 -0.199213
0.519915 0.025000 0.128897 -0.003849 0.999539 -0.030113
0.160861 0.062274 0.109438 -0.225875 0.973410 0.038117
0.694294 0.044160 0.053850 0.028581 0.977966 -0.206796
0.558392 0.035728 0.131957 -0.063818 0.975728 0.209480
0.298435 0.087873 0.114046 -0.299333 -0.925123 0.233552
0.707828 0.025000 0.121824 0.001472 0.999695 -0.024665
0.120148 0.048962 0.099528 -0.940837 0.088538 0.327088
0.085692 0.045920 0.092709 -0.886707 0.191888 0.420631
0.528315 0.083857 0.071914 -0.204128 0.054607 -0.977420
0.531328 0.060793 0.075322 0.038916 0.991370 -0.125187
0.573314 0.060793 0.114862 0.074219 0.996888 -0.026558
0.454446 0.063074 0.062057 -0.375887 0.601200 -0.705172
0.251306 0.079246 0.073768 0.676441 0.250966 -0.692419
0.588108 0.076217 0.027906 -0.337954 -0.531750 0.776550
0.623707 0.052587 0.131477 0.089382 0.693880 0.714522
0.339948 0.067742 0.082049 0.015164 0.990499 0.136684
0.329876 0.063958 0.070719 -0.632465 0.637579 -0.439864
0.479785 0.120308 0.087953 0.628763 0.032337 0.776924
0.252394 0.076624 0.077531 -0.963152 0.103414 -0.248283
0.607230 0.025000 0.065281 0.000670 0.987005 -0.160686
0.519958 0.025000 0.025610 -0.000657 0.974887 -0.222700
0.267582 0.062567 0.093661 -0.034168 0.999194 -0.021075
0.152100 0.025000 0.061673 -0.044507 0.956074 -0.289728
0.744532 0.044160 0.111624 0.005863 0.993023 -0.117778
0.227625 0.052205 0.117769 -0.151910 -0.166329 0.974299
0.261917 0.025000 0.070011 -0.019875 0.983364 -0.180553
0.203122 0.025000 0.046640 -0.034523 0.959593 -0.279265
0.384297 0.061273 0.058282 -0.002681 0.986867 -0.161511
0.433065 0.036275 0.027202 -0.031148 0.155584 -0.987331
0.644109 0.060794 0.090565 -0.095911 -0.920047 -0.379888
0.466601 0.072323 0.120168 0.155903 -0.232663 -0.959980
0.226791 0.051858 0.117560 -0.154823 -0.204682 0.966507
0.323765 0.066466 0.121900 -0.349766 0.899653 0.261322
0.201862 0.084452 0.081310 0.351720 -0.871937 -0.340615
0.269503 0.025000 0.111297 -0.005344 0.998984 -0.044754
0.383355 0.061277 0.043406 -0.005473 0.978989 -0.203839
0.030366 0.061787 0.080040 -0.389971 0.114779 -0.913646
0.535702 0.067742 0.078509 0.305547 0.944591 -0.119951
0.397494 0.114561 0.071457 -0.800143 0.193033 -0.567899
0.502494 0.025000 0.062461 -0.002336 0.987796 -0.155735
0.473631 0.059396 0.131839 0.030962 0.990567 0.133484
0.579863 0.077021 0.096587 -0.632603 0.480726 0.607219
0.843300 0.025000 0.101022 0.009563 0.997518 -0.069757
0.172661 0.026315 0.050840 -0.056092 0.911898 -0.406566
0.466956 0.060933 0.044950 0.007668 0.979839 -0.199640
0.416272 0.058484 0.026405 -0.013524 0.887257 -0.461077
0.582169 0.081821 0.116447 -0.352351 -0.806125 0.475407
0.582887 0.025000 0.037722 0.000915 0.981583 -0.191032
0.618581 0.060793 0.035048 0.103498 0.939393 -0.326848
0.816631 0.031431 0.119027 0.000681 0.999824 -0.018730
0.147144 0.025000 0.072823 -0.042189 0.964773 -0.259680
0.880169 0.041773 0.111885 0.019038 0.999648 -0.018502
0.393900 0.047102 0.129686 0.310381 0.771065 0.555989
0.442373 0.025000 0.123308 -0.004585 0.999568 -0.029029
0.814581 0.044160 0.050300 0.020850 0.980611 -0.194854
0.343291 0.067742 0.088585 0.244872 0.905444 0.346712
0.818173 0.044160 0.106918 0.004337 0.997537 -0.070014
0.431304 0.025285 0.129709 -0.004889 0.999940 0.009797
0.085570 0.051926 0.093478 -0.948336 0.315771 0.030785
0.743154 0.044160 0.111930 0.005830 0.992977 -0.118166
0.447226 0.061014 0.105943 0.011688 0.998595 -0.051684
0.469177 0.077212 0.090049 -0.020769 0.024879 0.999475
0.301524 0.106535 0.067531 -0.057632 0.181308 -0.981736
0.644016 0.057011 0.077361 0.213977 0.971447 -0.102496
0.655210 0.044160 0.069886 0.255302 0.963337 -0.082475
0.332152 0.071205 0.029530 0.273818 -0.320086 0.906956
0.637291 0.060793 0.118421 0.124391 0.992174 -0.010864
0.429674 0.061086 0.059672 0.002879 0.985507 -0.169612
0.398017 0.025000 0.035622 -0.007640 0.975013 -0.222015
0.435084 0.025000 0.028214 -0.005223 0.972717 -0.231934
0.325109 0.162207 0.073376 0.122374 -0.990386 0.064493
0.745224 0.025000 0.101616 0.004149 0.998485 -0.054865
0.392363 0.025000 0.100689 -0.005802 0.996901 -0.078447
0.758571 0.044009 0.065426 0.897133 0.000000 -0.441761
0.725976 0.057749 0.038784 0.007869 0.823166 -0.567746
0.408922 0.061172 0.110200 0.014398 0.999728 0.018339
0.515611 0.060793 0.037413 0.023906 0.977476 -0.209689
0.348477 0.080158 0.075150 0.913770 -0.092739 -0.395504
0.961672 0.032871 0.089010 0.446298 0.884187 0.137957
0.727633 0.027288 0.126817 0.000465 0.999894 -0.014548
0.437454 0.025000 0.088287 -0.006922 0.993847 -0.110542
0.209887 0.045296 0.043540 -0.135837 0.014839 -0.990620
0.313318 0.029996 0.123757 0.007564 0.868120 -0.496296
0.241576 0.038053 0.117241 -0.037944 0.135848 0.990003
0.286616 0.067949 0.063558 -0.277608 0.595227 -0.754081
0.486499 0.025000 0.108123 -0.004599 0.997967 -0.063564
0.279916 0.025000 0.117146 -0.003718 0.999602 -0.027961
0.216815 0.038021 0.043335 -0.129129 0.046208 -0.990551
0.663760 0.060794 0.088975 -0.201641 -0.965008 -0.167633
0.713629 0.025000 0.099395 0.004749 0.998038 -0.062426
0.466531 0.088220 0.089277 -0.330272 0.084838 0.940065
0.596011 0.068181 0.074308 0.977801 0.204100 0.047426
0.735605 0.061351 0.073598 -0.984290 0.000000 -0.176560
0.713170 0.064158 0.124486 -0.355635 -0.869948 -0.341634
0.357887 0.025000 0.078367 -0.007134 0.991695 -0.128414
0.294424 0.030306 0.122027 0.008576 0.848776 -0.528683
0.832869 0.044160 0.100063 0.005705 0.997231 -0.074142
0.665681 0.047204 0.026404 0.016141 0.052361 -0.998498
0.230717 0.063094 0.075778 -0.059725 0.990860 -0.120954
0.330711 0.153474 0.084416 -0.655900 0.457919 -0.600087
0.114290 0.065143 0.102280 -0.098020 0.994659 -0.032341
0.959542 0.025000 0.081321 0.402124 0.908315 -0.115153
0.335388 0.082309 0.032423 0.334062 -0.924510 0.183532
0.536558 0.060794 0.026965 0.039220 0.961809 -0.270897
0.602362 0.060793 0.098064 0.096045 0.993810 -0.055838
0.060536 0.025000 0.077508 -0.121286 0.892216 -0.435018
0.527880 0.060793 0.033359 0.033079 0.971102 -0.236362
0.424745 0.086060 0.061950 -0.171245 -0.922290 -0.346491
0.713131 0.064165 0.032186 -0.348069 -0.762062 0.545994
0.746588 0.025000 0.040732 0.023291 0.979381 -0.200674
0.397764 0.053021 0.027384 -0.043703 0.435722 -0.899020
0.432066 0.090679 0.060794 0.078874 -0.676719 -0.732005
0.321591 0.071521 0.125666 0.623129 -0.433410 -0.651050
0.098632 0.065419 0.062061 -0.036536 0.974014 -0.223521
0.235311 0.051634 0.118484 -0.115461 -0.234557 0.965221
0.789548 0.044160 0.051157 0.022418 0.980105 -0.197208
0.468065 0.062745 0.062057 0.052718 0.632567 -0.772709
0.860271 0.025000 0.075539 0.036339 0.986609 -0.159003
0.576430 0.087435 0.062688 -0.872989 0.324730 -0.363925
0.932790 0.027719 0.098465 0.064734 0.997900 -0.002032
0.188323 0.025000 0.066728 -0.031979 0.972286 -0.231598
0.469139 0.078332 0.026832 0.320358 -0.732956 0.600121
0.581119 0.089639 0.094269 -0.406386 0.712334 0.572216
0.292564 0.086270 0.096290 -0.291276 -0.954651 0.061645
0.273939 0.025000 0.056421 -0.020334 0.977149 -0.211579
0.858683 0.025000 0.050886 0.051558 0.965646 -0.254695
0.942337 0.040810 0.100029 0.056663 0.998306 -0.013198
0.596011 0.082103 0.082963 0.932959 0.337723 0.124627
0.967770 0.045364 0.075898 0.621345 0.688508 -0.374015
0.303279 0.025000 0.048280 -0.016240 0.975950 -0.217387
0.206283 0.076171 0.078355 0.954774 -0.014030 -0.297001
0.494785 0.060818 0.106261 0.016267 0.997335 -0.071126
0.217433 0.025000 0.054218 -0.027653 0.970764 -0.238440
0.221202 0.063259 0.084395 -0.067317 0.993813 -0.088342
0.455091 0.047205 0.131124 0.040748 0.382569 -0.923028
0.421254 0.091748 0.091043 -0.665187 -0.527987 0.527973
0.554866 0.038703 0.131983 -0.042089 0.494334 0.868253
0.773488 0.037939 0.123932 0.000467 0.999523 -0.030887
0.891021 0.025000 0.057139 0.102703 0.942260 -0.318746
0.407543 0.085122 0.088510 0.371464 -0.009045 0.928403
0.309083 0.025000 0.113185 -0.006485 0.998795 -0.048643
0.334342 0.025000 0.056651 -0.010700 0.982819 -0.184264
0.295405 0.086270 0.048503 -0.336765 -0.900582 -0.274848
0.827695 0.044160 0.074676 0.013081 0.990501 -0.136885
0.656417 0.060794 0.095699 -0.183243 -0.911443 -0.368366
0.141218 0.054124 0.104083 -0.801593 0.578118 0.152410
0.940835 0.027290 0.096742 0.071475 0.997442 0.000362
0.406568 0.098135 0.089568 0.192348 0.039215 0.980543
0.514767 0.025000 0.091357 -0.002876 0.994593 -0.103811
0.046415 0.047960 0.084033 -0.660901 -0.162705 -0.732624
0.700851 0.025000 0.029127 0.018504 0.980182 -0.197234
0.861752 0.029691 0.113043 0.009393 0.999769 -0.019324
0.699892 0.025720 0.028186 0.017759 0.980497 -0.195731
0.621256 0.025000 0.078242 0.000637 0.989368 -0.145434
0.247071 0.062860 0.080156 -0.045402 0.994723 -0.092009
0.159149 0.064352 0.101691 -0.086154 0.995826 -0.030133
0.330945 0.072963 0.127657 0.265954 -0.324058 -0.907885
0.525726 0.060793 0.099236 0.036144 0.996389 -0.076832
0.435805 0.061061 0.042293 0.002625 0.978655 -0.205494
0.107934 0.040064 0.096908 -0.615637 -0.028186 0.787525
0.132261 0.039660 0.100832 -0.423426 -0.126233 0.897093
0.504552 0.025000 0.064078 -0.002330 0.988129 -0.153606
0.635587 0.025000 0.113547 -0.000219 0.993675 -0.112298
0.321985 0.086270 0.068103 0.288157 -0.956423 0.047124
0.262610 0.052664 0.121124 -0.088293 -0.050860 0.994795
0.412621 0.074370 0.080076 0.961198 -0.104587 0.255264
0.247966 0.062848 0.060442 -0.027139 0.984238 -0.174754
0.738815 0.043567 0.126502 0.001812 0.996409 -0.084650
0.722741 0.062340 0.034442 -0.439829 -0.863268 0.247626
0.353409 0.061400 0.115818 0.018030 0.992878 0.117766
0.852996 0.025000 0.060699 0.041441 0.973877 -0.223264
0.313645 0.061908 0.076863 -0.000394 0.998206 -0.059863
0.893262 0.025000 0.053284 0.125395 0.908969 -0.397557
0.644016 0.054400 0.063082 0.272027 0.956765 -0.102967
0.320210 0.092672 0.078103 -0.895278 0.111742 -0.431266
0.781503 0.044160 0.074686 0.014913 0.985017 -0.171810
0.257018 0.025407 0.039263 -0.026331 0.956587 -0.290254
0.296019 0.025000 0.071392 -0.015748 0.985838 -0.166959
0.593985 0.069108 0.060794 0.839427 0.316541 -0.441775
0.448903 0.061007 0.046683 0.004974 0.980534 -0.196288
0.822368 0.035606 0.119255 0.000418 0.999818 -0.019052
0.321305 0.076310 0.125267 0.813237 -0.533617 -0.232161
0.704206 0.038202 0.129067 0.001742 0.997123 -0.075775
0.311687 0.061936 0.037614 -0.014109 0.975097 -0.221330
0.811814 0.043448 0.036289 0.025023 0.977575 -0.209095
0.597739 0.041336 0.131668 -0.022433 0.557398 0.829942
0.613631 0.060793 0.123542 0.105921 0.994354 0.006401
0.650185 0.044160 0.048398 0.366891 0.928581 -0.055931
0.436288 0.025000 0.052847 -0.005914 0.983161 -0.182643
0.622392 0.060793 0.095629 0.112041 0.989843 -0.087510
0.483252 0.025000 0.090513 -0.004269 0.994980 -0.099984
0.420254 0.059453 0.026222 -0.008070 0.927396 -0.373994
0.469073 0.025000 0.112994 -0.005607 0.998449 -0.055385
0.225697 0.063179 0.084624 -0.068071 0.993994 -0.085683
0.447647 0.061012 0.124209 0.017906 0.999580 0.022787
0.460937 0.060958 0.060747 0.007837 0.985928 -0.166984
0.309663 0.080097 0.070499 0.833559 0.290752 -0.469726
0.676955 0.025000 0.044024 0.010710 0.987379 -0.158009
0.346935 0.025000 0.089635 -0.006266 0.994844 -0.101221
0.171555 0.041157 0.050130 -0.150376 0.028582 -0.988216
0.309026 0.052081 0.125516 0.016255 0.113441 0.993412
0.095422 0.049996 0.061924 -0.190841 0.050242 -0.980334
0.307835 0.075532 0.069111 0.079826 0.966953 -0.242137
0.352046 0.031481 0.127202 0.008701 0.803922 -0.594671
0.192222 0.072900 0.077427 0.119418 -0.528367 -0.840575
0.143163 0.041337 0.102755 -0.403774 -0.184115 0.896141
0.696359 0.025000 0.069525 0.009330 0.993242 -0.115683
0.783233 0.032500 0.122441 0.000414 0.999852 -0.017196
0.670011 0.025000 0.118451 0.000480 0.998610 -0.052714
0.185075 0.025000 0.090880 -0.024358 0.987535 -0.155504
0.425149 0.061105 0.061288 0.002284 0.986072 -0.166306
0.415391 0.061145 0.030250 -0.001387 0.973099 -0.230385
0.462061 0.025000 0.072572 -0.004987 0.990230 -0.139352
0.309001 0.047656 0.124931 0.033652 -0.096668 0.994748
0.799865 0.027485 0.119903 0.000864 0.999839 -0.017899
0.880203 0.026300 0.048774 0.098796 0.923288 -0.371184
0.862783 0.044284 0.085663 0.020220 0.992333 -0.121927
0.216194 0.025000 0.079839 -0.018920 0.987654 -0.155504
0.793091 0.044160 0.108901 0.004751 0.996332 -0.085437
0.469655 0.074867 0.035632 -0.008415 0.992424 -0.122570
0.827833 0.025000 0.087063 0.014672 0.994087 -0.107589
0.343943 0.025000 0.085692 -0.007037 0.993698 -0.111865
0.689495 0.046092 0.069127 -0.902995 -0.407676 0.135645
0.578614 0.025000 0.058616 -0.000002 0.984368 -0.176125
0.650297 0.044160 0.115550 0.188010 0.980715 -0.053394
0.739369 0.072758 0.060794 -0.170287 -0.785252 -0.595299
0.326215 0.086270 0.050230 0.376405 -0.926424 -0.007592
0.081368 0.061875 0.094964 -0.402433 0.914155 -0.048667
0.280103 0.033161 0.120786 -0.009956 0.946419 -0.322787
0.371378 0.061326 0.033071 -0.008039 0.974289 -0.225158
0.421254 0.090261 0.061997 -0.705498 -0.612544 -0.356457
0.762306 0.044160 0.085219 0.012710 0.986631 -0.162474
0.571483 0.048672 0.131861 0.077373 0.959605 0.270502
0.403292 0.025000 0.094044 -0.006399 0.995458 -0.094988
0.343548 0.040957 0.127580 0.122647 0.611196 -0.781919
0.405610 0.050814 0.130159 0.132093 0.468284 0.873649
0.347661 0.061424 0.027955 -0.011844 0.972098 -0.234277
0.254782 0.087849 0.082605 -0.191592 0.158137 0.968651
0.348990 0.079670 0.076512 0.974135 -0.100936 -0.202170
0.667769 0.044160 0.088954 0.107243 0.986086 -0.127013
0.657317 0.044160 0.031889 0.334867 0.937443 -0.095206
0.512963 0.025000 0.095208 -0.003039 0.995479 -0.094930
0.172240 0.064122 0.058918 -0.038946 0.976288 -0.212941
0.924372 0.025000 0.088691 0.068915 0.996712 -0.042612
0.503713 0.054526 0.132359 0.025946 0.783519 -0.620825
0.305204 0.095962 0.089849 0.582073 0.331682 0.742413
0.697718 0.025000 0.046240 0.012754 0.987802 -0.155195
0.844703 0.032831 0.116587 0.000742 0.999799 -0.020050
0.447080 0.025000 0.068628 -0.005757 0.988771 -0.149326
0.316790 0.089530 0.037844 0.418141 -0.835471 -0.356576
0.400893 0.061205 0.104843 0.012826 0.999891 0.007272
0.626512 0.060793 0.041767 0.110555 0.944511 -0.309317
0.133528 0.025000 0.068929 -0.047562 0.956488 -0.287870
0.245735 0.062879 0.116360 -0.077345 0.995198 0.059997
0.400378 0.037362 0.129211 0.001532 0.660134 -0.751146
0.754459 0.025346 0.123873 0.000756 0.999875 -0.015765
0.662605 0.049204 0.026334 0.016106 0.026189 -0.999527
0.756367 0.044160 0.087005 0.012537 0.986834 -0.161248
0.246206 0.083954 0.086271 0.298751 0.347187 0.888937
0.329202 0.056944 0.128124 0.025368 0.768891 0.638877
0.132838 0.064816 0.079219 -0.056257 0.988564 -0.139916
0.440354 0.025370 0.130057 -0.005219 0.999843 0.016934
0.341918 0.287117 0.078477 -0.992987 0.112050 -0.037710
0.350987 0.025000 0.081431 -0.006842 0.992670 -0.120663
0.325997 0.068742 0.126781 0.270468 -0.194682 -0.942839
0.534723 0.060793 0.106360 0.043625 0.997330 -0.058556
0.596647 0.025000 0.080499 -0.000239 0.988316 -0.152421
0.071796 0.025000 0.073850 -0.103167 0.911604 -0.397912
0.070727 0.062577 0.065128 -0.133523 0.728911 -0.671461
0.146792 0.028142 0.054880 -0.083626 0.810126 -0.580260
0.962072 0.038735 0.091440 0.516790 0.830853 0.206426
0.221839 0.059733 0.118396 -0.202873 0.932602 0.298490
0.309663 0.106092 0.082463 0.966685 0.255582 -0.014037
0.715008 0.063809 0.122977 -0.382562 -0.876376 -0.292595
0.178828 0.064006 0.055961 -0.037163 0.974185 -0.222673
0.543352 0.025000 0.089361 -0.002048 0.992284 -0.123966
0.431674 0.025000 0.087304 -0.007167 0.993558 -0.113100
0.688611 0.044160 0.065031 0.025158 0.980478 -0.195012
0.302560 0.075532 0.072933 0.063245 0.985161 -0.159558
0.401584 0.128894 0.086012 -0.250608 0.860329 0.443880
0.252653 0.062780 0.119504 -0.072289 0.994362 0.077581
0.069905 0.050235 0.089659 -0.897732 0.015267 -0.440278
0.398884 0.061213 0.091660 0.008354 0.998973 -0.044533
0.833793 0.044160 0.072701 0.013404 0.990536 -0.136598
0.313189 0.061914 0.126475 -0.011267 0.989194 0.146179
0.413508 0.025000 0.055443 -0.007343 0.983571 -0.180374
0.275179 0.025000 0.106516 -0.007329 0.998039 -0.062172
0.610913 0.060793 0.102201 0.103006 0.993509 -0.048256
0.255340 0.069780 0.074528 -0.110721 0.072640 -0.991193
0.626682 0.049186 0.025925 0.013241 0.076612 -0.996973
0.331113 0.045987 0.126886 0.077020 0.051433 0.995702
0.328940 0.061689 0.089814 0.006514 0.999963 0.005554
0.340667 0.031312 0.126417 0.010192 0.780815 -0.624679
0.139771 0.062396 0.051190 -0.055444 0.915789 -0.397815
0.158379 0.060885 0.108660 -0.325012 0.943908 0.058353
0.663828 0.033973 0.026459 0.019982 0.978206 -0.206672
0.466380 0.057008 0.131576 0.047530 0.984430 0.169229
0.760904 0.070058 0.089991 0.188935 -0.932391 0.308140
0.181643 0.063956 0.085471 -0.063340 0.993106 -0.098637
0.328492 0.080999 0.125995 0.392674 -0.810247 -0.435094
0.321013 0.076187 0.032523 0.924077 -0.097925 0.369448
0.336865 0.093134 0.077138 -0.953198 0.163543 -0.254298
0.790912 0.025087 0.120317 0.000983 0.999847 -0.017452
0.413232 0.025000 0.098434 -0.006166 0.996328 -0.085399
0.311888 0.088440 0.078608 -0.995858 0.090907 -0.001330
0.584279 0.076380 0.027228 -0.285242 -0.455198 0.843464
0.716381 0.044160 0.113130 0.006524 0.990605 -0.136599
0.341813 0.067742 0.069991 -0.081995 0.931412 -0.354609
0.415893 0.067742 0.091689 0.390218 0.911369 0.130910
0.330118 0.025000 0.123679 -0.003674 0.999810 -0.019125
0.922852 0.044030 0.104393 0.043209 0.998934 -0.016239
0.659932 0.044160 0.129897 0.133402 0.989183 -0.060993
0.575944 0.060793 0.054542 0.072441 0.976263 -0.204116
0.342129 0.048354 0.128219 0.081248 -0.009187 0.996652
0.318792 0.061834 0.123425 -0.002459 0.990494 0.137537
0.788387 0.025000 0.070698 0.014791 0.991485 -0.129377
0.304550 0.051407 0.124992 0.011334 0.019607 0.999744
0.759818 0.062501 0.087809 0.930926 0.000000 0.365209
0.651780 0.025000 0.035734 0.004252 0.986366 -0.164513
0.538741 0.062154 0.089433 0.494885 0.452155 0.742054
0.862246 0.025000 0.111840 0.013171 0.999779 -0.016405
0.696685 0.025000 0.046627 0.012706 0.987886 -0.154660
0.486667 0.025000 0.066020 -0.003329 0.988764 -0.149447
0.748698 0.025330 0.124424 0.000724 0.999880 -0.015498
0.104326 0.032679 0.095922 -0.436469 0.442641 0.783303
0.661291 0.044160 0.104422 0.135472 0.986370 -0.093390
0.330034 0.074381 0.111376 0.326363 -0.438728 0.837261
0.477734 0.033011 0.025888 -0.013015 0.475431 -0.879657
0.827399 0.044284 0.073841 0.280546 0.793870 -0.539503
0.443152 0.090372 0.074768 0.730648 -0.676114 -0.094995
0.629855 0.040258 0.131432 -0.022331 0.746515 -0.664994
0.492635 0.054856 0.132189 0.030301 0.860329 -0.508837
0.232693 0.025000 0.087326 -0.012301 0.993246 -0.115373
0.613578 0.049102 0.025829 0.010466 0.074550 -0.997162
0.687677 0.044160 0.104931 0.011465 0.988601 -0.150121
0.330230 0.145672 0.079782 0.878842 -0.095572 0.467443
0.362449 0.025000 0.034264 -0.009695 0.973319 -0.229252
0.890902 0.032532 0.108120 0.026515 0.999501 -0.017159
0.735949 0.044160 0.116909 0.004705 0.993650 -0.112418
0.396696 0.025000 0.069402 -0.008159 0.988272 -0.152488
0.420909 0.042358 0.129858 0.018094 0.335539 -0.941852
0.283663 0.086270 0.091536 -0.437297 -0.898421 0.040141
0.226763 0.040134 0.041497 -0.125894 0.038260 -0.991306
0.686656 0.060794 0.096846 -0.488971 -0.859114 -0.151100
0.668594 0.042637 0.130823 -0.012636 0.680027 -0.733078
0.596011 0.086364 0.087492 0.906229 0.371715 0.201437
0.383566 0.063070 0.079552 -0.773034 0.627811 0.090949
0.233336 0.063057 0.101876 -0.079110 0.996827 -0.008795
0.861467 0.025000 0.081867 0.032869 0.990535 -0.133270
0.120452 0.065035 0.082662 -0.064985 0.990052 -0.124793
0.856680 0.025000 0.082769 0.029145 0.990467 -0.134634
0.188843 0.065697 0.078378 -0.487969 0.872098 -0.036499
0.753520 0.044160 0.075580 0.016688 0.984512 -0.174522
0.689495 0.050771 0.091030 -0.741475 -0.592070 -0.315703
0.335041 0.188248 0.077362 0.660103 -0.070228 -0.747885
0.472502 0.057705 0.025661 -0.003672 0.858134 -0.513413
0.777684 0.025000 0.072955 0.010347 0.993946 -0.109379
0.595297 0.025000 0.130506 -0.001887 0.997587 -0.069402
0.325522 0.137023 0.078059 -0.938798 0.116221 -0.324270
0.263508 0.032203 0.038260 -0.080480 0.513141 -0.854523
0.377566 0.053725 0.129831 0.081730 0.503833 0.859926
0.928642 0.025000 0.097389 0.065561 0.997837 -0.004777
0.895894 0.044543 0.059049 0.050667 0.970303 -0.236526
0.390685 0.079600 0.077241 -0.960471 0.146986 -0.236410
0.689495 0.051572 0.071282 -0.777974 -0.593396 0.206489
0.453976 0.025000 0.107035 -0.005909 0.997649 -0.068268
0.274834 0.062463 0.098675 -0.030356 0.999526 0.005070
0.203973 0.084880 0.080785 0.334940 -0.874582 -0.350602
0.141090 0.025000 0.086507 -0.043966 0.988818 -0.142496
0.461927 0.074556 0.122695 0.108295 0.137545 0.984557
0.695702 0.044160 0.090472 0.015858 0.986098 -0.165406
0.827176 0.025000 0.048978 0.039795 0.966662 -0.252944
0.681047 0.044160 0.041134 0.054533 0.975544 -0.212932
0.517765 0.034314 0.132256 -0.040458 0.678134 0.733824
0.176583 0.056236 0.110268 -0.617386 0.749718 0.238236
0.314556 0.075878 0.074534 -0.231118 0.060502 -0.971043
0.326928 0.090191 0.050758 0.682093 -0.708415 -0.181377
0.295121 0.025000 0.048777 -0.017500 0.975379 -0.219840
0.236195 0.062283 0.036593 -0.032470 0.944326 -0.327404
0.205813 0.054882 0.042618 -0.120833 0.497279 -0.859135
0.608877 0.060793 0.123158 0.102228 0.994754 0.003860
0.602187 0.060793 0.090590 0.095642 0.991686 -0.086095
0.100753 0.065382 0.056551 -0.028053 0.968400 -0.247821
0.947596 0.044091 0.099817 0.057294 0.998246 -0.014906
0.424380 0.025000 0.056883 -0.006744 0.984357 -0.176058
0.721804 0.050455 0.032369 -0.281341 -0.185170 0.941573
0.323559 0.062973 0.099728 0.313096 0.435594 0.843936
0.461962 0.025000 0.091012 -0.005547 0.994794 -0.101757
0.615955 0.025000 0.106730 -0.000597 0.992191 -0.124725
0.187128 0.025000 0.078972 -0.028009 0.980854 -0.192720
0.073680 0.025241 0.088802 -0.086049 0.985109 0.148847
0.657798 0.025000 0.086801 0.001376 0.994708 -0.102731
0.494659 0.038510 0.132185 -0.040670 0.448413 0.892901
0.596011 0.096798 0.079346 0.919009 0.245411 -0.308538
0.438625 0.040230 0.130417 0.000521 0.689200 -0.724571
0.463432 0.084159 0.088243 -0.563775 0.107322 0.818926
0.932105 0.043307 0.102542 0.048531 0.998698 -0.015731
0.241242 0.062629 0.085733 -0.587082 0.095735 0.803847
0.966635 0.045333 0.072211 0.548992 0.674256 -0.493950
0.437918 0.025000 0.104607 -0.005939 0.997333 -0.072749
0.413068 0.097447 0.071595 0.795964 -0.036796 -0.604224
0.654736 0.045372 0.131165 -0.022502 0.446826 0.894338
0.180392 0.032711 0.107991 -0.079571 0.541310 0.837049
0.409282 0.081352 0.069781 0.693273 -0.056748 -0.718438
0.411579 0.124669 0.068466 0.208214 0.242336 -0.947587
0.756970 0.025992 0.123752 0.000725 0.999873 -0.015890
0.764757 0.044160 0.091101 0.010865 0.988790 -0.148918
0.643977 0.025000 0.028205 0.003232 0.984233 -0.176848
0.464475 0.089444 0.088389 -0.512148 0.110940 0.851702
0.452819 0.037342 0.130865 -0.043474 0.722663 0.689832
0.394123 0.101841 0.081900 -0.938020 0.186660 0.292022
0.383458 0.025000 0.032828 -0.008411 0.973294 -0.229409
0.735605 0.056232 0.087044 -0.895119 0.000000 0.445826
0.330660 0.072080 0.039107 0.166393 -0.314394 0.934596
0.405391 0.070666 0.088630 0.280871 -0.025971 0.959394
0.578518 0.049406 0.025571 0.008117 0.109871 -0.993913
0.821139 0.059530 0.070506 -0.308011 -0.526355 0.792515
0.130946 0.056481 0.103149 -0.677727 0.726783 0.111682
0.525084 0.025000 0.071533 -0.002002 0.988691 -0.149953
0.907188 0.025000 0.100530 0.049696 0.998661 -0.014406
0.354674 0.053319 0.027900 -0.051402 0.448387 -0.892361
0.491258 0.027139 0.132012 -0.011695 0.984004 0.177764
0.455756 0.025000 0.031057 -0.004092 0.974657 -0.223668
0.738973 0.025000 0.036993 0.023686 0.978060 -0.206971
0.540997 0.053624 0.132085 0.061192 0.718922 -0.692392
0.591079 0.073392 0.035179 0.007685 -0.690699 -0.723101
0.495952 0.030971 0.132192 -0.026361 0.817138 0.575839
0.413828 0.129112 0.080129 0.337929 0.941075 0.013492
0.767697 0.025000 0.068566 0.010544 0.993212 -0.115840
0.395389 0.047863 0.129801 0.241664 0.492443 0.836121
0.277072 0.036949 0.120621 -0.074581 0.723073 0.686733
0.384838 0.067726 0.062057 -0.402206 0.893017 -0.201867
0.238623 0.062981 0.089276 -0.062652 0.996308 -0.058688
0.595768 0.025000 0.052204 0.000789 0.984554 -0.175079
0.404308 0.124660 0.068265 -0.415687 0.309869 -0.855094
0.305973 0.059147 0.126332 -0.024315 0.912490 0.408375
0.396871 0.080247 0.068948 -0.365928 0.074970 -0.927619
0.591372 0.071646 0.121164 0.111351 0.993371 -0.028551
0.368075 0.061340 0.099007 0.011883 0.999524 0.028462
0.331498 0.076818 0.120800 0.133744 0.228327 0.964354
0.608309 0.060793 0.099146 0.100840 0.993218 -0.057864
0.496139 0.025000 0.074612 -0.003027 0.991413 -0.130736
0.172513 0.025000 0.106202 -0.031417 0.998391 0.047203
0.465885 0.060810 0.040550 0.518352 0.712740 0.472561
0.149474 0.035675 0.103190 -0.323466 0.166338 0.931505
0.604289 0.060463 0.131620 0.100927 0.994874 -0.006307
0.051713 0.067315 0.083420 -0.143814 0.931828 -0.333189
0.673758 0.054562 0.053635 -0.282321 -0.660042 0.696160
0.522422 0.072372 0.081566 -0.953134 0.130665 0.272878
0.259758 0.062679 0.062912 -0.016119 0.987457 -0.157065
0.595699 0.073018 0.096587 0.728432 0.253077 0.636663
0.474593 0.096184 0.068553 0.395448 0.011499 -0.918416
0.298162 0.101832 0.089849 0.349219 0.258078 0.900800
0.114217 0.059070 0.101276 -0.517263 0.853881 0.057677
0.641740 0.042404 0.131345 0.001717 0.981434 -0.191791
0.644016 0.049635 0.039665 0.375167 0.922390 -0.091904
0.167381 0.038609 0.051105 -0.150886 0.038930 -0.987784
0.660918 0.025000 0.087363 0.001429 0.995384 -0.095965
0.851159 0.040461 0.117019 0.002593 0.999796 -0.020036
0.465470 0.085522 0.068364 -0.260946 0.072431 -0.962632
0.381290 0.061285 0.123570 0.019764 0.993616 0.111072
0.519207 0.036552 0.025135 -0.010425 0.158279 -0.987339
0.479168 0.059984 0.131991 0.025961 0.996750 0.076259
0.066499 0.025000 0.071396 -0.107872 0.875452 -0.471112
0.339888 0.061532 0.050608 -0.005363 0.988820 -0.149021
0.475392 0.025000 0.124818 -0.004783 0.999595 -0.028038
0.508161 0.025000 0.102639 -0.003390 0.997023 -0.077032
0.417579 0.061136 0.082328 0.004528 0.994107 -0.108311
0.507444 0.025000 0.090172 -0.003037 0.994770 -0.102099
0.396718 0.114826 0.073369 -0.884749 0.207420 -0.417368
0.477853 0.107565 0.069290 0.501311 0.020919 -0.865014
0.308756 0.025000 0.044889 -0.015608 0.974747 -0.222767
0.607151 0.060793 0.087462 0.099474 0.989560 -0.104291
0.438457 0.061050 0.085950 0.006078 0.993401 -0.114536
0.576430 0.072508 0.067873 -0.857308 0.248775 -0.450703
0.952133 0.026754 0.092099 0.208958 0.977045 0.041475
0.333596 0.081969 0.035109 0.361519 -0.931025 0.049965
0.442171 0.060225 0.025834 -0.000688 0.953196 -0.302351
