0.206882 0.178607 0.177883 -0.862247 -0.109822 -0.494438
0.368798 0.368730 0.092639 0.095075 0.098442 -0.990591
0.222628 0.130984 0.120313 -0.997372 0.054594 -0.047623
0.137472 0.183811 0.114699 -0.802725 0.533086 -0.267305
0.241529 0.239891 0.151099 0.744831 0.372239 0.553773
0.154928 0.275534 0.121976 -0.264007 0.964521 -0.000106
0.683108 0.743154 0.051875 -0.069874 0.083317 -0.994070
0.507822 0.534674 0.074620 0.021417 0.092944 -0.995441
0.449410 0.485968 0.082923 0.003173 0.150994 -0.988530
0.275819 0.263028 0.104874 0.131582 0.115834 -0.984514
0.416304 0.482820 0.088482 0.121628 0.479995 -0.868799
0.134843 0.255144 0.083079 -0.393193 0.827623 -0.400549
0.557061 0.592515 0.068205 -0.002598 0.088396 -0.996082
0.720634 0.791535 0.047136 -0.097953 0.090983 -0.991023
0.300854 0.296236 0.101745 0.110872 0.123814 -0.986092
0.144859 0.247739 0.174024 -0.206460 0.681479 0.702112
0.073848 0.043429 0.119550 0.365867 -0.787823 -0.495456
0.155325 0.253322 0.097114 -0.131074 -0.919932 0.369518
0.488248 0.537231 0.078060 0.500509 0.213747 0.838930
0.438821 0.453885 0.083617 0.793577 0.378583 0.476352
0.280462 0.282129 0.104743 0.378387 0.122405 0.917519
0.153260 0.263941 0.084501 -0.281062 0.847189 -0.450860
0.149930 0.208842 0.198785 -0.926923 -0.126708 -0.353211
0.356651 0.374078 0.094904 0.400705 0.138960 0.905608
0.255894 0.196218 0.106408 0.975459 -0.172144 -0.137279
0.254690 0.238755 0.111062 0.975308 0.196601 0.100614
0.064154 0.046831 0.110564 0.204092 -0.441854 -0.873563
0.143086 0.132716 0.100584 0.041226 -0.671673 -0.739700
0.224403 0.270050 0.113921 0.223530 0.007714 0.974667
0.138882 0.265985 0.136946 -0.350444 0.907090 0.233189
0.072039 0.090244 0.156169 -0.413804 0.227053 0.881597
0.681153 0.733673 0.051878 -0.003662 0.100800 -0.994900
0.156549 0.209162 0.196471 -0.532771 -0.359873 -0.765929
0.371302 0.363857 0.092040 0.212682 0.108010 -0.971133
0.043267 0.042257 0.126123 -0.743158 -0.483608 -0.462428
0.147059 0.243506 0.179086 -0.158657 0.623729 0.765369
0.214513 0.171296 0.070393 -0.779487 -0.134332 0.611845
0.477340 0.490084 0.078285 0.056779 0.072407 -0.995758
0.173107 0.200512 0.142649 -0.454420 0.171126 0.874196
0.204977 0.198146 0.179265 -0.680111 -0.315167 -0.661905
0.214726 0.261016 0.078273 0.391504 0.604870 -0.693438
0.171456 0.257573 0.130421 -0.279316 -0.959593 0.034101
0.237334 0.156936 0.094489 0.829645 -0.348457 -0.436196
0.191246 0.274498 0.090641 0.029250 0.833418 -0.551869
0.045770 0.082113 0.138494 -0.837795 0.530612 0.128649
0.165055 0.278052 0.099937 -0.185237 0.924955 -0.331881
0.064546 0.039820 0.114914 -0.045316 -0.822919 -0.566349
0.171235 0.228682 0.182731 -0.319723 -0.662652 -0.677251
0.193105 0.276288 0.145644 0.049261 0.940245 0.336916
0.039846 0.075631 0.129184 -0.833324 0.500010 -0.235716
0.481233 0.526748 0.078895 0.501021 0.214760 0.838365
0.092288 0.078338 0.106547 0.202072 -0.436742 -0.876598
0.235658 0.254448 0.111451 0.061205 0.221231 -0.973299
0.429687 0.483031 0.086198 -0.034609 0.205557 -0.978033
0.434921 0.471007 0.084881 0.436464 0.165412 0.884386
0.194891 0.188211 0.139967 0.408165 -0.416394 0.812415
0.253558 0.241550 0.119138 0.943475 0.261762 0.203310
0.096783 0.068642 0.147139 0.626526 -0.602408 0.494540
0.057606 0.056393 0.107467 -0.076226 -0.147614 -0.986103
0.169679 0.144884 0.114023 0.507527 -0.833059 -0.220064
0.152452 0.236821 0.065648 -0.135736 -0.780799 0.609859
0.124088 0.257344 0.094150 -0.442211 0.864516 -0.238875
0.423811 0.423879 0.085142 0.090395 0.068399 -0.993554
0.069402 0.092959 0.109154 -0.534283 0.276854 -0.798683
0.214548 0.264718 0.157104 0.304313 0.765511 0.566910
0.226495 0.198780 0.144919 -0.904788 -0.271592 -0.328019
0.085755 0.062603 0.153429 0.514411 -0.513474 0.686823
0.333641 0.375805 0.098904 0.285014 0.051933 0.957115
0.349993 0.384750 0.096416 0.327756 0.083562 0.941060
0.201722 0.181715 0.106814 0.573855 -0.759545 -0.306239
0.212736 0.232336 0.056947 0.452195 0.312601 -0.835345
0.188525 0.249472 0.061140 0.152832 0.560817 -0.813711
0.189083 0.217275 0.179159 -0.513667 -0.539003 -0.667549
0.176514 0.257253 0.115934 -0.394286 -0.870234 0.295351
0.056708 0.032181 0.142059 0.279990 -0.887676 0.365563
0.107214 0.098786 0.103253 0.171062 -0.391874 -0.903976
0.084780 0.077871 0.105145 0.099290 -0.308736 -0.945951
0.138266 0.113010 0.139741 0.655012 -0.603018 0.455334
0.171776 0.187435 0.199992 -0.742497 -0.206869 -0.637106
0.446916 0.457030 0.082342 0.065305 0.082282 -0.994467
0.283961 0.308694 0.105072 0.043657 0.210606 -0.976596
0.227209 0.200368 0.137493 -0.925351 -0.274612 -0.261368
0.200635 0.204207 0.048142 0.349330 0.129030 -0.928073
0.194680 0.247707 0.179677 0.201696 0.582917 0.787100
0.181030 0.191366 0.199277 0.186195 0.087890 0.978574
0.222200 0.123776 0.107825 -0.876013 0.202654 0.437644
0.142674 0.123631 0.144248 0.589672 -0.515068 0.622086
0.268318 0.242173 0.105431 0.329974 0.130073 -0.934986
0.154440 0.235151 0.189343 -0.058194 0.500199 0.863953
0.123966 0.124241 0.153224 0.133787 -0.141896 0.980799
0.251514 0.239055 0.103819 0.846061 0.350310 0.401826
0.160355 0.246722 0.161482 -0.198558 -0.880948 -0.429540
0.802889 0.881332 0.036182 -0.119740 0.062869 -0.990813
0.564061 0.592562 0.067009 0.013161 0.066093 -0.997727
0.692370 0.758368 0.050819 -0.024859 0.126731 -0.991626
0.152083 0.126243 0.114399 0.626471 -0.709849 -0.321943
0.153774 0.269152 0.092599 -0.278749 0.888685 -0.364057
0.075355 0.115005 0.123971 -0.819731 0.513838 -0.253006
0.205434 0.227425 0.140892 0.036369 0.063971 0.997289
0.707075 0.763612 0.048484 -0.034485 0.084374 -0.995837
0.219692 0.126108 0.098808 0.821514 -0.493263 -0.286017
0.459240 0.499389 0.081708 -0.006026 0.155013 -0.987894
0.125917 0.100793 0.142832 0.631895 -0.585096 0.508302
0.129347 0.136648 0.152070 0.008639 -0.004997 0.999950
0.215067 0.133483 0.164681 -0.966622 -0.138097 0.215805
0.185551 0.181669 0.093583 0.202718 -0.433311 -0.878150
0.636280 0.685234 0.057874 -0.040371 0.080090 -0.995970
0.202748 0.161174 0.052690 0.482855 -0.192485 -0.854284
0.168070 0.161378 0.145023 0.273026 -0.339337 0.900171
0.040732 0.051642 0.161742 -0.294416 0.161370 0.941955
0.234122 0.159049 0.161162 0.791457 -0.424933 0.439349
0.204649 0.227280 0.140812 -0.275983 0.166513 0.946629
0.207151 0.280455 0.108822 0.048962 0.822748 -0.566294
0.178832 0.228037 0.105178 -0.717626 0.517654 -0.465884
0.211941 0.276224 0.096621 0.192130 0.728606 -0.657434
0.320047 0.364509 0.100838 0.267354 0.039058 0.962806
0.254572 0.207708 0.101741 0.888452 -0.079460 -0.452040
0.037786 0.053253 0.111615 -0.460529 0.191907 -0.866652
0.169776 0.220395 0.115086 -0.841753 0.538986 0.030749
0.072623 0.111380 0.136067 -0.822213 0.528523 0.211253
0.568823 0.632331 0.067579 0.585618 0.480606 -0.652740
0.180599 0.165751 0.047437 -0.662065 -0.112565 0.740944
0.183367 0.144723 0.048814 0.389445 -0.393755 -0.832640
0.152952 0.241330 0.172804 -0.138725 -0.815527 -0.561846
0.557228 0.589836 0.068083 0.292333 0.238945 -0.925984
0.292670 0.308668 0.103580 0.063487 0.182972 -0.981066
0.464641 0.478435 0.080052 0.311909 0.187745 -0.931378
0.351646 0.358085 0.095205 0.081319 0.125228 -0.988790
0.216294 0.175828 0.071597 -0.770469 -0.177386 0.612301
0.507918 0.576480 0.076060 -0.062552 0.208130 -0.976099
0.268057 0.238684 0.105355 0.169642 0.076092 -0.982564
0.173689 0.188425 0.145647 0.030618 0.028752 0.999117
0.140169 0.243099 0.075770 -0.059093 -0.859497 0.507713
0.187141 0.204589 0.088948 -0.145871 -0.118463 -0.982185
0.060915 0.026220 0.124803 0.550538 -0.705971 -0.445549
0.148568 0.258530 0.119391 -0.075066 -0.990172 0.118006
0.402580 0.404361 0.088097 0.088136 0.084682 -0.992502
0.133443 0.240284 0.074834 -0.065189 -0.864195 0.498917
0.246150 0.239101 0.144584 0.807899 0.338994 0.482060
0.123722 0.236585 0.074095 -0.060443 -0.876411 0.477756
0.146829 0.272788 0.114545 -0.308951 0.948147 -0.074611
0.160997 0.225482 0.196413 -0.072878 0.427513 0.901067
0.063595 0.033276 0.153173 0.600416 -0.598383 0.530508
0.119662 0.242226 0.085620 0.039547 -0.934430 0.353945
0.259125 0.241802 0.106991 0.712946 0.251693 0.654491
0.384618 0.408435 0.091313 0.411046 0.146613 0.899748
0.406208 0.474117 0.089906 0.199025 -0.011597 0.979926
0.170690 0.254840 0.143767 -0.281042 -0.947168 -0.154556
0.177443 0.235815 0.125997 -0.726983 0.321963 0.606495
0.072040 0.106626 0.143865 -0.741113 0.479248 0.470184
0.410068 0.432923 0.087809 0.453950 0.179778 0.872702
0.245127 0.183430 0.152310 0.879452 -0.224587 0.419671
0.256836 0.264148 0.108162 0.346410 0.098245 0.932925
0.184895 0.250184 0.181617 0.108237 0.613083 0.782569
0.238820 0.211612 0.163750 0.769420 0.092968 0.631942
0.137065 0.251131 0.075020 -0.382517 0.781575 -0.492770
0.151756 0.258776 0.164173 -0.217683 0.791162 0.571557
0.245382 0.250902 0.109663 0.091529 0.181134 -0.979190
0.809012 0.886218 0.035304 -0.118970 0.058660 -0.991163
0.170701 0.186556 0.091235 -0.151824 -0.111459 -0.982103
0.187873 0.265197 0.073104 0.092543 0.709032 -0.699077
0.413173 0.444239 0.087672 0.422039 0.154664 0.893287
0.392736 0.413562 0.090102 0.434713 0.164937 0.885336
0.183835 0.224164 0.067292 -0.412554 -0.639730 0.648495
0.183093 0.206067 0.142977 -0.325869 0.175178 0.929044
0.224773 0.138135 0.143144 0.730233 -0.589209 0.345820
0.197811 0.188005 0.198209 0.379466 -0.017752 0.925035
0.150015 0.223009 0.192322 -0.376727 -0.512290 -0.771774
0.108906 0.152706 0.127919 -0.832718 0.535800 0.139642
0.080878 0.052097 0.117663 0.307190 -0.809754 -0.499933
0.514769 0.568815 0.074620 -0.042922 0.160766 -0.986059
0.229229 0.186536 0.106150 -0.740347 -0.614681 0.272129
0.664282 0.727936 0.054567 -0.076876 0.103213 -0.991684
0.340274 0.329680 0.096161 0.386332 0.170788 -0.906410
0.389541 0.453080 0.092027 0.217550 0.002034 0.976047
0.094184 0.059243 0.132354 0.660284 -0.749617 -0.045819
0.190286 0.208319 0.185660 -0.531719 -0.437486 -0.725177
0.162626 0.249712 0.176647 -0.069520 0.669764 0.739312
0.120166 0.249320 0.156857 0.070580 -0.875105 -0.478758
0.382672 0.419796 0.092044 0.007019 0.189173 -0.981919
0.126193 0.260703 0.098130 -0.425500 0.881827 -0.203299
0.152731 0.201911 0.042179 -0.793053 -0.272934 -0.544586
0.212819 0.151401 0.076829 -0.864533 0.095062 0.493504
0.254342 0.283818 0.109276 0.034763 0.238858 -0.970432
0.464726 0.531542 0.081889 -0.041459 0.244128 -0.968856
0.171851 0.252833 0.098518 -0.270403 -0.874955 0.401666
0.526395 0.578146 0.072955 -0.038460 0.148357 -0.988186
0.671023 0.737801 0.053757 -0.014387 0.133259 -0.990977
0.221302 0.253145 0.162173 0.442644 0.605208 0.661657
0.215807 0.198868 0.079480 -0.620600 -0.756889 0.204877
0.215352 0.148623 0.070317 0.653421 -0.333734 -0.679458
0.254150 0.238779 0.115688 0.964220 0.213603 0.157016
0.544591 0.585170 0.070084 -0.013666 0.108882 -0.993961
0.209928 0.144183 0.172970 -0.930695 -0.230972 0.283651
0.231893 0.191151 0.065032 0.700526 -0.054235 -0.711563
0.082301 0.050872 0.120433 0.561464 -0.675957 -0.477326
0.573336 0.612047 0.066099 0.757669 0.558991 -0.336849
0.037605 0.047281 0.125582 -0.862077 -0.076591 -0.500956
0.142832 0.263858 0.091643 -0.341934 0.877477 -0.336327
0.095388 0.119298 0.151228 -0.445799 0.282238 0.849473
0.227526 0.262075 0.084493 0.569993 0.561011 -0.600312
0.163736 0.229418 0.186039 -0.285995 -0.653568 -0.700754
0.678657 0.731997 0.052248 -0.053856 0.068146 -0.996221
0.194285 0.259884 0.172857 0.125138 0.715664 0.687142
0.157162 0.275685 0.128470 -0.249296 0.964739 0.084437
0.229980 0.193168 0.120258 -0.981525 -0.186435 -0.043011
0.110911 0.244262 0.092153 -0.774522 0.618652 -0.131851
0.184230 0.226626 0.048919 0.128655 0.353831 -0.926419
0.208346 0.224398 0.053938 0.413726 0.270255 -0.869363
0.268156 0.328401 0.108464 0.188904 -0.017357 0.981842
0.340489 0.361250 0.097225 0.048684 0.169340 -0.984354
0.194657 0.224056 0.072270 -0.522098 -0.639382 0.564451
0.181667 0.209892 0.039974 0.113958 0.192973 -0.974564
0.168685 0.210025 0.192135 -0.519334 -0.376818 -0.767008
0.263728 0.235406 0.105981 0.167645 0.081236 -0.982495
0.237162 0.257077 0.095457 0.720517 0.527133 -0.450540
0.151841 0.169715 0.093940 -0.262810 0.022479 -0.964586
0.170457 0.246086 0.059187 -0.052453 0.600588 -0.797837
0.143043 0.256637 0.145703 -0.020079 -0.977155 -0.211579
0.360631 0.376112 0.094295 0.059515 0.144285 -0.987745
0.224143 0.159446 0.155284 -0.991020 -0.065995 -0.116294
0.164997 0.235172 0.069362 -0.238487 -0.751332 0.615324
0.058650 0.077162 0.157149 -0.420868 0.264771 0.867621
0.226801 0.250075 0.076400 0.595857 0.447470 -0.666877
0.214916 0.197088 0.164109 -0.803709 -0.287576 -0.520914
0.170395 0.212895 0.133346 -0.731301 0.349993 0.585409
0.302461 0.331802 0.102708 0.310912 0.071375 0.947755
0.410620 0.465862 0.088864 -0.037521 0.220763 -0.974606
0.209642 0.169467 0.183799 -0.119429 -0.158160 0.980164
0.203652 0.187091 0.181656 -0.774541 -0.206481 -0.597872
0.076436 0.041731 0.144287 0.673918 -0.691993 0.258804
0.157551 0.261880 0.078147 -0.226245 0.809675 -0.541516
0.235539 0.228187 0.165396 0.677668 0.280607 0.679725
0.171210 0.153053 0.043247 -0.047065 -0.586498 -0.808582
0.241554 0.165144 0.095301 0.852587 -0.300822 -0.427320
0.324686 0.333803 0.098973 0.394975 0.134835 0.908743
0.237145 0.262763 0.130725 0.673048 0.668020 0.317420
0.163571 0.180460 0.038850 -0.789943 -0.410413 0.455577
0.549145 0.574325 0.068927 0.056833 0.079653 -0.995201
0.228481 0.221514 0.064559 0.644966 0.166488 -0.745856
0.181820 0.273064 0.153299 -0.035653 0.902650 0.428895
0.735780 0.794824 0.044657 -0.071448 0.051528 -0.996112
0.734560 0.805557 0.045240 -0.099205 0.083535 -0.991554
0.043402 0.044682 0.146305 -0.575028 -0.215104 0.789349
0.202248 0.180321 0.111212 0.181038 -0.981374 -0.064272
0.656630 0.710781 0.055280 -0.054093 0.082495 -0.995122
0.242691 0.243451 0.147712 0.745469 0.410466 0.525161
0.511773 0.562697 0.074920 -0.035387 0.154268 -0.987395
0.222102 0.125029 0.103411 0.838182 -0.496869 -0.224880
0.087911 0.052267 0.136365 0.676370 -0.735089 0.046563
0.140098 0.214526 0.052392 -0.867791 -0.466290 -0.171792
0.553454 0.588132 0.068669 0.744138 0.515661 -0.424680
0.138483 0.264113 0.095090 -0.363092 0.887854 -0.282628
0.222527 0.153950 0.155696 -0.995329 -0.096496 -0.003025
0.194232 0.242865 0.097462 -0.792786 -0.599599 -0.109412
0.242649 0.254705 0.110262 0.325128 0.082316 0.942081
0.059771 0.092271 0.117222 -0.731232 0.425046 -0.533512
0.114497 0.248570 0.147662 -0.667726 0.716576 0.201645
0.191066 0.237157 0.129099 -0.731137 0.377105 0.568534
0.061440 0.049615 0.161235 0.233107 -0.311004 0.921378
0.306155 0.304857 0.101136 0.408215 0.145186 0.901267
0.221426 0.138885 0.138802 -0.997686 -0.041067 0.054187
0.195742 0.238676 0.132329 -0.785399 0.215933 0.580104
0.324109 0.319807 0.098585 0.108344 0.111845 -0.987802
0.254118 0.229321 0.121810 0.969127 0.140792 0.202410
0.188999 0.268548 0.076568 0.087442 0.736609 -0.670643
0.137800 0.184234 0.126066 -0.806808 0.530458 0.260146
0.471970 0.527492 0.080508 -0.043013 0.188100 -0.981207
0.670885 0.734309 0.053659 -0.076839 0.098953 -0.992121
0.145666 0.247039 0.174978 -0.194952 0.671632 0.714776
0.124831 0.237360 0.068599 -0.913092 0.348482 -0.211714
0.217725 0.133368 0.159397 0.695391 -0.621983 0.359956
0.196920 0.199385 0.187018 -0.619509 -0.328472 -0.712962
0.053141 0.072792 0.156874 -0.468235 0.295300 0.832799
0.392076 0.432823 0.090887 -0.002208 0.193470 -0.981104
0.194446 0.191956 0.092208 0.200699 -0.426600 -0.881891
0.169931 0.257566 0.170275 -0.061825 0.748062 0.660742
0.287090 0.340851 0.105656 0.217369 0.002953 0.976085
0.217118 0.162758 0.079535 -0.859257 -0.017704 0.511238
0.245376 0.183513 0.151024 0.885763 -0.227570 0.404520
0.120778 0.111898 0.152358 0.235874 -0.316117 0.918931
0.296764 0.279030 0.101846 0.141208 0.091187 -0.985771
0.114666 0.253127 0.109416 0.198595 -0.975824 0.091255
0.190458 0.241573 0.121452 0.804114 -0.585649 0.102058
0.259470 0.229285 0.106497 0.172134 0.078639 -0.981930
0.153543 0.197274 0.132415 -0.709304 0.462558 0.531910
0.573065 0.603625 0.065853 0.007635 0.066550 -0.997754
0.121963 0.218541 0.053397 -0.786776 -0.291121 -0.544272
0.082835 0.123716 0.132230 -0.834662 0.533989 0.134889
0.217812 0.276620 0.128114 0.357640 0.924934 0.128806
0.122597 0.257796 0.137163 -0.464146 0.849291 0.251543
0.264793 0.299047 0.108016 0.273364 0.043826 0.960912
0.055037 0.041236 0.110428 0.138192 -0.363187 -0.921411
0.191624 0.282152 0.117360 -0.015053 0.982206 -0.187201
0.584941 0.629087 0.064707 -0.025158 0.095901 -0.995073
0.112099 0.247237 0.143806 -0.703624 0.696815 0.139151
0.196223 0.235760 0.183705 0.291180 0.441379 0.848763
0.244630 0.183944 0.155993 0.860764 -0.208224 0.464465
0.143291 0.268307 0.135088 -0.324769 0.922997 0.206401
0.177305 0.200111 0.048669 -0.540455 -0.484788 0.687669
0.228963 0.265585 0.143655 0.484191 0.748598 0.452946
0.181085 0.273221 0.088219 -0.038897 0.843210 -0.536175
0.227450 0.154388 0.082451 0.755401 -0.334328 -0.563556
0.253680 0.235936 0.107720 0.144585 0.114814 -0.982809
0.498262 0.561534 0.077193 -0.063109 0.193697 -0.979030
0.154805 0.227445 0.188301 -0.314028 -0.601096 -0.734895
0.132803 0.158895 0.098278 -0.462946 0.250032 -0.850391
0.503118 0.526965 0.075156 0.585843 0.360474 -0.725842
0.290705 0.304385 0.103765 0.352108 0.102368 0.930344
0.041416 0.044257 0.128774 -0.869184 -0.342383 -0.356781
0.546298 0.589801 0.069953 0.824590 0.525782 0.208817
0.118564 0.163450 0.118784 -0.843784 0.516144 -0.147053
0.128248 0.120729 0.100753 0.183135 -0.406928 -0.894914
0.215485 0.148672 0.083225 -0.883270 0.118887 0.453542
0.216946 0.131856 0.152357 -0.929448 -0.155335 0.334661
0.138698 0.256605 0.163010 -0.308897 0.778646 0.546162
0.136425 0.147291 0.096139 -0.130582 -0.129998 -0.982878
0.158595 0.270734 0.153320 -0.217846 0.891084 0.398136
0.295916 0.326877 0.103658 0.301213 0.064209 0.951393
0.394599 0.405050 0.089487 0.068633 0.112153 -0.991318
0.245443 0.174312 0.135435 0.930961 -0.326615 0.163203
0.121485 0.144923 0.099539 -0.456993 0.139903 -0.878399
0.052913 0.087180 0.143991 -0.785497 0.499791 0.364971
0.255278 0.219484 0.106374 0.310762 0.050490 -0.949146
0.257593 0.301761 0.109344 0.239136 0.018865 0.970803
0.157696 0.275009 0.099366 -0.251311 0.918973 -0.303862
0.184408 0.230235 0.171562 -0.454936 -0.673940 -0.582099
0.239927 0.261006 0.111650 0.774459 0.582927 0.245783
0.286063 0.317368 0.105014 0.028081 0.226531 -0.973599
0.374906 0.421224 0.093423 -0.013912 0.217225 -0.976022
0.190126 0.231841 0.165936 -0.507553 -0.687205 -0.519750
0.307211 0.341279 0.102227 0.019996 0.222258 -0.974783
0.146496 0.239959 0.067146 -0.096001 -0.806060 0.583995
0.243691 0.199511 0.082378 0.844679 -0.068422 -0.530883
0.057774 0.094873 0.138139 -0.826884 0.528439 0.192392
0.227145 0.209877 0.129784 -0.907020 -0.361036 -0.216720
0.224154 0.220493 0.179207 0.569169 0.227398 0.790150
0.197211 0.160430 0.056654 -0.731786 -0.049625 0.679725
0.117659 0.239378 0.082049 0.033000 -0.926392 0.375111
0.132424 0.231807 0.180474 -0.855963 0.147188 -0.495644
0.102239 0.091400 0.104529 0.186624 -0.414003 -0.890939
0.251148 0.212712 0.094872 0.716136 -0.003351 -0.697953
0.584219 0.645227 0.065393 -0.064578 0.140600 -0.987958
0.498858 0.522247 0.075721 0.655247 0.392908 -0.645194
0.466512 0.513784 0.080965 -0.023302 0.169663 -0.985227
0.149966 0.256661 0.104086 -0.079754 -0.951156 0.298230
0.334901 0.345994 0.097649 0.398833 0.137723 0.906623
0.328241 0.362889 0.099378 0.310369 0.070775 0.947978
0.372991 0.398596 0.092962 0.034820 0.164256 -0.985803
0.227281 0.212651 0.063199 0.641653 0.113003 -0.758625
0.183368 0.178783 0.050297 -0.833608 -0.548567 0.064581
0.041147 0.042248 0.110942 -0.256445 -0.118738 -0.959238
0.274332 0.305262 0.106601 0.029851 0.231874 -0.972288
0.654857 0.729737 0.056244 -0.102206 0.137671 -0.985191
0.167239 0.218774 0.189125 -0.421111 -0.512393 -0.748411
0.544129 0.591549 0.070386 -0.029686 0.127177 -0.991436
0.231777 0.171847 0.123554 -0.998995 -0.005058 0.044526
0.063034 0.101698 0.133746 -0.844868 0.532046 0.055897
0.208871 0.207027 0.190965 0.484265 0.107473 0.868295
0.073821 0.056370 0.158157 0.368831 -0.423861 0.827228
0.236895 0.238308 0.158722 0.678365 0.379758 0.628971
0.716838 0.789242 0.047706 -0.101159 0.097009 -0.990129
0.192919 0.243559 0.122774 -0.916721 0.198233 0.346881
0.132775 0.245435 0.069779 -0.424226 0.727177 -0.539672
0.252060 0.214053 0.097372 0.643316 0.007517 -0.765564
0.296636 0.314437 0.103100 0.344033 0.096233 0.934013
0.160932 0.203919 0.199489 -0.693685 0.382856 0.610100
0.223680 0.130853 0.127371 -0.370384 -0.785274 0.496145
0.096299 0.061594 0.134503 0.669859 -0.741900 0.029549
0.174816 0.172348 0.044683 -0.736811 -0.297378 0.607187
0.209160 0.166287 0.182976 -0.206283 -0.171432 0.963358
0.219617 0.129019 0.100416 -0.872181 0.186134 0.452388
0.430379 0.474145 0.085770 -0.012266 0.180363 -0.983524
0.273454 0.253693 0.104954 0.147630 0.098604 -0.984115
0.241698 0.253150 0.097311 0.784949 0.484395 -0.386285
0.108578 0.087102 0.109741 -0.050937 -0.888137 -0.456748
0.202221 0.148304 0.054679 0.511994 -0.279520 -0.812238
0.231746 0.235762 0.167560 0.601225 0.373578 0.706376
0.256590 0.308338 0.109745 0.214425 0.001003 0.976740
0.146120 0.142516 0.149166 0.161712 -0.248053 0.955154
0.332993 0.367827 0.098737 0.313290 0.072911 0.946854
0.310847 0.338378 0.101503 0.035053 0.203311 -0.978487
0.372306 0.396058 0.092989 0.395428 0.134711 0.908565
0.336615 0.338390 0.097090 0.431585 0.162379 0.887338
0.545937 0.597361 0.070278 0.821748 0.516413 0.240933
0.200728 0.137548 0.060384 -0.776813 0.164622 0.607833
0.157331 0.242630 0.182736 -0.064884 0.587394 0.806696
0.332279 0.385944 0.099491 0.236493 0.016443 0.971494
0.606563 0.679968 0.062778 -0.016865 0.127359 -0.991713
0.100643 0.085120 0.106775 0.054529 -0.666421 -0.743579
0.190582 0.243531 0.109237 -0.617976 0.758698 -0.206113
0.221952 0.142101 0.098663 -0.904392 0.138464 0.403613
0.091426 0.107844 0.154683 -0.334823 0.201593 0.920464
0.228406 0.162698 0.136983 -0.987936 0.022587 -0.153204
0.050057 0.054734 0.162685 -0.103908 0.014492 0.994481
0.246671 0.249608 0.109397 0.097454 0.173599 -0.979983
0.189328 0.250544 0.125453 -0.909146 -0.212194 0.358367
0.238074 0.275627 0.111775 0.251801 0.028172 0.967369
0.108092 0.248522 0.119548 -0.701941 0.711617 -0.029654
0.119482 0.258020 0.122529 -0.495856 0.864377 0.083537
0.209912 0.236120 0.055731 0.412381 0.347184 -0.842262
0.513542 0.551160 0.074214 0.692601 0.378283 0.614170
0.162349 0.185421 0.038580 -0.715514 -0.391871 0.578340
0.521655 0.589926 0.074177 -0.072109 0.194591 -0.978230
0.059174 0.042263 0.160831 0.322927 -0.393161 0.860896
0.782358 0.853835 0.038739 -0.088064 0.084707 -0.992507
0.482390 0.515079 0.078290 0.585425 0.285037 0.758967
0.680718 0.740201 0.052180 0.038307 0.168822 -0.984902
0.183056 0.222868 0.046905 0.118372 0.319791 -0.940065
0.074148 0.042081 0.149067 0.643704 -0.642166 0.416254
0.223974 0.175548 0.088242 -0.862644 -0.169636 0.476517
0.194483 0.238889 0.087588 -0.644719 -0.747935 0.157895
0.209062 0.175807 0.186564 0.093144 -0.123551 0.987957
0.310192 0.294723 0.100093 0.487080 0.200064 -0.850134
0.328280 0.343244 0.098686 0.379718 0.123101 0.916875
0.201599 0.236464 0.150285 -0.759552 -0.643369 -0.095695
0.086261 0.122234 0.142087 -0.732059 0.473873 0.489423
0.173102 0.256216 0.064601 -0.036324 0.670756 -0.740788
0.345473 0.394952 0.097546 0.262065 0.034953 0.964417
0.824821 0.908827 0.033385 -0.140809 0.048260 -0.988860
0.165567 0.243593 0.183901 -0.002740 0.578219 0.815877
0.207365 0.156155 0.064073 -0.784621 0.006389 0.619942
0.253035 0.218465 0.137806 0.928470 0.083107 0.361989
0.280920 0.289428 0.104919 0.359817 0.108264 0.926720
0.448032 0.497355 0.083555 0.380965 0.121933 0.916514
0.224294 0.271579 0.135561 0.444856 0.837374 0.317659
0.162563 0.158896 0.146575 0.179088 -0.265062 0.947454
0.247783 0.249971 0.111119 0.693993 0.384878 0.608476
0.453614 0.517426 0.083299 0.273474 0.040999 0.961005
0.251822 0.183666 0.114141 0.963775 -0.251398 -0.089086
0.567670 0.601713 0.066710 -0.000111 0.078770 -0.996893
0.231552 0.222345 0.067064 0.677056 0.162823 -0.717694
0.534104 0.569222 0.071324 -0.000026 0.100257 -0.994962
0.230636 0.185983 0.170383 0.756700 -0.163671 0.632943
0.529775 0.559665 0.071731 0.726156 0.469272 -0.502476
0.175916 0.201501 0.142920 -0.404878 0.173704 0.897720
0.179907 0.213580 0.196307 0.232125 0.229918 0.945122
0.851045 0.935729 0.029833 -0.139148 0.055012 -0.988742
0.344242 0.391729 0.097645 -0.014247 0.236762 -0.971463
0.154503 0.207143 0.197938 -0.555221 -0.343712 -0.757359
0.227954 0.156744 0.103157 -0.946850 0.081126 0.311278
0.408428 0.461703 0.089094 -0.032773 0.216922 -0.975639
0.051797 0.038612 0.158029 0.204592 -0.407686 0.889907
0.618103 0.670400 0.060468 0.289358 0.325768 -0.900082
0.427436 0.442012 0.085154 0.056439 0.104939 -0.992876
0.245518 0.259851 0.109952 0.070918 0.204257 -0.976345
0.168795 0.274976 0.092726 -0.138565 0.891265 -0.431795
0.399175 0.466042 0.090829 0.202252 -0.009142 0.979291
0.184625 0.255634 0.176215 0.070744 0.684619 0.725460
0.144027 0.212595 0.047052 -0.550123 -0.150518 -0.821407
0.173959 0.170945 0.041196 0.161934 -0.280944 -0.945964
0.085783 0.102210 0.155274 -0.345361 0.209577 0.914770
0.229237 0.265781 0.112946 0.040751 0.303855 -0.951846
0.151702 0.191426 0.040445 -0.831061 -0.409845 0.375985
0.194068 0.225618 0.188184 0.321598 0.328714 0.887987
0.523992 0.577993 0.073360 0.660937 0.345285 0.666289
0.448262 0.512828 0.084056 -0.051807 0.232410 -0.971237
0.402794 0.435832 0.089156 0.396266 0.134894 0.908172
0.163575 0.215368 0.044089 -0.126370 0.221929 -0.966839
0.231868 0.144150 0.129157 0.884996 -0.459658 0.074144
0.671237 0.750362 0.054158 -0.123321 0.058464 -0.990643
0.121045 0.251743 0.090197 -0.519099 0.800061 -0.300730
0.226380 0.206660 0.139061 -0.890501 -0.345159 -0.296434
0.666523 0.736055 0.054467 -0.090718 0.117335 -0.988940
0.083238 0.051895 0.120323 0.565422 -0.672924 -0.476941
0.150429 0.194988 0.040559 -0.922388 -0.384455 0.037349
0.815096 0.898967 0.034707 -0.135369 0.070077 -0.988314
0.191951 0.186884 0.093829 0.023214 -0.688530 -0.724836
0.140036 0.235768 0.054717 -0.410751 0.533142 -0.739624
0.617897 0.687087 0.061086 -0.086202 0.143298 -0.985918
0.247469 0.167828 0.112821 0.925529 -0.332909 -0.180464
0.171709 0.240441 0.056187 -0.031648 0.545391 -0.837584
0.130229 0.176416 0.125609 -0.821692 0.535491 0.195122
0.238407 0.253268 0.149494 0.621881 0.553355 0.554132
0.124945 0.252304 0.161670 -0.525616 0.759575 0.383111
0.354395 0.374541 0.095307 0.049062 0.160074 -0.985885
0.598920 0.662564 0.063480 -0.071855 0.139352 -0.987632
0.187312 0.165577 0.129902 0.669176 -0.623075 0.404946
0.172510 0.223434 0.115875 -0.836928 0.540627 0.085288
0.683829 0.746280 0.051860 0.010328 0.150236 -0.988596
0.133710 0.174152 0.136328 -0.696049 0.452027 0.557841
0.247432 0.209071 0.154861 0.849430 0.041182 0.526091
0.192568 0.229809 0.136132 -0.527703 0.293407 0.797146
0.190426 0.207999 0.059416 -0.459611 -0.623335 0.632622
0.813699 0.895241 0.034816 -0.129309 0.067375 -0.989313
0.255667 0.204758 0.123958 0.987989 -0.080128 0.132123
0.074179 0.110508 0.117401 -0.757713 0.459697 -0.463195
0.033520 0.057769 0.155573 -0.631103 0.400763 0.664152
0.108415 0.248340 0.101912 0.131196 -0.983239 0.126606
0.240509 0.256928 0.137266 0.697021 0.586486 0.412549
0.249947 0.287146 0.110145 0.017027 0.260935 -0.965206
0.174961 0.213154 0.095566 -0.528573 0.349094 -0.773786
0.236226 0.298390 0.112885 0.176200 -0.026251 0.984004
0.189257 0.146678 0.050698 -0.728644 0.079114 0.680308
0.513539 0.575424 0.075061 0.491221 0.202122 0.847260
0.169014 0.279807 0.103821 -0.169670 0.936065 -0.308213
0.190727 0.240159 0.158443 -0.488181 -0.772717 -0.405693
0.224046 0.139491 0.125537 -0.989291 0.055708 -0.134908
0.282476 0.338292 0.106357 0.208437 -0.003447 0.978030
0.252610 0.219375 0.140936 0.910340 0.107868 0.399557
0.151455 0.191625 0.040538 -0.833864 -0.410197 0.369337
0.056528 0.054082 0.107709 -0.054306 -0.165163 -0.984770
0.266305 0.285756 0.107294 0.318644 0.077356 0.944713
0.173092 0.166015 0.096414 0.034041 -0.677433 -0.734796
0.252286 0.263009 0.108901 0.334410 0.089233 0.938194
0.676794 0.726426 0.052373 -0.045029 0.059408 -0.997218
0.101001 0.075406 0.113853 0.286120 -0.812168 -0.508447
0.144140 0.258116 0.081416 -0.340189 0.825187 -0.450930
0.473942 0.509573 0.079545 0.540487 0.247676 0.804071
0.107651 0.244361 0.095819 -0.817678 0.574997 -0.027949
0.170414 0.160889 0.143355 0.426373 -0.433888 0.793692
0.179616 0.253550 0.103917 -0.385049 -0.857108 0.342204
0.336575 0.377164 0.098450 0.002465 0.223217 -0.974766
0.057736 0.029903 0.131334 0.153338 -0.985106 -0.077807
0.217078 0.273684 0.144775 0.275273 0.882406 0.381555
0.077381 0.075257 0.159655 0.090846 -0.144360 0.985346
0.637711 0.707362 0.058399 -0.008351 0.135925 -0.990684
0.258493 0.321028 0.109862 0.178988 -0.024374 0.983549
0.231587 0.270167 0.122672 0.614059 0.767293 0.184915
0.185941 0.165340 0.199596 0.077489 -0.082584 0.993567
0.113756 0.240466 0.086001 0.087219 -0.945384 0.314074
0.232127 0.137938 0.110522 0.871640 -0.455482 -0.181050
0.097013 0.139482 0.129312 -0.837138 0.535216 0.112888
0.230708 0.223271 0.066791 0.667936 0.174372 -0.723502
0.037522 0.050727 0.152300 -0.607909 0.207145 0.766510
0.143317 0.195967 0.042228 -0.911820 -0.391884 0.122522
0.253509 0.219080 0.133367 0.947399 0.076388 0.310805
0.218410 0.170757 0.165708 -0.941265 -0.043522 -0.334852
0.520805 0.577630 0.073893 0.609431 0.299766 0.733986
0.127027 0.138260 0.152054 -0.022114 0.025402 0.999433
0.099715 0.142489 0.122974 -0.847122 0.519973 -0.109596
0.092168 0.132169 0.135460 -0.795730 0.519333 0.311622
0.290825 0.337509 0.104900 0.244246 0.022391 0.969455
0.207739 0.171148 0.185812 -0.047586 -0.139294 0.989107
0.507854 0.578355 0.076136 0.310347 0.062779 0.948548
0.236241 0.142943 0.106752 0.868373 -0.427223 -0.251812
0.207411 0.271947 0.150046 0.199840 0.867941 0.454689
0.706431 0.781609 0.049221 -0.096556 0.077903 -0.992274
0.220986 0.277243 0.114757 0.191463 -0.015307 0.981380
0.055859 0.066909 0.160104 -0.268941 0.142511 0.952555
0.097668 0.137905 0.135545 -0.800297 0.498408 0.333339
0.248511 0.195202 0.152195 0.883074 -0.105226 0.457282
0.150819 0.174655 0.094993 -0.413599 0.033188 -0.909854
0.242871 0.167771 0.139376 0.911084 -0.366653 0.188393
0.230507 0.188450 0.170662 0.752935 -0.137966 0.643471
0.233857 0.199483 0.065681 0.711391 -0.008066 -0.702750
0.440894 0.472369 0.083906 0.473767 0.194772 0.858841
0.235459 0.234456 0.162650 0.669760 0.339761 0.660291
0.134347 0.256235 0.100688 0.053242 -0.956125 0.288081
0.115553 0.249754 0.139280 0.138487 -0.945063 -0.296104
0.469829 0.510810 0.080292 0.494555 0.210268 0.843329
0.137923 0.227213 0.185645 -0.297833 -0.577181 -0.760367
0.292068 0.324727 0.104241 0.293197 0.058293 0.954273
0.464491 0.531035 0.081912 -0.045015 0.239351 -0.969889
0.669445 0.748356 0.054395 -0.121479 0.059694 -0.990797
0.099800 0.068809 0.143323 0.660118 -0.661035 0.356759
0.222338 0.217555 0.135662 0.433732 -0.431507 0.790998
0.182600 0.186332 0.091518 0.141686 -0.342861 -0.928639
0.329965 0.332338 0.098018 0.420854 0.154819 0.893819
0.095908 0.075922 0.109786 -0.066099 -0.825349 -0.560741
0.167546 0.140820 0.124453 0.632919 -0.771933 0.059438
0.119402 0.246103 0.163362 -0.692930 0.681368 0.235768
0.120401 0.140448 0.150497 -0.370302 0.205209 0.905961
0.173616 0.215269 0.188410 -0.459812 -0.482670 -0.745387
0.217321 0.220666 0.183260 0.508926 0.240935 0.826405
0.066664 0.083324 0.157217 -0.385634 0.231887 0.893037
0.130404 0.240328 0.066156 -0.551689 0.634271 -0.541608
0.676008 0.737446 0.052891 0.027459 0.161477 -0.986494
0.163375 0.213037 0.111949 -0.830079 0.531652 -0.168267
0.052819 0.090342 0.130853 -0.850746 0.516515 -0.097173
0.222496 0.135156 0.102992 -0.896272 0.162828 0.412533
0.841256 0.925312 0.031146 -0.139920 0.048975 -0.988951
0.326050 0.328894 0.098568 0.415432 0.150636 0.897065
0.080473 0.094944 0.104639 -0.361056 0.056680 -0.930820
0.393743 0.443193 0.090963 -0.022701 0.215068 -0.976335
0.204855 0.218043 0.166717 -0.660518 -0.519059 -0.542489
0.542703 0.587664 0.070495 -0.023808 0.121494 -0.992307
0.132227 0.266121 0.102710 -0.386918 0.905138 -0.176124
0.225549 0.154889 0.140757 -0.975602 0.018557 -0.218761
0.196016 0.281318 0.106258 0.004624 0.911814 -0.410578
0.172992 0.185957 0.091169 -0.085659 -0.178708 -0.980166
0.252142 0.217677 0.098476 0.450164 0.046857 -0.891716
0.086151 0.101219 0.103837 -0.361983 0.051907 -0.930738
0.133727 0.177254 0.132177 -0.847327 0.396000 0.353865
0.502708 0.551310 0.076074 0.569818 0.269626 0.776279
0.245144 0.171809 0.098570 0.883262 -0.274369 -0.380224
0.141453 0.269142 0.122962 -0.336561 0.939333 0.066183
0.193212 0.237558 0.130894 -0.762902 0.291484 0.577077
0.217210 0.157756 0.082144 -0.881786 0.043650 0.469625
0.148885 0.256502 0.146994 -0.074377 -0.973610 -0.215757
0.293480 0.322778 0.103932 0.305176 0.067168 0.949924
0.051400 0.038050 0.150742 0.099848 -0.584426 0.805281
0.212216 0.263253 0.079504 0.340085 0.637823 -0.691031
0.394768 0.393793 0.089066 0.286177 0.146657 -0.946887
0.218141 0.165039 0.080383 -0.858478 -0.039598 0.511319
0.363920 0.375416 0.093706 0.430228 0.161808 0.888100
0.212605 0.209965 0.188744 0.503481 0.133673 0.853603
0.180318 0.189963 0.040176 0.162491 -0.010148 -0.986658
0.405591 0.441679 0.088882 0.007677 0.173898 -0.984734
0.091581 0.077242 0.106743 0.204434 -0.440140 -0.874347
0.401443 0.447814 0.089805 0.326360 0.081799 0.941700
0.078550 0.046703 0.148205 0.647595 -0.643351 0.408314
0.283373 0.313900 0.105353 0.295036 0.059707 0.953619
0.375119 0.387228 0.092200 0.442629 0.171396 0.880172
0.085223 0.091244 0.103253 -0.154194 -0.092210 -0.983728
0.197089 0.282359 0.120652 0.027234 0.988621 -0.147940
0.083888 0.071765 0.106863 0.175556 -0.402270 -0.898532
0.190099 0.169024 0.194449 -0.898785 -0.121658 -0.421170
0.177672 0.165864 0.098904 -0.074241 -0.900883 -0.427665
0.187760 0.241543 0.124509 0.502744 0.426452 0.751922
0.212945 0.154417 0.175816 -0.528484 -0.243653 0.813227
0.228942 0.254076 0.080163 0.611568 0.478299 -0.630250
0.208427 0.184342 0.176637 -0.816669 -0.168199 -0.552051
0.221604 0.203895 0.125484 0.673207 -0.591619 0.443599
0.187837 0.223582 0.092071 -0.495922 0.319049 -0.807632
0.260916 0.257267 0.107225 0.111678 0.148332 -0.982612
0.180288 0.208686 0.039321 0.100234 0.186979 -0.977237
0.185662 0.170836 0.137682 0.613387 -0.505370 0.606924
0.432526 0.482973 0.085709 0.344889 0.095008 0.933823
0.065380 0.029047 0.145013 0.681069 -0.699259 0.217215
0.193733 0.189830 0.141386 0.249530 -0.317488 0.914842
0.207138 0.251245 0.066752 0.334789 0.521932 -0.784540
0.199537 0.273971 0.088255 0.139449 0.789401 -0.597830
0.228904 0.163160 0.134952 -0.992250 0.024248 -0.121865
0.250460 0.188580 0.100151 0.940099 -0.193511 -0.280657
0.362196 0.376762 0.094048 0.417397 0.151826 0.895952
0.490978 0.560774 0.078413 0.271563 0.036820 0.961716
0.215629 0.273237 0.092488 0.325739 0.740170 -0.588253
0.185923 0.233785 0.187466 0.221677 0.427374 0.876477
0.313424 0.340424 0.101132 0.326677 0.083073 0.941478
0.383990 0.382815 0.090528 0.435273 0.207492 -0.876062
0.185331 0.270870 0.082634 0.009098 0.794422 -0.607298
0.168572 0.259348 0.168027 -0.082725 0.772405 0.629720
0.250815 0.234037 0.108144 0.437826 0.238152 -0.866944
0.183500 0.176491 0.043533 0.245588 -0.109736 -0.963143
0.216794 0.146290 0.074729 0.678801 -0.364381 -0.637539
0.805136 0.878151 0.035687 -0.106331 0.054465 -0.992838
0.236498 0.152894 0.097230 0.831619 -0.380525 -0.404488
0.424461 0.493202 0.087447 0.203399 -0.008897 0.979055
0.314098 0.321810 0.100367 0.389359 0.130597 0.911781
0.554406 0.605329 0.069106 -0.038695 0.130691 -0.990668
0.411282 0.480307 0.089253 0.193924 -0.015360 0.980896
0.159481 0.251692 0.062105 -0.174142 0.683520 -0.708855
0.334535 0.384002 0.099038 -0.018097 0.246993 -0.968848
0.248527 0.185185 0.098256 0.921866 -0.204963 -0.328866
0.623951 0.688813 0.060109 0.083927 0.196294 -0.976947
0.255660 0.213970 0.118267 0.995415 -0.008617 0.095261
0.456834 0.481062 0.081481 0.031552 0.114276 -0.992948
0.355129 0.414259 0.096566 -0.031761 0.271693 -0.961860
0.569714 0.644008 0.067834 -0.064808 0.171087 -0.983122
0.529700 0.572837 0.072204 -0.018517 0.123894 -0.992123
0.137402 0.132024 0.150270 0.186553 -0.270967 0.944338
0.253725 0.261858 0.108615 0.342224 0.095104 0.934793
0.422368 0.422685 0.085347 0.121696 0.079440 -0.989383
0.619599 0.669122 0.060168 -0.040432 0.090849 -0.995044
0.254983 0.209607 0.126743 0.981528 -0.027756 0.189296
0.169170 0.142625 0.124955 0.647095 -0.754331 0.110694
0.187151 0.267866 0.160930 0.033016 0.840505 0.540797
0.119169 0.239582 0.077466 -0.883663 0.453040 -0.117874
0.172177 0.197718 0.045450 -0.572429 -0.476994 0.666935
0.154056 0.202914 0.116655 -0.844517 0.535270 -0.016634
0.271889 0.319965 0.107532 -0.009980 0.276720 -0.960899
0.741290 0.802934 0.043997 -0.077924 0.055310 -0.995424
0.242551 0.256934 0.128368 0.769147 0.566787 0.295240
0.217570 0.181298 0.073699 -0.739296 -0.281640 0.611654
0.454183 0.491684 0.082305 0.000588 0.150840 -0.988558
0.043432 0.044724 0.109123 -0.158367 -0.073911 -0.984610
0.303366 0.355143 0.103368 0.230938 0.012648 0.972886
0.144030 0.223115 0.192683 -0.321362 0.493458 0.808223
0.254061 0.226802 0.123865 0.967832 0.123308 0.219309
0.203129 0.202471 0.068943 -0.561192 -0.677237 0.475829
0.099091 0.139188 0.115983 -0.755233 0.497768 -0.426440
0.368001 0.412146 0.094288 0.303168 0.065007 0.950717
0.218988 0.172381 0.165204 -0.930352 -0.032311 -0.365241
0.154737 0.257314 0.135378 -0.131966 -0.989136 -0.064769
0.240895 0.229436 0.156837 0.754097 0.272184 0.597708
0.378325 0.411792 0.092507 0.362138 0.109170 0.925709
0.180517 0.174579 0.048233 -0.809447 -0.403064 0.427007
0.683829 0.760747 0.052364 -0.109292 0.122118 -0.986480
0.192306 0.281298 0.131352 0.008281 0.997862 0.064828
0.047184 0.063897 0.159065 -0.411154 0.256818 0.874641
0.161601 0.184771 0.038084 -0.722364 -0.387532 0.572720
0.063495 0.032030 0.120882 0.318741 -0.809895 -0.492417
0.123619 0.097088 0.114349 0.570200 -0.680332 -0.460455
0.154546 0.128635 0.114838 0.632421 -0.716727 -0.293849
0.244534 0.250731 0.109800 0.341558 0.094644 0.935083
0.177421 0.172371 0.143968 0.228792 -0.308270 0.923376
0.185529 0.215012 0.183752 -0.477741 -0.518353 -0.709277
0.514862 0.558345 0.074240 -0.018178 0.133028 -0.990946
0.152780 0.174870 0.094424 -0.370785 0.006506 -0.928696
0.151301 0.124630 0.116189 0.608747 -0.748760 -0.262270
0.235390 0.274818 0.112206 0.245304 0.023452 0.969162
0.180738 0.205518 0.189937 -0.562817 -0.357078 -0.745475
0.145153 0.256660 0.145198 -0.039916 -0.978614 -0.201793
0.103969 0.140422 0.141195 -0.695269 0.449483 0.560862
0.207792 0.199903 0.094355 -0.043060 -0.901637 -0.430346
0.199050 0.207975 0.067886 -0.479310 -0.764657 0.430769
0.147725 0.155783 0.149597 0.033182 -0.007815 0.999419
0.148884 0.228219 0.191495 -0.203849 0.497532 0.843153
0.677262 0.742405 0.052849 -0.005786 0.139240 -0.990242
0.511344 0.569679 0.075237 -0.052664 0.173798 -0.983372
0.142073 0.211367 0.050784 -0.878805 -0.470567 -0.079172
0.598654 0.647989 0.063018 -0.038387 0.101979 -0.994046
0.136920 0.231870 0.182730 -0.799608 0.059465 -0.597571
0.349775 0.395301 0.096821 0.282311 0.049782 0.958030
0.159728 0.261407 0.075853 -0.199072 0.793271 -0.575406
0.171354 0.220760 0.123132 -0.839804 0.451960 0.300769
0.385602 0.434372 0.092050 -0.020474 0.217731 -0.975794
0.262525 0.274281 0.107543 0.075684 0.188243 -0.979202
0.582369 0.655367 0.066063 -0.084026 0.164007 -0.982874
0.198454 0.207856 0.088127 0.100219 -0.288939 -0.952087
0.252409 0.183545 0.106190 0.950810 -0.238270 -0.197957
0.136148 0.168725 0.100460 -0.521231 0.315622 -0.792906
0.220986 0.212639 0.181861 0.576758 0.147447 0.803499
0.246119 0.187870 0.153895 0.873849 -0.174791 0.453692
0.227915 0.242677 0.073778 0.621184 0.375580 -0.687801
0.196754 0.202629 0.142631 0.135146 -0.104353 0.985315
0.148304 0.253426 0.154401 -0.072726 -0.940225 -0.332697
0.432563 0.491855 0.086013 -0.048666 0.219226 -0.974460
0.193615 0.147470 0.053323 -0.741515 0.074431 0.666795
0.177545 0.191193 0.196616 -0.706621 -0.244527 -0.663999
0.192087 0.174657 0.103225 0.553793 -0.697183 -0.455247
0.129348 0.171058 0.108732 -0.722326 0.449692 -0.525378
0.168400 0.144816 0.111142 0.621667 -0.703764 -0.343870
0.295875 0.331736 0.103834 0.284628 0.051938 0.957230
0.207055 0.192129 0.067254 -0.660046 -0.431944 0.614625
0.211559 0.201758 0.135460 0.579746 -0.475001 0.662018
0.436866 0.468581 0.084464 0.463706 0.186874 0.866057
0.219634 0.262100 0.080893 0.461909 0.595261 -0.657499
0.154418 0.239357 0.175215 -0.158429 -0.789493 -0.592959
0.167828 0.255925 0.105115 -0.231660 -0.916092 0.327277
0.163392 0.213294 0.118848 -0.828970 0.539624 0.147016
0.324380 0.354627 0.099753 0.027646 0.203034 -0.978781
0.312223 0.323184 0.100738 0.073797 0.158948 -0.984525
0.192197 0.279143 0.141050 0.019545 0.974357 0.224158
0.172779 0.248679 0.180433 0.021961 0.628146 0.777785
0.512780 0.559792 0.074646 -0.026299 0.143462 -0.989306
0.061151 0.070008 0.106834 -0.280313 0.008258 -0.959873
0.294965 0.340444 0.104294 -0.005733 0.257997 -0.966129
0.308192 0.297415 0.100529 0.918327 0.354024 0.177039
0.240671 0.159231 0.133411 0.909201 -0.408141 0.082309
0.229754 0.270554 0.125755 0.575360 0.788739 0.216453
0.468617 0.497177 0.080025 0.020467 0.119232 -0.992656
0.178438 0.207717 0.141503 -0.489470 0.165065 0.856255
0.124850 0.242205 0.167016 -0.022227 -0.793821 -0.607745
0.156804 0.256852 0.141482 -0.149793 -0.979502 -0.134675
0.060918 0.099349 0.128420 -0.848582 0.511917 -0.133599
0.151638 0.254762 0.168390 -0.195376 0.750507 0.631322
0.170715 0.278284 0.145806 -0.155158 0.946846 0.281794
0.219403 0.208335 0.088897 -0.371467 -0.912360 -0.172083
0.547559 0.587401 0.069654 -0.012164 0.105285 -0.994368
0.680716 0.748028 0.052454 -0.026942 0.125039 -0.991786
0.202994 0.240720 0.056615 0.332460 0.415743 -0.846539
0.150591 0.196653 0.128349 -0.846753 0.414638 0.333292
0.414652 0.483008 0.088771 0.323485 0.216029 0.921243
0.673743 0.745566 0.053562 -0.096577 0.119312 -0.988149
0.671378 0.719526 0.053059 -0.041144 0.058497 -0.997439
0.228147 0.242340 0.073814 0.624299 0.371786 -0.687042
0.203233 0.199552 0.195483 0.459763 0.035218 0.887343
0.071331 0.110225 0.123892 -0.809933 0.511601 -0.286832
0.227820 0.189069 0.103435 -0.669713 -0.680871 0.296477
0.355904 0.384855 0.095407 0.356576 0.105222 0.928322
0.663135 0.722719 0.054582 -0.067291 0.093174 -0.993373
0.119317 0.257593 0.123898 -0.502750 0.858853 0.098048
0.194131 0.181067 0.199424 0.314449 -0.040108 0.948427
0.241064 0.158401 0.129363 0.912599 -0.408252 0.022197
0.188765 0.282242 0.111771 -0.046347 0.955788 -0.290380
0.162595 0.194630 0.200651 -0.920309 0.267619 0.285327
0.375367 0.375978 0.091767 0.092987 0.096621 -0.990968
0.125619 0.254279 0.133388 0.120752 -0.982955 -0.138629
0.240732 0.270285 0.111133 0.276033 0.045904 0.960051
0.476118 0.544607 0.080394 -0.024649 0.263573 -0.964325
0.138487 0.248322 0.085272 -0.015370 -0.903334 0.428663
0.335635 0.336506 0.097194 0.095490 0.119253 -0.988261
0.179037 0.203488 0.049989 -0.496923 -0.506405 0.704714
0.494420 0.518306 0.076343 0.859038 0.487050 -0.157594
0.166309 0.206216 0.136175 -0.757661 0.265129 0.596370
0.123997 0.249787 0.095646 0.066957 -0.955546 0.287139
0.813980 0.892105 0.034659 -0.121446 0.058321 -0.990883
0.393335 0.439548 0.090905 0.317922 0.075629 0.945096
0.261754 0.230224 0.106139 0.182651 0.075619 -0.980266
0.163592 0.194741 0.200539 -0.926160 0.262912 0.270378
0.194263 0.196369 0.090795 0.164813 -0.375316 -0.912126
0.231946 0.157411 0.086096 0.786147 -0.324183 -0.526193
0.061448 0.027670 0.140094 0.541368 -0.832679 0.116472
0.217771 0.196811 0.080307 -0.653487 -0.727702 0.208339
0.226932 0.209962 0.175658 0.657102 0.103664 0.746640
0.214231 0.157862 0.176142 -0.366398 -0.266981 0.891332
0.194409 0.219971 0.172872 -0.564842 -0.559489 -0.606568
0.309053 0.321894 0.101234 0.369266 0.115270 0.922147
0.208197 0.193624 0.132486 0.640693 -0.522219 0.562849
0.143557 0.124749 0.144246 0.588937 -0.513124 0.624386
0.320344 0.352235 0.100360 0.024099 0.209503 -0.977511
0.336209 0.357534 0.097827 0.365639 0.112296 0.923957
0.238099 0.174498 0.084451 0.813079 -0.215278 -0.540886
0.366006 0.376364 0.093383 0.071072 0.127719 -0.989261
0.217150 0.164804 0.057066 0.590919 -0.178746 -0.786680
0.216745 0.246608 0.170367 0.412045 0.542591 0.731993
0.162532 0.258703 0.110786 -0.182824 -0.945683 0.268810
0.159983 0.257663 0.130135 -0.180939 -0.983448 0.009555
0.082756 0.123628 0.130407 -0.843956 0.533480 0.056007
0.122499 0.256798 0.141600 -0.473228 0.828732 0.298760
0.164304 0.262558 0.074515 -0.148066 0.780055 -0.607940
0.210997 0.160469 0.068928 -0.803785 -0.024897 0.594399
0.125192 0.096217 0.118454 0.624322 -0.708144 -0.329780
0.223252 0.129247 0.114277 -0.994869 0.080447 -0.061345
0.191189 0.171839 0.105277 0.592447 -0.693997 -0.409114
0.223806 0.231284 0.064762 0.586148 0.272153 -0.763128
0.037274 0.050903 0.151929 -0.626032 0.216031 0.749276
0.175990 0.250627 0.094005 -0.307102 -0.834698 0.457129
0.164111 0.211907 0.192901 -0.500736 -0.387605 -0.773968
0.228460 0.131141 0.107297 0.857717 -0.473435 -0.200449
0.248520 0.182650 0.131573 0.949879 -0.275883 0.147031
0.792343 0.866594 0.037474 -0.110945 0.060134 -0.992006
0.187802 0.203236 0.055098 -0.495749 -0.485517 0.720074
0.202803 0.221798 0.141481 0.050633 0.044866 0.997709
0.093635 0.058634 0.130573 0.649921 -0.753058 -0.102498
0.240634 0.205814 0.161508 0.806869 0.021166 0.590351
0.229058 0.196886 0.109643 -0.427785 -0.889548 0.160328
0.088428 0.087138 0.158138 0.097713 -0.138320 0.985556
0.521996 0.545512 0.072570 0.178926 0.143932 -0.973277
0.635195 0.710631 0.058944 -0.078311 0.088115 -0.993027
0.791082 0.870189 0.037816 -0.122086 0.073495 -0.989795
0.460513 0.495604 0.081357 0.503097 0.217663 0.836371
0.072096 0.034819 0.131229 0.638676 -0.748010 -0.180483
0.354999 0.379830 0.095388 0.038021 0.172102 -0.984345
0.201305 0.196902 0.196659 0.443508 0.017340 0.896103
0.221451 0.206369 0.180951 0.614001 0.075306 0.785704
0.224417 0.162597 0.158580 -0.988364 -0.075608 -0.131986
0.138402 0.235511 0.176663 -0.157783 -0.718480 -0.677415
0.242924 0.253556 0.102213 0.858302 0.511379 -0.042534
0.189134 0.164824 0.121760 0.636456 -0.763452 0.109842
0.398419 0.412600 0.089096 0.059629 0.119956 -0.990987
0.243910 0.302661 0.111718 0.188537 -0.017496 0.981910
0.102908 0.141739 0.112515 -0.735808 0.448478 -0.507399
0.687585 0.745315 0.051183 -0.064798 0.074751 -0.995095
0.586112 0.632626 0.064629 -0.030805 0.101502 -0.994358
0.407942 0.424939 0.087895 0.474376 0.196050 0.858214
0.619033 0.667683 0.060214 0.332272 0.351753 -0.875137
0.139839 0.269845 0.112327 -0.346549 0.934715 -0.078819
0.124227 0.239751 0.079020 -0.034692 -0.897953 0.438722
0.216642 0.174987 0.167737 -0.909659 -0.051043 -0.412208
0.217021 0.220160 0.148705 -0.772494 -0.508117 -0.380881
0.288261 0.291108 0.103721 0.381317 0.124601 0.916009
0.498446 0.558230 0.077046 -0.055023 0.184618 -0.981269
0.276682 0.281210 0.105360 0.091500 0.161399 -0.982638
0.846943 0.928315 0.030277 -0.131245 0.048656 -0.990155
0.180189 0.153251 0.046308 0.284439 -0.379620 -0.880332
0.227101 0.143104 0.114264 -0.997293 0.066322 0.031739
0.443862 0.453356 0.082736 0.066987 0.082328 -0.994351
0.281339 0.318884 0.105875 0.271056 0.042040 0.961645
