0.129281 0.886201 0.051753 0.347546 0.208884 -0.914100
0.283562 0.519189 0.072566 0.150790 0.058623 0.986826
0.123180 0.896434 0.041742 -0.046718 0.959381 -0.278218
0.250950 0.513947 0.072968 -0.124075 -0.048240 0.991100
0.104763 0.862428 0.075020 0.815244 -0.575812 0.061783
0.216629 0.697033 0.065057 0.173468 0.067442 -0.982528
0.179235 0.885238 0.036290 0.450169 -0.777890 -0.438446
0.201886 0.648138 0.073308 -0.092602 -0.036003 0.995052
0.147664 0.842410 0.088648 0.344564 0.070925 0.936080
0.188454 0.895069 0.104768 0.435667 -0.528006 0.728974
0.122057 0.835502 0.085061 -0.613120 -0.316697 0.723732
0.183529 0.730195 0.063589 0.002874 0.001119 -0.999995
0.175736 0.823356 0.067583 0.651569 0.253314 -0.715046
0.344507 0.351604 0.073201 0.107181 0.038300 0.993502
0.105444 0.938244 0.054583 0.111286 0.109599 -0.987726
0.105127 0.936262 0.065232 0.548493 -0.797607 -0.250956
0.274979 0.421791 0.070488 -0.492650 -0.191535 0.848888
0.198491 0.913293 0.112263 0.131497 0.054773 0.989802
0.192167 0.675641 0.073378 -0.082882 -0.032225 0.996038
0.118462 0.939846 0.083186 0.730533 0.362485 0.578728
0.206967 0.907449 0.074768 0.765243 -0.643535 0.016293
0.084328 0.908013 0.073660 -0.954353 -0.285290 0.088433
0.162822 0.877775 0.039652 0.205836 -0.926093 -0.316200
0.187913 0.751981 0.064011 0.097243 0.037808 -0.994542
0.316745 0.438742 0.065009 0.170362 0.066234 -0.983153
0.076541 0.962266 0.059939 -0.770571 0.396481 -0.499023
0.212457 0.578352 0.069092 -0.901783 -0.350599 0.252721
0.318068 0.405551 0.063686 0.052984 0.020369 -0.998388
0.205144 0.709564 0.073215 0.105490 0.041011 0.993574
0.314648 0.338660 0.072277 -0.170506 -0.070200 0.982853
0.133721 0.895230 0.067569 0.186941 0.982285 -0.012977
0.099204 0.857555 0.094901 0.686445 -0.676106 0.267720
0.103568 0.886274 0.036155 -0.691526 0.576264 -0.435559
0.101252 0.857913 0.056145 0.770325 -0.623373 -0.134187
0.312868 0.355734 0.064247 -0.118166 -0.047520 -0.991856
0.267419 0.471866 0.064294 -0.122922 -0.047789 -0.991265
0.375751 0.233076 0.064940 0.005498 -0.015707 -0.999862
0.150119 0.844156 0.055891 0.568265 0.146393 -0.809718
0.374250 0.247218 0.072566 0.028303 -0.006975 0.999575
0.101887 0.859303 0.086847 0.767249 -0.616269 0.177599
0.416855 0.106691 0.067390 -0.209281 -0.108305 -0.971839
0.172375 0.763782 0.073691 0.013786 0.005359 0.999891
0.140469 0.794488 0.064530 -0.151000 -0.058705 -0.986789
0.095560 0.974804 0.069969 0.115419 0.992753 -0.033457
0.047383 0.836574 0.091325 -0.237232 -0.943190 0.232622
0.318824 0.326478 0.072189 -0.176171 -0.074445 0.981541
0.108024 0.870003 0.049860 0.724756 -0.663465 -0.185858
0.235978 0.571151 0.063673 -0.050964 -0.019813 -0.998504
0.410814 0.146738 0.066113 0.005129 -0.009886 -0.999938
0.074184 0.858556 0.098257 -0.450409 0.833448 0.320151
0.436520 0.062238 0.069096 -0.574970 -0.283400 0.767525
0.248399 0.533890 0.073458 -0.071605 -0.027840 0.997044
0.161221 0.895811 0.062782 -0.288062 0.955431 -0.064595
0.199778 0.902587 0.056194 0.707102 -0.695240 -0.129028
0.258099 0.477831 0.071805 -0.215043 -0.083606 0.973019
0.240046 0.621376 0.073154 0.111734 0.043438 0.992788
0.077996 0.862150 0.086233 -0.516100 0.834682 0.192214
0.149741 0.833682 0.054455 0.461244 0.104997 -0.881039
0.171565 0.887286 0.027336 0.147320 -0.156778 -0.976585
0.139159 0.785452 0.071942 -0.185997 -0.072314 0.979886
0.160013 0.842871 0.075764 0.880317 0.261127 0.396049
0.316129 0.357998 0.073411 -0.078414 -0.031611 0.996420
0.100523 0.857412 0.054162 0.753021 -0.639212 -0.156104
0.206342 0.688775 0.073690 0.037853 0.014715 0.999175
0.145262 0.891841 0.044324 0.022688 0.965864 -0.258056
0.076554 0.941923 0.061497 -0.715996 -0.533931 -0.449742
0.385950 0.196933 0.071715 -0.016241 -0.022272 0.999620
0.093235 0.939100 0.086445 -0.005983 -0.683380 0.730039
0.416860 0.153280 0.070454 0.167420 0.041908 0.984995
0.058580 0.853929 0.086450 -0.227849 0.954419 0.192793
0.156113 0.855742 0.066280 0.925862 0.277009 -0.256993
0.057003 0.837102 0.097060 0.046767 -0.952655 0.300434
0.094145 0.873180 0.099965 -0.732881 0.586402 0.344990
0.104320 0.888824 0.041612 -0.656411 0.696058 -0.290907
0.204269 0.928513 0.043782 0.082519 0.988860 -0.123881
0.208688 0.740039 0.068365 0.920287 0.357790 -0.158296
0.136639 0.875394 0.052385 0.382748 0.080142 -0.920370
0.328469 0.338712 0.063588 -0.031908 -0.015902 -0.999364
0.377309 0.184304 0.069591 -0.565641 -0.279998 0.775662
0.120305 0.897127 0.051706 0.173312 0.137427 -0.975232
0.209534 0.919294 0.065530 0.972244 0.231802 -0.031763
0.264633 0.563409 0.064443 0.132872 0.051659 -0.989786
0.170348 0.897218 0.038171 -0.403067 0.853962 -0.329068
0.340199 0.290888 0.072988 -0.104796 -0.054484 0.993000
0.110016 0.872985 0.094580 0.670264 -0.687591 0.279220
0.166274 0.897901 0.064550 -0.399565 0.915613 -0.044726
0.087479 0.942226 0.052685 -0.270143 -0.514451 -0.813857
0.271974 0.424521 0.068685 -0.931774 -0.362259 0.023767
0.178665 0.905184 0.068037 -0.630212 0.776415 -0.003586
0.083157 0.843992 0.055275 0.496236 -0.855987 -0.145039
0.028667 0.858709 0.048334 -0.360033 0.894985 -0.263397
0.254929 0.533298 0.063589 -0.023407 -0.009099 -0.999685
0.204713 0.923238 0.105931 0.497300 0.560917 0.661864
0.076622 0.862265 0.057434 -0.493704 0.861001 -0.122206
0.255405 0.468811 0.067684 -0.784469 -0.304988 -0.539992
0.294693 0.366115 0.068702 -0.930759 -0.364635 0.027009
0.177544 0.887400 0.105324 0.247976 -0.584237 0.772771
0.338757 0.285826 0.072399 -0.140477 -0.071010 0.987534
0.265027 0.482214 0.073210 -0.106262 -0.041314 0.993479
0.084341 0.846216 0.092902 0.482123 -0.835666 0.263097
0.084753 0.845250 0.053185 0.514572 -0.840774 -0.168272
0.094228 0.867496 0.107092 -0.424426 0.235258 0.874366
0.310418 0.461588 0.065507 0.218525 0.084960 -0.972126
0.331608 0.368267 0.063617 0.043743 0.016316 -0.998910
0.192533 0.753434 0.064720 0.150065 0.058344 -0.986953
0.207185 0.701082 0.073305 0.092950 0.036136 0.995015
0.301466 0.435777 0.073690 0.021161 0.008225 0.999742
0.196747 0.710852 0.073691 0.032668 0.012699 0.999386
0.155699 0.891971 0.099488 -0.177103 0.927681 0.328698
0.275175 0.428016 0.071330 -0.263878 -0.102592 0.959085
0.119557 0.917511 0.054495 0.361644 0.210198 -0.908312
0.386642 0.267760 0.067459 0.556219 0.166639 -0.814157
0.233650 0.581522 0.073690 -0.036445 -0.014170 0.999235
0.300214 0.352912 0.069244 -0.876512 -0.345079 0.335630
0.105178 0.863053 0.073176 0.813691 -0.579591 0.044511
0.088558 0.846063 0.067353 0.550271 -0.834856 -0.014778
0.138683 0.861346 0.052243 0.335221 0.059229 -0.940276
0.126919 0.897296 0.069475 0.149832 0.988648 0.011192
0.358720 0.273518 0.064209 -0.005193 -0.019200 -0.999802
0.307898 0.461605 0.072263 0.170754 0.066384 0.983075
0.239115 0.568040 0.063589 -0.035312 -0.013728 -0.999282
0.301289 0.350048 0.069191 -0.886620 -0.350193 0.302109
0.263519 0.569512 0.064639 0.145841 0.056702 -0.987682
0.173685 0.885478 0.031661 0.323307 -0.521324 -0.789743
0.402204 0.189905 0.065772 0.079779 0.014763 -0.996703
0.087871 0.973394 0.064582 -0.249972 0.925356 -0.285009
0.062689 0.850893 0.033165 -0.120035 0.719119 -0.684441
0.225023 0.613913 0.063589 -0.015973 -0.006209 -0.999853
0.075515 0.962594 0.061777 -0.811683 0.412736 -0.413303
0.233990 0.533076 0.066019 -0.271064 -0.105384 -0.956775
0.228919 0.678092 0.071218 0.275283 0.107023 0.955387
0.123747 0.900922 0.091890 0.255708 0.165872 0.952418
0.361623 0.320314 0.072450 0.155942 0.052283 0.986382
0.256097 0.561865 0.073679 0.040823 0.015870 0.999040
0.127199 0.932520 0.074624 0.897982 0.435313 0.064268
0.331200 0.407771 0.071801 0.214828 0.082879 0.973129
0.107071 0.871740 0.100994 0.747423 -0.518345 0.415545
0.184549 0.899131 0.109235 -0.298400 0.096571 0.949543
0.313399 0.414963 0.073665 0.042668 0.016445 0.998954
0.302156 0.400641 0.073598 -0.052090 -0.020472 0.998433
0.200309 0.927534 0.073429 -0.355853 0.931469 0.075722
0.025558 0.860596 0.054942 -0.687811 0.703583 -0.178569
0.315480 0.362231 0.073482 -0.068330 -0.027259 0.997290
0.184103 0.888319 0.101475 0.478759 -0.740332 0.471909
0.100124 0.886374 0.080861 -0.777240 0.617915 0.118658
0.169362 0.876688 0.064225 0.312793 -0.948552 -0.049080
0.414528 0.106739 0.068748 -0.896995 -0.435422 0.076209
0.327548 0.344560 0.063588 -0.025343 -0.012737 -0.999598
0.349762 0.248036 0.070903 -0.266732 -0.133777 0.954441
0.168860 0.802772 0.064061 0.093266 0.036261 -0.994981
0.143425 0.893080 0.057565 0.036388 0.991911 -0.121611
0.208531 0.910952 0.091148 0.865601 -0.487594 0.113962
0.439282 0.059585 0.068012 -0.236376 -0.118841 -0.964367
0.158100 0.893991 0.082869 -0.224002 0.962250 0.154590
0.268239 0.466904 0.072813 -0.134428 -0.052265 0.989544
0.304668 0.457886 0.064289 0.122700 0.047704 -0.991297
0.063805 0.855876 0.085115 -0.320720 0.929973 0.179692
0.083639 0.845529 0.091416 0.476262 -0.843646 0.247863
0.255054 0.490585 0.072195 -0.175264 -0.068141 0.982161
0.082285 0.928267 0.062150 -0.844471 -0.247068 -0.475212
0.280787 0.464127 0.063588 -0.028713 -0.011162 -0.999525
0.349678 0.253310 0.065841 -0.191034 -0.097423 -0.976737
0.224410 0.687100 0.065853 0.254106 0.098793 -0.962118
0.135657 0.892797 0.092941 0.159393 0.957576 0.240086
0.199626 0.674363 0.073690 -0.025777 -0.010023 0.999617
0.102815 0.885110 0.101598 -0.590429 0.654360 0.472447
0.134506 0.908993 0.061732 0.756686 0.373723 -0.536430
0.207945 0.919137 0.027598 0.774184 0.369805 -0.513695
0.126424 0.895565 0.093184 0.144040 0.956207 0.254796
0.384173 0.227405 0.072169 0.042719 0.000041 0.999087
0.284982 0.537664 0.066565 0.424067 0.164872 -0.890497
0.105929 0.907143 0.052844 -0.189501 -0.006632 -0.981858
0.128761 0.837840 0.089084 -0.337884 -0.202075 0.919239
0.389699 0.171273 0.066289 -0.130008 -0.074292 -0.988726
0.349900 0.346256 0.072704 0.139836 0.049743 0.988924
0.194125 0.696891 0.063589 -0.008922 -0.003467 -0.999954
0.246713 0.621080 0.072123 0.181961 0.070742 0.980758
0.247114 0.528919 0.073227 -0.103766 -0.040344 0.993783
0.170291 0.772683 0.063589 0.016940 0.006587 -0.999835
0.040876 0.853538 0.054936 0.215232 0.966017 -0.143131
0.396819 0.172621 0.066007 -0.003645 -0.018289 -0.999826
0.382871 0.240493 0.065185 0.086525 0.014471 -0.996145
0.085699 0.911074 0.078500 -0.894266 -0.263992 0.361382
0.073832 0.951778 0.060389 -0.865144 -0.056798 -0.498298
0.276768 0.531611 0.064408 0.130526 0.050748 -0.990145
0.107423 0.852882 0.077794 -0.827013 -0.406542 0.388294
0.424145 0.113982 0.070700 0.062415 0.009652 0.998004
0.345779 0.272190 0.064940 -0.123144 -0.067178 -0.990112
0.106389 0.890303 0.099730 -0.481336 0.807733 0.340416
0.366576 0.276139 0.073043 0.048608 0.000975 0.998817
0.033784 0.841846 0.060656 -0.677366 -0.735641 -0.002722
0.119828 0.895212 0.051334 0.135892 0.122460 -0.983126
0.151158 0.782326 0.063868 -0.085365 -0.033188 -0.995797
0.118757 0.895488 0.043536 -0.192800 0.943976 -0.267837
0.102132 0.879950 0.107099 -0.311863 0.370811 0.874780
0.069841 0.848402 0.025228 0.035933 0.039816 -0.998561
0.245169 0.501311 0.070900 -0.365492 -0.142098 0.919904
0.028727 0.859213 0.055575 -0.192403 0.965976 -0.172835
0.297172 0.379375 0.071970 -0.198153 -0.077626 0.977092
0.205003 0.618695 0.072151 -0.179092 -0.069629 0.981365
0.302718 0.407470 0.073690 -0.029226 -0.011517 0.999506
0.090274 0.873227 0.070504 -0.688807 0.724583 0.022904
0.200977 0.928179 0.072884 -0.287422 0.954948 0.073915
0.185816 0.664455 0.071862 -0.209192 -0.081331 0.974486
0.286044 0.486167 0.073642 0.045957 0.017866 0.998784
0.155936 0.849575 0.080871 0.765315 0.222294 0.604051
0.073188 0.860135 0.082686 -0.456839 0.875970 0.154838
0.072861 0.952539 0.079616 -0.902124 -0.021980 0.430917
0.324207 0.417572 0.064890 0.162640 0.063086 -0.984667
0.244525 0.564581 0.073690 -0.014298 -0.005560 0.999882
0.152664 0.749606 0.071852 -0.207367 -0.080622 0.974935
0.265230 0.470906 0.064692 -0.149338 -0.058059 -0.987080
0.030918 0.855785 0.035535 -0.419303 0.695836 -0.583093
0.401121 0.220983 0.069531 0.667303 0.195502 0.718669
0.154527 0.780385 0.073599 -0.044981 -0.017488 0.998835
0.302814 0.440400 0.063588 0.037419 0.014549 -0.999194
0.100687 0.961675 0.051942 0.351988 0.362263 -0.863059
0.196429 0.635166 0.071701 -0.225779 -0.087780 0.970216
0.193499 0.742252 0.073085 0.117161 0.045549 0.992068
0.207731 0.923931 0.033093 0.654732 0.702076 -0.280027
0.268206 0.558117 0.072600 0.148525 0.057742 0.987221
0.325425 0.308692 0.065149 -0.173072 -0.075685 -0.981997
0.229863 0.659935 0.064872 0.161267 0.062699 -0.984917
0.335459 0.371209 0.073303 0.092902 0.035287 0.995050
0.099705 0.883229 0.040097 -0.796828 0.534358 -0.282006
0.197101 0.766342 0.066948 0.527350 0.205023 -0.824541
0.036832 0.841392 0.046212 -0.570473 -0.816016 -0.093156
0.088502 0.848195 0.050825 0.554056 -0.809626 -0.193723
0.140071 0.905722 0.070499 0.899462 0.435645 -0.034389
0.170597 0.750533 0.063589 -0.023289 -0.009054 -0.999688
0.121758 0.879014 0.041037 0.215191 -0.928833 -0.301600
0.219863 0.604457 0.063900 -0.082653 -0.032133 -0.996060
0.314814 0.445988 0.072117 0.182556 0.070973 0.980631
0.198170 0.674718 0.073690 -0.032583 -0.012669 0.999389
0.234899 0.645927 0.064808 0.157055 0.061061 -0.985700
0.133925 0.796647 0.071759 -0.197621 -0.076833 0.977263
0.195232 0.722160 0.063705 0.055093 0.021421 -0.998251
0.395756 0.172624 0.066000 -0.004316 -0.019154 -0.999807
0.289082 0.384061 0.070277 -0.553392 -0.216020 0.804420
0.326026 0.297558 0.065985 -0.263350 -0.117092 -0.957568
0.089413 0.915501 0.059147 -0.692980 -0.192406 -0.694808
0.289984 0.507926 0.065030 0.171741 0.066771 -0.982877
0.154408 0.749372 0.072190 -0.174145 -0.067706 0.982390
0.106798 0.882806 0.109545 -0.020376 0.280458 0.959650
0.196379 0.924382 0.072773 -0.601038 0.797853 0.046733
0.108311 0.969903 0.066885 0.632721 0.747523 -0.202172
0.227198 0.576987 0.073086 -0.116246 -0.045196 0.992192
0.171262 0.878917 0.086421 0.335492 -0.921047 0.197784
0.340086 0.280571 0.065213 -0.147168 -0.075453 -0.986229
0.197203 0.901021 0.088803 0.736614 -0.643401 0.208411
0.239095 0.535217 0.064868 -0.161009 -0.062597 -0.984966
0.224898 0.600165 0.073620 -0.048942 -0.019029 0.998620
0.178317 0.902218 0.043177 -0.555572 0.786372 -0.270108
0.145677 0.810893 0.063589 -0.041528 -0.016145 -0.999007
0.029269 0.851051 0.089082 -0.952772 -0.263593 0.150810
0.131378 0.884139 0.051290 0.285018 0.043804 -0.957521
0.242907 0.566168 0.073690 -0.019472 -0.007571 0.999782
0.264060 0.448142 0.067042 -0.563628 -0.219128 -0.796434
0.305702 0.350215 0.065890 -0.255509 -0.102327 -0.961376
0.133553 0.788208 0.070872 -0.324365 -0.126109 0.937488
0.288872 0.426876 0.063902 -0.082962 -0.032252 -0.996031
0.126403 0.930998 0.077712 0.862905 0.420532 0.280263
0.166743 0.725525 0.072666 -0.143433 -0.055766 0.988088
0.096931 0.879560 0.081873 -0.815200 0.563797 0.132598
0.381004 0.286180 0.067511 0.581455 0.174925 -0.794551
0.396835 0.177164 0.065936 -0.002771 -0.016768 -0.999856
0.324247 0.411469 0.064527 0.138727 0.053720 -0.988873
0.179504 0.711927 0.073481 -0.068219 -0.026524 0.997318
0.168215 0.747063 0.073651 -0.043552 -0.016933 0.998908
0.184861 0.910378 0.054939 -0.749463 0.647783 -0.136682
0.100733 0.861857 0.072478 -0.885239 -0.429975 0.177409
0.419097 0.108118 0.067143 -0.088525 -0.052821 -0.994672
0.353788 0.281310 0.064059 -0.015186 -0.022302 -0.999636
0.206703 0.926575 0.039701 0.464378 0.866716 -0.182086
0.135863 0.877405 0.052264 0.374033 0.077177 -0.924199
0.228843 0.657639 0.064575 0.141607 0.055055 -0.988391
0.163914 0.798609 0.073689 0.048655 0.018916 0.998636
0.317625 0.352209 0.073357 -0.086086 -0.035201 0.995666
0.103409 0.970125 0.059431 0.436642 0.737203 -0.515631
0.140539 0.771251 0.066261 -0.343263 -0.133453 -0.929710
0.167622 0.773239 0.063589 0.004190 0.001630 -0.999990
0.192912 0.718030 0.073691 0.027361 0.010636 0.999569
0.046266 0.843421 0.110547 -0.166985 -0.106092 0.980235
0.155355 0.776063 0.063742 -0.065804 -0.025583 -0.997505
0.176133 0.705043 0.072887 -0.129337 -0.050286 0.990325
0.260003 0.469963 0.065713 -0.239661 -0.093175 -0.966375
0.211661 0.699248 0.072860 0.131223 0.051016 0.990039
0.205775 0.610953 0.071687 -0.227220 -0.088340 0.969828
0.152218 0.863721 0.079423 0.845765 0.248526 0.472140
0.302486 0.486142 0.065841 0.252977 0.098354 -0.962460
0.282532 0.497301 0.063696 0.054171 0.021062 -0.998309
0.192242 0.750317 0.064486 0.134750 0.052390 -0.989494
0.123277 0.935486 0.079655 0.827770 0.404758 0.388545
0.051647 0.835364 0.080133 -0.106497 -0.986111 0.127447
0.212229 0.911949 0.074294 0.944516 -0.328328 -0.009507
0.228114 0.537945 0.068262 -0.911544 -0.354392 -0.208551
0.130430 0.878833 0.063928 -0.029572 -0.998052 -0.054933
0.355425 0.252651 0.065070 -0.098333 -0.058941 -0.993407
0.114096 0.834857 0.068388 -0.880503 -0.427240 -0.205380
0.029391 0.850737 0.075910 -0.942283 -0.331505 0.046988
0.195288 0.896927 0.079184 0.768063 -0.631188 0.108080
0.311112 0.345481 0.072127 -0.181906 -0.073717 0.980549
0.375028 0.298423 0.066131 0.307665 0.095977 -0.946642
0.124404 0.877596 0.048787 0.002277 -0.066538 -0.997781
0.294246 0.468916 0.063744 0.060979 0.023709 -0.997857
0.413086 0.172078 0.066957 0.288299 0.078883 -0.954286
0.169153 0.806685 0.072975 0.136532 0.053081 0.989212
0.220917 0.588446 0.072802 -0.135105 -0.052528 0.989438
0.088682 0.860328 0.110414 -0.137786 0.073190 0.987754
0.195077 0.895372 0.070361 0.771522 -0.635955 0.017748
0.212582 0.689595 0.073238 0.102246 0.039750 0.993965
0.449680 0.039989 0.067872 -0.022320 -0.026844 -0.999390
0.113589 0.947516 0.065189 0.919010 -0.294590 -0.261988
0.246251 0.541868 0.063752 -0.062118 -0.024150 -0.997777
0.089378 0.894993 0.069005 -0.931519 -0.275135 -0.237851
0.383074 0.237649 0.072099 0.077863 0.013119 0.996878
0.371828 0.234197 0.072379 -0.023655 -0.027958 0.999329
0.080533 0.935519 0.070509 -0.545722 -0.837855 -0.013660
0.211592 0.686319 0.063878 0.079685 0.030981 -0.996339
0.183370 0.896632 0.110676 -0.190452 0.021890 0.981452
0.119543 0.894767 0.037154 -0.191501 0.909595 -0.368733
0.354876 0.320404 0.063951 0.096223 0.030706 -0.994886
0.366100 0.253376 0.064567 -0.007597 -0.021159 -0.999747
0.241153 0.630535 0.064850 0.159825 0.062138 -0.985188
0.122459 0.821879 0.064133 -0.773945 -0.380359 -0.506297
0.327456 0.394805 0.064059 0.105343 0.040546 -0.993609
0.359649 0.238316 0.065549 -0.126217 -0.070722 -0.989478
0.104937 0.868680 0.085340 -0.579983 -0.299246 0.757675
0.143424 0.874909 0.085483 0.687196 0.193840 0.700134
0.338459 0.275024 0.065849 -0.225841 -0.113331 -0.967549
0.172985 0.720051 0.073240 -0.101606 -0.039504 0.994040
0.115663 0.952424 0.073053 0.987634 -0.110911 0.110809
0.250923 0.484261 0.066705 -0.466809 -0.181486 -0.865536
0.207538 0.705414 0.073129 0.113401 0.044087 0.992571
0.079436 0.940894 0.059370 -0.609627 -0.582233 -0.537921
0.388759 0.187759 0.071555 -0.020111 -0.022951 0.999534
0.087671 0.925406 0.058567 -0.667561 -0.183446 -0.721602
0.196933 0.734312 0.073031 0.120538 0.046862 0.991602
0.409551 0.178664 0.070726 0.208075 0.054229 0.976608
0.376823 0.241336 0.064819 0.034553 -0.005324 -0.999389
0.268353 0.573154 0.071500 0.246509 0.095837 0.964390
0.169155 0.752741 0.073691 -0.024673 -0.009593 0.999650
0.392225 0.215490 0.065608 0.073639 0.012668 -0.997204
0.221199 0.569222 0.071522 -0.244270 -0.094969 0.965046
0.166723 0.896451 0.049256 -0.378486 0.900658 -0.213459
0.331138 0.383676 0.073265 0.098166 0.037503 0.994463
0.306823 0.406651 0.073690 -0.009659 -0.003934 0.999946
0.110017 0.923296 0.091911 0.193571 0.143665 0.970511
0.064489 0.835407 0.065316 0.205840 -0.978041 -0.032633
0.323562 0.420054 0.072339 0.165762 0.064281 0.984069
0.373568 0.254333 0.064597 0.045604 -0.001400 -0.998959
0.102767 0.865272 0.102457 0.698165 -0.483456 0.528049
0.082948 0.867306 0.072402 -0.584039 0.810593 0.042859
0.440688 0.061355 0.069678 -0.067255 -0.043446 0.996789
0.208306 0.909157 0.059800 0.819649 -0.560914 -0.116409
0.208178 0.921817 0.111665 0.908858 0.208200 0.361427
0.150349 0.889784 0.102606 -0.084264 0.823230 0.561420
0.345806 0.259230 0.066142 -0.228751 -0.114784 -0.966694
0.060020 0.854167 0.087376 -0.254300 0.945466 0.203531
0.396560 0.172567 0.071272 -0.006748 -0.016989 0.999833
0.248510 0.485130 0.068453 -0.927382 -0.360550 -0.099833
0.396348 0.170044 0.071234 -0.017554 -0.021646 0.999612
0.078492 0.968777 0.066898 -0.700755 0.692109 -0.172994
0.354326 0.339044 0.064826 0.163097 0.057786 -0.984916
0.075734 0.861504 0.080396 -0.492957 0.860636 0.127667
0.374231 0.307654 0.070208 0.511660 0.166232 0.842954
0.114803 0.852484 0.055997 -0.561597 -0.292933 -0.773821
0.197919 0.615047 0.068567 -0.931366 -0.362098 -0.037982
0.139683 0.891799 0.085561 0.590218 0.300291 0.749312
0.293301 0.444256 0.073690 -0.003997 -0.001556 0.999991
0.105896 0.892428 0.092396 -0.394991 -0.083969 0.914839
0.134115 0.879308 0.042936 -0.180101 -0.948780 -0.259578
0.173500 0.693062 0.071615 -0.234782 -0.091281 0.967753
0.166981 0.736841 0.073278 -0.096016 -0.037330 0.994680
0.327828 0.290636 0.070831 -0.397883 -0.176304 0.900337
0.039099 0.839470 0.080314 -0.499972 -0.858456 0.114377
0.347093 0.260751 0.065647 -0.168345 -0.086907 -0.981890
0.274089 0.562301 0.071186 0.278578 0.108305 0.954287
0.209879 0.639133 0.063649 -0.047629 -0.018516 -0.998693
0.273396 0.517146 0.073685 0.039942 0.015527 0.999081
0.157605 0.894582 0.061682 -0.196678 0.977553 -0.075554
0.195809 0.906226 0.031409 0.393471 -0.442331 -0.805931
0.145695 0.892146 0.067506 0.905465 0.268243 -0.328905
0.160223 0.882556 0.108257 -0.018708 -0.368359 0.929495
0.233596 0.653694 0.072204 0.174647 0.067898 0.982287
0.122584 0.877695 0.056433 0.234759 -0.962482 -0.136073
0.185546 0.670282 0.065029 -0.171614 -0.066719 -0.982902
0.206134 0.736008 0.066006 0.267494 0.103998 -0.957931
0.099019 0.872238 0.107854 -0.379539 0.156530 0.911838
0.201117 0.758218 0.067662 0.771113 0.299793 -0.561702
0.346025 0.310372 0.073690 0.001379 -0.005942 0.999981
0.290730 0.400369 0.064990 -0.168947 -0.065952 -0.983416
0.266107 0.456809 0.071771 -0.218588 -0.084984 0.972110
0.338710 0.391708 0.071539 0.241437 0.092760 0.965973
0.189374 0.763082 0.064812 0.155904 0.060614 -0.985911
0.378733 0.286134 0.066187 0.316754 0.092615 -0.943975
0.093792 0.854529 0.036303 0.593995 -0.678562 -0.432117
0.175508 0.901575 0.051601 -0.521866 0.833352 -0.182155
0.120998 0.898017 0.061348 -0.061872 0.995459 -0.072336
0.033301 0.846462 0.031954 -0.718503 -0.663513 -0.208575
0.192887 0.628208 0.068450 -0.927201 -0.360479 -0.101751
0.266591 0.458620 0.065262 -0.192998 -0.075033 -0.978326
0.075300 0.963695 0.077664 -0.826253 0.466154 0.316238
0.224662 0.551565 0.066740 -0.477624 -0.185690 -0.858717
0.270034 0.553663 0.064694 0.149473 0.058114 -0.987057
0.213383 0.668865 0.073690 0.034258 0.013317 0.999324
0.222645 0.625460 0.073690 -0.005060 -0.001968 0.999985
0.186470 0.747074 0.063771 0.063747 0.024785 -0.997658
0.172584 0.760279 0.063589 0.006329 0.002462 -0.999977
0.124996 0.896250 0.046858 0.039391 0.974321 -0.221692
0.078549 0.864259 0.073404 -0.530918 0.845774 0.052847
0.203265 0.743229 0.071286 0.269236 0.104673 0.957369
0.201360 0.660196 0.073606 -0.050954 -0.019812 0.998504
0.185778 0.716913 0.073691 -0.011524 -0.004482 0.999924
0.078225 0.843424 0.097316 0.398078 -0.862582 0.312228
0.091203 0.885198 0.071606 -0.947124 -0.281790 -0.153462
0.331532 0.389543 0.072943 0.125547 0.048188 0.990917
0.407842 0.124890 0.067469 -0.249683 -0.125851 -0.960115
0.147251 0.892638 0.050551 -0.025404 0.980591 -0.194411
0.437236 0.082271 0.070074 0.100753 0.021258 0.994684
0.268110 0.565855 0.072139 0.180386 0.070130 0.981093
0.302581 0.347132 0.069412 -0.839399 -0.332836 0.429685
0.402719 0.189831 0.071424 0.102738 0.020689 0.994493
0.248531 0.539234 0.073616 -0.049476 -0.019237 0.998590
0.128188 0.881372 0.037736 -0.041149 -0.943922 -0.327593
0.211016 0.913987 0.038097 0.955040 -0.165577 -0.245931
0.352473 0.290857 0.063905 -0.002585 -0.014053 -0.999898
0.154163 0.770606 0.063979 -0.098204 -0.038179 -0.994434
0.087352 0.847755 0.047982 0.540952 -0.810603 -0.224261
0.182856 0.895705 0.111583 -0.135905 -0.031202 0.990231
0.163775 0.896606 0.062839 -0.350582 0.934315 -0.064408
0.312664 0.354452 0.064356 -0.125296 -0.050459 -0.990835
0.158711 0.893055 0.043422 -0.186317 0.943029 -0.275648
0.159954 0.842003 0.065510 0.924679 0.278005 -0.260159
0.077900 0.842151 0.051310 0.428887 -0.883288 -0.189364
0.059037 0.837379 0.040236 0.140099 -0.942277 -0.304117
0.162609 0.801190 0.073691 0.047306 0.018391 0.998711
0.176233 0.903057 0.061236 -0.560633 0.824491 -0.076846
0.285227 0.410463 0.065280 -0.194667 -0.075812 -0.977935
0.226500 0.623726 0.063589 0.011369 0.004422 -0.999926
0.026127 0.860837 0.060037 -0.494746 0.859285 -0.129828
0.355552 0.362411 0.068434 0.931071 0.352582 -0.093772
0.243583 0.563347 0.063589 -0.021664 -0.008422 -0.999730
0.131083 0.925393 0.071544 0.895494 0.434027 -0.098546
0.101278 0.885284 0.038587 -0.764465 0.568588 -0.303810
0.129630 0.887535 0.091366 0.416779 0.097825 0.903729
0.280496 0.402796 0.068791 -0.928899 -0.361577 0.080059
0.234648 0.556670 0.064263 -0.120917 -0.047010 -0.991549
0.079241 0.969200 0.063051 -0.643457 0.687356 -0.336905
0.423655 0.131454 0.070335 0.141495 0.033548 0.989370
0.205632 0.906642 0.076288 0.705278 -0.706689 0.056340
0.203564 0.684541 0.073690 0.015028 0.005841 0.999870
0.170853 0.800602 0.073078 0.127990 0.049759 0.990526
0.371947 0.211324 0.065881 -0.136394 -0.072010 -0.988034
0.191295 0.897166 0.034406 0.665473 -0.483864 -0.568350
0.254966 0.621473 0.068660 0.931986 0.362341 0.010555
0.100984 0.881916 0.087623 -0.720639 -0.203089 0.662898
0.144067 0.892013 0.064141 0.832243 0.243260 -0.498193
0.207999 0.923243 0.090117 0.877681 0.441908 0.185456
0.049925 0.834334 0.067787 -0.153226 -0.988190 -0.001712
0.076523 0.863535 0.069245 -0.506464 0.862233 0.006996
0.163736 0.742050 0.064089 -0.109995 -0.042763 -0.993012
0.128473 0.902636 0.055088 0.499248 0.268785 -0.823715
0.230990 0.545785 0.065617 -0.229832 -0.089353 -0.969120
0.036118 0.855872 0.058097 0.279727 0.953735 -0.110188
0.336099 0.301797 0.064063 -0.092426 -0.045067 -0.994699
0.380128 0.186654 0.070753 -0.221920 -0.115225 0.968233
0.399650 0.148496 0.070570 -0.152954 -0.083604 0.984690
0.207821 0.923700 0.073045 0.831487 0.553261 0.050316
0.254857 0.544115 0.073690 -0.002032 -0.000791 0.999998
0.260691 0.565828 0.073239 0.102209 0.039736 0.993969
0.287069 0.403224 0.071797 -0.215877 -0.084118 0.972791
0.103882 0.973678 0.070917 0.449787 0.893068 0.011059
0.136315 0.830581 0.052587 -0.035622 -0.083241 -0.995893
0.117608 0.893036 0.095150 -0.050281 0.047104 0.997624
0.110474 0.902732 0.093797 -0.114940 0.023339 0.993098
0.098537 0.889549 0.087360 -0.701243 -0.196447 0.685323
0.308227 0.358577 0.064796 -0.155467 -0.061521 -0.985923
0.186233 0.682787 0.073112 -0.114553 -0.044538 0.992418
0.184084 0.739940 0.063589 0.024825 0.009653 -0.999645
0.036026 0.854963 0.045575 0.274179 0.932399 -0.235495
0.085596 0.867028 0.045550 -0.580280 0.776707 -0.244953
0.266304 0.484928 0.063902 -0.082933 -0.032241 -0.996033
0.292473 0.517305 0.066407 0.374553 0.145621 -0.915699
0.287651 0.421735 0.073100 -0.115301 -0.044828 0.992319
0.203527 0.912818 0.105965 0.591303 -0.371787 0.715636
0.159227 0.893259 0.093419 -0.249652 0.930698 0.267349
0.276919 0.539806 0.072352 0.164896 0.064107 0.984225
0.196652 0.906678 0.105278 0.524066 -0.385053 0.759664
0.241383 0.607229 0.063810 0.070071 0.027243 -0.997170
0.294052 0.399088 0.072727 -0.140186 -0.054725 0.988612
0.400918 0.169984 0.071205 0.017882 -0.006645 0.999818
0.229595 0.656408 0.064617 0.144424 0.056151 -0.987921
0.377391 0.265521 0.065145 0.124874 0.028536 -0.991762
0.102856 0.894357 0.054225 -0.388407 -0.082770 -0.917763
0.089903 0.847908 0.076923 0.561522 -0.822792 0.087791
0.073906 0.963957 0.073548 -0.872352 0.471765 0.128214
0.177005 0.891809 0.025161 0.040819 0.025024 -0.998853
0.165276 0.875965 0.077437 0.215144 -0.971778 0.096751
0.086997 0.912867 0.082395 -0.798129 -0.232381 0.555867
0.186046 0.727556 0.073691 0.011161 0.004338 0.999928
0.098243 0.895943 0.088623 -0.612011 -0.163844 0.773691
0.373463 0.303306 0.066105 0.295422 0.094785 -0.950653
0.279826 0.443943 0.064075 -0.107014 -0.041604 -0.993387
0.336107 0.299076 0.064186 -0.103484 -0.050403 -0.993353
0.207077 0.717533 0.064811 0.157095 0.061077 -0.985693
0.308434 0.477931 0.070628 0.450405 0.175108 0.875484
0.187274 0.898283 0.027046 0.198744 -0.051319 -0.978707
0.365842 0.284018 0.073001 0.071535 0.010065 0.997387
0.102313 0.938250 0.091437 0.192902 0.143607 0.970652
0.181204 0.903359 0.038830 -0.597789 0.738523 -0.311820
0.256141 0.613427 0.070484 0.493658 0.191924 0.848214
0.084317 0.968234 0.084507 -0.414612 0.661440 0.624975
0.255849 0.610303 0.071046 0.318935 0.123995 0.939631
0.153998 0.774709 0.063877 -0.084678 -0.032921 -0.995864
0.247298 0.621863 0.065340 0.201134 0.078198 -0.976438
0.142208 0.891283 0.060413 0.777778 0.381791 -0.499296
0.079896 0.937899 0.079170 -0.576858 -0.721266 0.383419
0.124293 0.937640 0.075503 0.895173 0.434547 0.099169
0.388314 0.265267 0.068315 0.932089 0.279244 -0.230724
0.349748 0.323467 0.073609 0.050468 0.013651 0.998632
0.291343 0.453547 0.073690 0.004552 0.001768 0.999988
0.029060 0.851589 0.085294 -0.961700 -0.244037 0.124820
0.170416 0.878913 0.048763 0.350146 -0.911274 -0.216742
0.184993 0.696890 0.073456 -0.072013 -0.027999 0.997011
0.144788 0.893388 0.059157 0.008884 0.994550 -0.103878
0.213134 0.637489 0.063589 -0.030033 -0.011675 -0.999481
0.058035 0.837248 0.039977 0.120720 -0.944455 -0.305664
0.140936 0.876608 0.086248 -0.195836 -0.963866 0.180583
0.198669 0.708486 0.073690 0.037804 0.014696 0.999177
0.182740 0.883535 0.061649 0.545288 -0.834541 -0.078757
0.096804 0.921421 0.054358 -0.350331 -0.069189 -0.934067
0.153133 0.868483 0.073634 0.948007 0.283813 0.143990
0.193088 0.896252 0.096510 0.753842 -0.595691 0.277264
0.030630 0.857827 0.049639 -0.011615 0.973863 -0.226837
0.218308 0.589976 0.064790 -0.155847 -0.060589 -0.985921
0.102750 0.923290 0.053330 -0.144689 0.010130 -0.989425
0.106648 0.866829 0.075700 0.811384 -0.579901 0.073288
0.314013 0.344166 0.072510 -0.155328 -0.063182 0.985840
0.256163 0.585627 0.064470 0.134624 0.052340 -0.989513
0.063917 0.838245 0.097368 0.180929 -0.933517 0.309534
0.116625 0.894462 0.095050 -0.057421 0.044399 0.997362
0.314828 0.346017 0.072749 -0.139475 -0.056801 0.988595
0.156783 0.886945 0.029161 0.045523 0.384987 -0.921799
0.424006 0.098249 0.070044 -0.111291 -0.062713 0.991807
0.356298 0.248241 0.072021 -0.115783 -0.065690 0.991100
0.043573 0.837021 0.075098 -0.360663 -0.929838 0.072954
0.071910 0.946896 0.071828 -0.952287 -0.299341 0.059530
0.110630 0.873223 0.089928 -0.324710 -0.191175 0.926291
0.405616 0.193398 0.070785 0.252496 0.072037 0.964913
0.213070 0.577165 0.069303 -0.863146 -0.335577 0.377316
0.372428 0.213321 0.065722 -0.116063 -0.062204 -0.991292
0.238663 0.592319 0.063589 0.011123 0.004325 -0.999929
0.259726 0.497671 0.064018 -0.099168 -0.038554 -0.994323
0.087424 0.845624 0.064853 0.539898 -0.840704 -0.041564
0.257494 0.574957 0.064065 0.105678 0.041087 -0.993551
0.223680 0.616424 0.073690 -0.017864 -0.006946 0.999816
0.219612 0.653888 0.063589 0.036367 0.014141 -0.999238
0.151891 0.871354 0.074541 0.943344 0.282039 0.174801
0.115561 0.874099 0.071204 0.496501 -0.867492 0.030747
0.378158 0.240323 0.064842 0.042284 -0.002502 -0.999102
0.357785 0.236510 0.065854 -0.172754 -0.090065 -0.980839
0.037074 0.841135 0.089229 -0.566179 -0.802195 0.189538
0.178295 0.904525 0.073290 -0.622188 0.781052 0.053290
0.358084 0.337927 0.065422 0.214485 0.076842 -0.973700
0.299737 0.487747 0.065401 0.207550 0.080693 -0.974891
0.308522 0.340023 0.071141 -0.287639 -0.115825 0.950709
0.076264 0.940333 0.076998 -0.723342 -0.617275 0.309431
0.096480 0.877358 0.064753 -0.828163 -0.237255 -0.507796
0.156054 0.728284 0.066704 -0.468260 -0.182049 -0.864633
0.108498 0.950141 0.086229 0.692041 -0.164854 0.702782
0.191121 0.652985 0.065242 -0.190950 -0.074237 -0.978789
0.142229 0.891535 0.041918 0.089299 0.956878 -0.276425
0.368099 0.221936 0.071541 -0.104280 -0.058056 0.992852
0.148734 0.856240 0.085398 0.606073 0.165446 0.778012
0.027903 0.854566 0.069199 -0.999448 0.031517 -0.010468
0.075294 0.845495 0.032953 0.333878 -0.625683 -0.705014
0.304243 0.472869 0.065137 0.180012 0.069986 -0.981172
0.221358 0.701624 0.070668 0.438106 0.170327 0.882639
0.080314 0.854527 0.110638 -0.146066 0.084631 0.985648
0.248139 0.487629 0.067613 -0.762028 -0.296263 -0.575797
0.044756 0.853409 0.055005 0.114105 0.982168 -0.149419
0.213307 0.646054 0.063589 -0.011940 -0.004640 -0.999918
0.144218 0.875701 0.050888 -0.123481 -0.976461 -0.176853
0.027026 0.859817 0.085001 -0.463009 0.882894 0.078235
0.208110 0.617122 0.064734 -0.152180 -0.059163 -0.986580
0.376987 0.233843 0.064936 0.015993 -0.011972 -0.999800
0.099385 0.883902 0.089037 -0.786120 0.584627 0.200567
0.319451 0.424894 0.064593 0.142912 0.055519 -0.988177
0.357397 0.344624 0.071459 0.253111 0.090885 0.963159
0.260835 0.606193 0.068519 0.930156 0.361630 -0.063512
0.212275 0.661066 0.073690 0.012876 0.005004 0.999905
0.314017 0.358657 0.064000 -0.095587 -0.038358 -0.994682
0.099426 0.858675 0.099914 0.673813 -0.655876 0.340299
0.098508 0.878116 0.059434 -0.686104 -0.188823 -0.702572
0.148491 0.880430 0.105851 -0.102814 -0.584762 0.804663
0.158638 0.852967 0.071626 0.949989 0.285532 0.126464
0.077597 0.862497 0.081834 -0.515117 0.844889 0.144281
0.116728 0.838564 0.059771 -0.696382 -0.346068 -0.628720
0.257033 0.605805 0.071216 0.275569 0.107135 0.955293
0.025284 0.861302 0.072127 -0.533123 0.845789 -0.020505
0.211487 0.651485 0.063589 -0.010433 -0.004055 -0.999937
0.106750 0.870055 0.039165 0.729903 -0.618013 -0.292065
0.271384 0.552245 0.064818 0.157679 0.061304 -0.985586
0.304598 0.382451 0.064013 -0.097782 -0.038555 -0.994461
0.270111 0.481761 0.073562 -0.057191 -0.022237 0.998116
0.251644 0.580470 0.073479 0.068672 0.026697 0.997282
0.089716 0.853238 0.102885 0.434377 -0.686988 0.582550
0.369813 0.250350 0.064636 0.009127 -0.014498 -0.999853
0.185263 0.664401 0.065536 -0.221463 -0.086100 -0.971360
0.034675 0.843088 0.099505 -0.672461 -0.707181 0.218383
0.251077 0.592845 0.073163 0.111104 0.043194 0.992870
0.313773 0.333812 0.065539 -0.219961 -0.091763 -0.971183
0.191430 0.641987 0.066064 -0.275571 -0.107137 -0.955292
0.243962 0.614975 0.072932 0.126472 0.049169 0.990751
0.192824 0.905580 0.027385 0.127907 -0.150738 -0.980264
0.079180 0.857339 0.032097 -0.280740 0.577291 -0.766760
0.320032 0.371860 0.073690 -0.011291 -0.004977 0.999924
0.187191 0.658568 0.071673 -0.228773 -0.088944 0.969408
0.276705 0.417384 0.066786 -0.491222 -0.190979 -0.849840
0.329120 0.417906 0.071415 0.254785 0.098678 0.961950
0.121632 0.818206 0.072186 -0.896082 -0.433573 -0.095138
0.107170 0.891749 0.089822 -0.482230 0.845958 0.227618
0.295369 0.383513 0.065349 -0.201252 -0.078962 -0.976352
0.107660 0.852488 0.064307 -0.848922 -0.414650 -0.327714
0.429331 0.077457 0.069144 -0.473500 -0.234977 0.848872
0.185371 0.749714 0.073514 0.064455 0.025058 0.997606
0.280367 0.506857 0.063807 0.069695 0.027097 -0.997200
0.034404 0.841537 0.060662 -0.658738 -0.752363 -0.003764
0.353442 0.259708 0.064856 -0.088569 -0.054394 -0.994584
0.274723 0.566110 0.066864 0.513742 0.199736 -0.834371
0.105795 0.864461 0.064068 0.811632 -0.582576 -0.043114
0.359212 0.324840 0.072551 0.149539 0.050505 0.987465
0.101913 0.859952 0.091699 0.761451 -0.607768 0.225412
0.394714 0.222316 0.066055 0.157334 0.042778 -0.986619
0.120693 0.891545 0.105661 0.093373 0.613085 0.784479
0.338221 0.313325 0.073690 -0.035459 -0.019869 0.999174
0.155884 0.875473 0.054255 0.094204 -0.983080 -0.157095
0.261953 0.538638 0.073690 0.023647 0.009193 0.999678
0.111619 0.872769 0.057353 0.598062 -0.793184 -0.114814
0.219450 0.585792 0.072414 -0.160800 -0.062518 0.985005
0.176299 0.707937 0.064191 -0.116313 -0.045219 -0.992183
0.152407 0.850726 0.059263 0.711588 0.200336 -0.673430
0.206856 0.926181 0.094002 0.675276 0.693842 0.250171
0.216992 0.592215 0.072420 -0.160398 -0.062361 0.985080
0.222751 0.551747 0.068256 -0.910903 -0.354144 -0.211749
0.220291 0.611133 0.063683 -0.052387 -0.020366 -0.998419
0.106295 0.917658 0.093209 -0.010215 0.062891 0.997968
0.142505 0.855178 0.089439 0.362071 0.077968 0.928884
0.302379 0.441016 0.063588 0.036410 0.014157 -0.999237
0.143525 0.892962 0.083278 0.012503 0.988630 0.149849
0.082654 0.856697 0.109700 -0.177648 0.150249 0.972557
0.266706 0.448972 0.066015 -0.270572 -0.105193 -0.956935
0.107151 0.937496 0.073122 0.651012 -0.750595 0.113096
0.392658 0.164058 0.070818 -0.152323 -0.084683 0.984696
0.128886 0.848233 0.090429 -0.177610 -0.136308 0.974615
0.276578 0.504315 0.073690 0.030232 0.011752 0.999474
0.114121 0.850686 0.057166 -0.618023 -0.316162 -0.719784
0.144616 0.893406 0.067493 0.891935 0.433345 -0.129094
0.375723 0.187295 0.067735 -0.584611 -0.292653 -0.756693
0.278841 0.441653 0.064344 -0.126284 -0.049095 -0.990779
0.106733 0.878424 0.052134 -0.485241 -0.260493 -0.834676
0.202407 0.655252 0.073544 -0.059715 -0.023218 0.997945
0.128957 0.879332 0.077295 0.041826 -0.995388 0.086329
0.109062 0.891465 0.099521 -0.413865 0.847780 0.331641
0.117968 0.946686 0.079478 0.844747 0.412453 0.341006
0.204170 0.685706 0.063589 0.020513 0.007977 -0.999758
0.218820 0.672029 0.073281 0.096358 0.037460 0.994642
0.075365 0.850189 0.111381 -0.029911 -0.086569 0.995797
0.260818 0.496667 0.073311 -0.092175 -0.035838 0.995098
0.116611 0.925008 0.089706 0.414316 0.229656 0.880682
0.322792 0.303155 0.066161 -0.290354 -0.126101 -0.948574
0.111963 0.844758 0.063149 -0.808134 -0.396527 -0.435530
0.223428 0.621510 0.063589 -0.008954 -0.003480 -0.999954
0.205615 0.909813 0.038746 0.728719 -0.607546 -0.316001
0.077819 0.854752 0.107786 -0.259472 0.327117 0.908663
0.428592 0.085439 0.069725 -0.117604 -0.064759 0.990947
0.047033 0.853745 0.057962 0.045983 0.991942 -0.118056
0.218472 0.577388 0.071614 -0.234733 -0.091262 0.967766
0.128550 0.913052 0.085851 0.599961 0.306692 0.738909
0.191798 0.710286 0.063589 0.005836 0.002270 -0.999980
0.052582 0.842441 0.108566 -0.115703 -0.321315 0.939877
0.101090 0.932683 0.070157 0.347140 -0.937525 -0.023239
0.195885 0.642963 0.065073 -0.174506 -0.067843 -0.982316
0.108092 0.855757 0.082398 -0.718812 -0.358469 0.595659
0.195221 0.773890 0.067937 0.844336 0.328260 -0.423487
0.308453 0.425976 0.063588 0.037576 0.014610 -0.999187
0.076829 0.951921 0.056254 -0.738825 -0.074900 -0.669722
0.117610 0.896508 0.056995 -0.202671 0.971593 -0.122199
0.283980 0.506242 0.073230 0.103408 0.040202 0.993826
0.356794 0.246074 0.071947 -0.120112 -0.067470 0.990465
0.125650 0.885235 0.094171 0.067719 0.093721 0.993293
0.243543 0.548258 0.063768 -0.064353 -0.025019 -0.997614
0.159228 0.723093 0.071006 -0.327938 -0.127498 0.936056
0.274349 0.496052 0.073690 0.002127 0.000826 0.999997
0.264549 0.497409 0.063680 -0.051936 -0.020190 -0.998446
0.212704 0.582715 0.070596 -0.460279 -0.178950 0.869552
0.084942 0.845264 0.054117 0.516645 -0.841462 -0.158178
0.088212 0.906060 0.063997 -0.858383 -0.249198 -0.448419
0.114808 0.895584 0.080715 -0.261533 0.955878 0.133782
0.103097 0.888197 0.046610 -0.700972 0.672247 -0.238165
0.360133 0.348790 0.069844 0.688948 0.252245 0.679502
0.205364 0.656416 0.063589 -0.032158 -0.012501 -0.999405
0.198869 0.743930 0.072140 0.180865 0.070316 0.980991
0.324644 0.303562 0.071555 -0.239973 -0.103268 0.965271
0.200734 0.905639 0.039051 0.671125 -0.673736 -0.309309
0.145356 0.886978 0.030011 0.125715 0.452810 -0.882700
0.437761 0.081686 0.069996 0.114265 0.026191 0.993105
0.158257 0.848487 0.066068 0.926845 0.278713 -0.251549
0.422983 0.091964 0.069412 -0.280018 -0.141683 0.949482
0.120794 0.937950 0.062159 0.666194 0.333828 -0.666891
0.210061 0.912435 0.045086 0.922492 -0.316488 -0.221005
0.276255 0.445248 0.072750 -0.138567 -0.053874 0.988887
0.270916 0.470765 0.063966 -0.091856 -0.035711 -0.995132
0.080379 0.843942 0.094782 0.430632 -0.856438 0.284728
0.148382 0.877152 0.063823 0.836992 0.245309 -0.489151
0.254822 0.552044 0.063589 0.013708 0.005330 -0.999892
0.147002 0.811985 0.063589 -0.030349 -0.011799 -0.999470
0.185719 0.714819 0.073691 -0.016087 -0.006256 0.999851
0.103522 0.867850 0.034030 0.663078 -0.450090 -0.598118
0.137766 0.880032 0.053775 0.463103 0.110372 -0.879405
0.104624 0.947608 0.088663 0.520195 -0.276721 0.807974
0.241790 0.651657 0.066986 0.548293 0.213166 -0.808662
0.365090 0.249403 0.064622 -0.023871 -0.027823 -0.999328
0.077028 0.860345 0.094905 -0.493051 0.822380 0.283886
0.047983 0.835902 0.085949 -0.217349 -0.959461 0.179430
0.034552 0.841266 0.063334 -0.654479 -0.756069 0.004116
0.189278 0.681065 0.073322 -0.090693 -0.035261 0.995254
0.159109 0.743287 0.072553 -0.150467 -0.058501 0.986883
0.043288 0.837955 0.085764 -0.367746 -0.913720 0.172854
0.183501 0.743270 0.063589 0.028422 0.011051 -0.999535
0.031541 0.845206 0.036759 -0.746344 -0.660160 -0.084609
0.237398 0.548743 0.072964 -0.124304 -0.048329 0.991067
0.127392 0.926612 0.079965 0.812963 0.398556 0.424552
0.033855 0.856228 0.049660 0.291640 0.936380 -0.195292
0.243094 0.524871 0.064871 -0.161247 -0.062689 -0.984921
0.333816 0.354419 0.073690 0.024864 0.007497 0.999663
0.317477 0.355466 0.073437 -0.074808 -0.030494 0.996732
0.059321 0.845954 0.110933 -0.094645 0.095562 0.990914
0.198730 0.921068 0.035146 -0.468408 0.732007 -0.494732
0.249731 0.620965 0.065772 0.245767 0.095550 -0.964608
0.161249 0.723330 0.065765 -0.245642 -0.095500 -0.964645
0.166001 0.890149 0.106630 -0.262552 0.451268 0.852891
0.190446 0.681193 0.063870 -0.078467 -0.030505 -0.996450
0.322973 0.404976 0.073257 0.099480 0.038339 0.994301
0.135263 0.796869 0.065225 -0.201336 -0.078275 -0.976390
0.395078 0.160389 0.070876 -0.127893 -0.073418 0.989067
0.189626 0.665111 0.072572 -0.150404 -0.058476 0.986894
0.250644 0.545946 0.073690 -0.020105 -0.007818 0.999767
0.332508 0.333221 0.073690 -0.023900 -0.013242 0.999627
0.159823 0.838010 0.079983 0.753422 0.218250 0.620260
0.182569 0.762701 0.063927 0.085189 0.033121 -0.995814
0.184862 0.725164 0.073691 0.000231 0.000088 1.000000
0.026427 0.858362 0.079263 -0.785433 0.617271 0.045515
0.178671 0.669163 0.066841 -0.507124 -0.197159 -0.839019
0.308106 0.377371 0.063903 -0.082404 -0.032653 -0.996064
0.080983 0.959978 0.053990 -0.576706 0.276057 -0.768897
0.059986 0.853772 0.046278 -0.209719 0.946764 -0.244245
0.339791 0.278870 0.065415 -0.158136 -0.080594 -0.984123
0.223771 0.557331 0.066237 -0.320091 -0.124444 -0.939178
0.201104 0.660406 0.073594 -0.052699 -0.020490 0.998400
0.092794 0.935174 0.059429 -0.034877 -0.852398 -0.521729
0.255820 0.528661 0.073690 -0.028070 -0.010914 0.999546
0.240728 0.641668 0.065574 0.225406 0.087634 -0.970316
0.395708 0.185959 0.071485 0.008852 -0.013668 0.999867
0.059271 0.836701 0.089172 0.092025 -0.970660 0.222150
0.363248 0.327062 0.065616 0.235262 0.082863 -0.968393
0.142492 0.853400 0.089506 0.336515 0.067913 0.939226
0.338934 0.320851 0.073690 -0.015150 -0.011199 0.999822
0.292122 0.448642 0.063588 -0.001274 -0.000494 -0.999999
0.282975 0.470122 0.073690 -0.005394 -0.002099 0.999983
0.229704 0.685879 0.068309 0.916621 0.356366 -0.181131
0.149091 0.751629 0.066004 -0.271284 -0.105469 -0.956703
0.134035 0.884716 0.027874 -0.087245 -0.251156 -0.964007
0.188305 0.888967 0.047500 0.689505 -0.688543 -0.224702
0.306841 0.469051 0.071911 0.203948 0.079289 0.975766
0.213909 0.575844 0.067521 -0.730742 -0.284099 -0.620729
0.406472 0.167810 0.066140 0.039706 -0.000306 -0.999211
0.130121 0.906378 0.087198 0.530409 0.276436 0.801405
0.383316 0.253132 0.071808 0.143842 0.034518 0.988998
0.165768 0.731119 0.064427 -0.132607 -0.051554 -0.989827
0.396718 0.224226 0.066413 0.257218 0.072860 -0.963603
0.168975 0.886394 0.110567 -0.028906 -0.145333 0.988960
0.408012 0.154672 0.066113 0.005452 -0.010454 -0.999931
0.300360 0.427766 0.073690 -0.000652 -0.000255 1.000000
0.070838 0.855758 0.101559 -0.377854 0.787480 0.486930
0.145473 0.763812 0.065772 -0.250010 -0.097198 -0.963352
0.428143 0.126574 0.069674 0.296964 0.084548 0.951138
0.134203 0.859743 0.091265 0.157639 -0.000361 0.987497
0.093022 0.932364 0.069700 -0.023229 -0.998627 -0.046961
0.275842 0.464269 0.073485 -0.067905 -0.026402 0.997342
0.348493 0.287313 0.073342 -0.034140 -0.027362 0.999042
0.282006 0.425103 0.072427 -0.159963 -0.062192 0.985162
0.180628 0.881710 0.069918 0.486097 -0.873842 0.010515
0.220521 0.678185 0.064523 0.138176 0.053721 -0.988950
0.107751 0.970255 0.074829 0.613747 0.763893 0.199456
0.376787 0.287552 0.071330 0.258245 0.073022 0.963316
0.265029 0.520397 0.073690 0.002877 0.001117 0.999995
0.287083 0.491093 0.073430 0.075548 0.029370 0.996709
0.257341 0.538287 0.073690 -0.000904 -0.000352 1.000000
0.403755 0.184050 0.065871 0.076195 0.012649 -0.997013
0.085951 0.904086 0.070583 -0.953768 -0.283949 -0.098484
0.126296 0.896455 0.082551 0.145531 0.977906 0.150070
0.146433 0.893146 0.074074 0.874450 0.423660 0.236324
0.144276 0.762665 0.071167 -0.269270 -0.104689 0.957358
0.376286 0.207512 0.071669 -0.068603 -0.042287 0.996747
0.391721 0.174256 0.065950 -0.050334 -0.039497 -0.997951
0.256265 0.584695 0.072850 0.131958 0.051301 0.989927
0.105060 0.878600 0.090309 -0.614837 -0.164930 0.771215
0.097055 0.945380 0.051699 0.178960 -0.394839 -0.901153
0.102425 0.936627 0.079163 0.433241 -0.807885 0.399529
0.275865 0.497626 0.063588 0.013116 0.005101 -0.999901
0.149914 0.874750 0.078479 -0.046197 -0.992801 0.110507
0.136209 0.793661 0.065288 -0.207061 -0.080500 -0.975011
0.111323 0.960351 0.059368 0.788577 0.288765 -0.542919
0.099020 0.865858 0.068641 -0.899839 -0.436220 0.001151
0.091006 0.848422 0.075433 0.573991 -0.815762 0.071176
0.374802 0.248875 0.072589 0.036220 -0.004166 0.999335
0.414012 0.107991 0.069182 -0.559398 -0.273239 0.782569
0.075917 0.840178 0.059395 0.398636 -0.911399 -0.102181
0.042049 0.853015 0.085714 0.143270 0.975622 0.166240
0.246744 0.639958 0.070107 0.603302 0.234552 0.762241
0.369998 0.218546 0.065734 -0.111504 -0.060901 -0.991896
0.404321 0.210631 0.069266 0.804727 0.234539 0.545349
0.121714 0.897827 0.057294 -0.049160 0.992115 -0.115284
0.127139 0.910906 0.087697 0.513722 0.270051 0.814348
0.324977 0.398874 0.063995 0.096296 0.037093 -0.994661
0.385526 0.229644 0.065279 0.071907 0.009591 -0.997365
0.092762 0.867794 0.032431 -0.411552 0.544233 -0.731051
0.213315 0.615829 0.064052 -0.103896 -0.040392 -0.993768
0.111343 0.894555 0.078581 -0.370212 0.922700 0.107555
0.221303 0.662083 0.063899 0.082560 0.032099 -0.996069
0.053733 0.852954 0.045281 -0.086460 0.963666 -0.252729
0.167549 0.877727 0.086072 0.257516 -0.946626 0.193869
0.177747 0.903268 0.055478 -0.579178 0.803334 -0.138590
0.284609 0.516299 0.064701 0.150001 0.058319 -0.986964
0.226319 0.656886 0.064137 0.112545 0.043757 -0.992683
0.169729 0.750339 0.073691 -0.026521 -0.010312 0.999595
0.310630 0.359865 0.064345 -0.125425 -0.049730 -0.990856
0.273989 0.460381 0.073244 -0.101540 -0.039479 0.994048
0.182846 0.677542 0.072269 -0.170388 -0.066245 0.983148
0.139627 0.855394 0.052225 0.313931 0.050403 -0.948107
0.387455 0.175745 0.066236 -0.138462 -0.077070 -0.987364
0.186069 0.713392 0.073691 -0.017178 -0.006680 0.999830
0.168998 0.695255 0.070613 -0.455126 -0.176945 0.872669
0.103800 0.884009 0.033060 -0.648465 0.368734 -0.665979
0.395195 0.156289 0.066739 -0.166424 -0.090558 -0.981887
0.075586 0.839487 0.074254 0.385205 -0.920921 0.059338
