0.049317 0.132606 0.331694 0.045329 -0.996656 -0.067985
0.080727 0.152615 0.926576 0.038906 0.995402 0.087529
0.050693 0.137099 0.310258 0.564509 -0.824897 -0.029568
0.049800 0.153929 0.769616 -0.810090 0.586304 -0.001018
0.053273 0.142012 0.920749 0.821824 0.535773 -0.193784
0.067304 0.133470 0.797505 0.474653 -0.870636 -0.129221
0.058831 0.131655 0.843777 0.101373 0.984573 -0.142613
0.049706 0.133874 0.532790 0.566829 -0.823790 0.008639
0.080108 0.206529 0.732565 0.946220 0.310447 -0.091046
0.071272 0.125714 0.921415 0.420214 -0.810855 -0.407351
0.064040 0.138072 0.744739 -0.079379 -0.924941 -0.371729
0.041788 0.158526 0.961272 -0.738609 0.476979 0.476390
0.043590 0.133495 0.699875 -0.731043 -0.472371 -0.492383
0.071123 0.159803 0.204546 0.172386 0.980014 -0.099276
0.054294 0.162434 0.726689 0.365220 -0.882551 0.296174
0.063562 0.129563 0.825202 0.036109 -0.222755 0.974205
0.069792 0.145242 0.053164 -0.541488 -0.211496 -0.813671
0.075920 0.149636 0.330720 0.893073 0.446126 -0.058249
0.068208 0.149381 0.080276 -0.835546 0.545230 -0.067723
0.068982 0.139115 0.168966 -0.803975 -0.585801 -0.102284
0.050280 0.135751 0.313694 0.415536 -0.908528 -0.043676
0.052437 0.142795 0.201550 0.868222 -0.496144 -0.005595
0.070806 0.147496 0.733446 0.108821 0.301724 0.947165
0.076771 0.149813 0.915191 0.323968 0.076656 -0.942957
0.050663 0.137001 0.163354 0.256275 -0.962249 -0.091656
0.052700 0.143653 0.247877 0.902659 -0.430354 0.001172
0.052456 0.149822 0.140257 0.923216 0.374947 -0.084187
0.038780 0.082804 0.692724 -0.653512 0.675857 -0.340793
0.052893 0.071553 0.769974 -0.618137 -0.416736 0.666512
0.059681 0.140187 0.723565 0.223065 0.963731 0.146506
0.045538 0.150999 0.516297 -0.890985 0.453811 0.014162
0.049628 0.144468 0.706855 -0.070421 0.015340 -0.997399
0.044894 0.148897 0.119298 -0.894341 0.446925 -0.020296
0.071965 0.161158 0.460082 -0.050067 0.998009 -0.038355
0.068301 0.137161 0.920749 -0.664085 0.691389 -0.284558
0.081194 0.137227 0.719207 0.998108 -0.061314 0.004659
0.076235 0.148719 0.642910 0.867513 0.497284 -0.011426
0.086085 0.143665 0.949981 0.994166 -0.104303 0.027464
0.050417 0.123786 0.690089 -0.282111 -0.833834 -0.474483
0.061853 0.031888 0.679527 0.137460 -0.978089 0.156353
0.047758 0.134430 0.230144 -0.668741 -0.736401 -0.102468
0.048375 0.166693 0.923166 -0.502015 0.826154 -0.255832
0.068154 0.137332 0.757816 0.209358 -0.675982 0.706554
0.080822 0.166525 0.715799 0.379204 0.803610 -0.458710
0.051567 0.157817 0.723565 -0.594174 0.729657 -0.338464
0.083795 0.167203 0.709098 0.480132 0.861576 0.164806
0.064583 0.236779 0.642233 0.511122 0.442024 -0.737135
0.038780 0.109001 0.719549 -0.979720 0.200037 0.011586
0.040648 0.214435 0.710310 -0.955083 0.250908 0.157676
0.048644 0.131539 0.492723 0.124468 -0.991699 -0.032252
0.064945 0.151337 0.742846 -0.025532 0.387088 -0.921689
0.072777 0.151150 0.890080 0.931421 0.357026 -0.070625
0.070262 0.135385 0.428567 -0.470963 -0.880145 -0.059485
0.048304 0.065393 0.657017 -0.881309 -0.303101 -0.362524
0.078012 0.147656 0.816642 -0.994611 -0.076760 0.069697
0.069439 0.137783 0.409422 -0.714230 -0.696976 -0.064032
0.058571 0.227045 0.781610 -0.348131 0.342577 0.872609
0.054626 0.121631 0.947563 -0.267983 -0.958996 -0.092263
0.070018 0.057618 0.704193 0.814597 -0.518771 0.259438
0.070504 0.153076 0.723565 0.769429 0.569956 -0.288322
0.069352 0.138036 0.483351 -0.660302 -0.749464 -0.048004
0.059763 0.128329 0.814750 -0.032427 -0.995497 -0.089072
0.045399 0.150544 0.489574 -0.899818 0.436083 0.012647
0.051194 0.119685 0.725602 -0.206298 -0.868512 0.450697
0.050603 0.136807 0.088216 0.030096 -0.991636 -0.125505
0.046076 0.139924 0.522501 -0.788885 -0.613166 -0.041085
0.073118 0.079784 0.696043 -0.401186 0.727217 -0.556961
0.054564 0.159106 0.730408 -0.083544 0.469687 0.878871
0.068256 0.141230 0.096697 -0.867617 -0.485114 -0.109109
0.053635 0.066487 0.734071 -0.438601 -0.664774 -0.604735
0.063986 0.058702 0.769185 0.395771 -0.695672 0.599504
0.034364 0.150177 0.697554 -0.867302 0.143495 -0.476652
0.048043 0.147710 0.739066 -0.590635 -0.014942 0.806801
0.076797 0.147820 0.937158 0.306673 0.022685 0.951545
0.052183 0.150714 0.707334 0.725511 0.688113 0.011607
0.052347 0.073098 0.698613 0.475411 0.686619 -0.550035
0.070112 0.135822 0.605115 -0.187742 -0.982194 -0.006936
0.045767 0.087930 0.761586 0.884427 0.392422 -0.252576
0.068847 0.049223 0.671119 0.805147 -0.585265 -0.095933
0.081194 0.186088 0.717457 0.953087 -0.302434 -0.012628
0.045969 0.152406 0.441223 -0.849571 0.527320 0.012787
0.034364 0.136619 0.695087 -0.842834 -0.310186 -0.439791
0.072291 0.160210 0.681202 -0.356866 0.933862 0.023408
0.073568 0.156488 0.647205 0.126662 0.991921 0.007050
0.048607 0.133787 0.831852 0.677814 0.728469 -0.099506
0.071565 0.160112 0.827356 -0.634370 -0.770240 -0.065615
0.063921 0.227726 0.696235 -0.269218 -0.756157 -0.596446
0.056280 0.036549 0.680188 -0.388134 -0.909368 0.149671
0.054506 0.042810 0.692659 -0.466596 -0.875267 0.127261
0.055079 0.062129 0.736672 -0.372085 -0.732982 -0.569466
0.047183 0.157974 0.723565 -0.666394 0.627770 -0.402274
0.053137 0.145082 0.521718 0.957457 -0.288443 0.008763
0.050426 0.136226 0.450977 0.666730 -0.745272 0.006435
0.041471 0.092025 0.753698 0.849071 0.467490 -0.246031
0.040484 0.155708 0.932474 -0.755312 0.355402 0.550630
0.076065 0.149212 0.213938 0.916545 0.393341 -0.072311
0.075480 0.141764 0.411750 0.860865 -0.508749 0.009330
0.047827 0.154853 0.723565 0.762558 -0.551273 0.338532
0.050629 0.137911 0.732247 -0.162454 -0.509057 0.845263
0.083030 0.154747 0.728362 0.382657 0.448958 0.807472
0.076081 0.143514 0.684065 0.938469 -0.344910 0.017709
0.043920 0.154156 0.730510 -0.287382 0.435022 0.853327
0.070724 0.134037 0.566003 -0.034399 -0.999301 -0.014648
0.069297 0.155655 0.869888 0.695983 0.717672 0.023556
0.081194 0.163811 0.706729 0.826241 0.353017 -0.438982
0.069070 0.153824 0.696052 -0.807159 0.589780 0.025573
0.079162 0.207269 0.748828 0.924934 0.294112 0.240824
0.054123 0.111578 0.732259 -0.323555 -0.075040 0.943229
0.061321 0.154214 0.936669 -0.023900 -0.402730 0.915007
0.061384 0.143264 0.822628 -0.237046 0.907662 0.346351
0.069564 0.126070 0.715474 -0.017667 0.929687 -0.367927
0.083946 0.153351 0.740182 0.510837 0.814490 -0.275048
0.058805 0.262501 0.657714 -0.176285 0.918542 -0.353841
0.051708 0.152267 0.302069 0.845706 0.528668 -0.072749
0.052126 0.071368 0.727949 -0.606053 -0.488046 0.628101
0.060161 0.111846 0.706694 0.028901 -0.379507 -0.924737
0.064544 0.132669 0.898668 0.297590 -0.951970 -0.072064
0.068579 0.049397 0.667538 0.797853 -0.571823 -0.190914
0.050168 0.135385 0.151977 -0.011303 -0.993818 -0.110447
0.045931 0.148513 0.740172 0.987048 -0.143795 -0.071124
0.066313 0.158914 0.730464 0.100573 0.469983 0.876927
0.070509 0.086696 0.706541 -0.402120 0.453432 -0.795424
0.051432 0.223194 0.724993 -0.692691 0.468721 0.548161
0.052240 0.155592 0.745836 -0.000885 0.992814 -0.119662
0.070074 0.135932 0.218672 -0.691704 -0.715328 -0.099260
0.056382 0.133646 0.885414 -0.294796 -0.954319 -0.048679
0.067170 0.144392 0.189715 -0.931761 -0.353098 -0.084519
0.046813 0.137517 0.270229 -0.771536 -0.629711 -0.090529
0.067377 0.143790 0.234362 -0.919248 -0.385614 -0.079275
0.049604 0.070330 0.686792 0.727104 0.642286 -0.242464
0.070370 0.149587 0.818635 -0.093780 -0.026936 -0.995229
0.056695 0.230742 0.774561 -0.329898 0.551691 0.766032
0.073991 0.209993 0.727490 0.706098 0.471386 -0.528413
0.076932 0.141863 0.812488 -0.961530 0.256275 0.098912
0.069346 0.137050 0.763872 0.696584 -0.717008 0.025881
0.059591 0.215420 0.700286 -0.012851 -0.864881 -0.501813
0.086475 0.144846 0.731891 0.659187 0.287601 0.694807
0.051311 0.139116 0.661999 0.839681 -0.542656 0.021438
0.051666 0.154015 0.706855 -0.137085 0.274734 -0.951698
0.070556 0.158152 0.190994 0.004074 0.995368 -0.096049
0.039509 0.209682 0.714170 -0.960240 0.217523 0.174992
0.056677 0.142141 0.726500 -0.052211 -0.985818 -0.159487
0.053411 0.146704 0.101336 0.972424 0.221043 -0.074371
0.080993 0.147930 0.729252 0.767508 0.557428 -0.316552
0.058224 0.243690 0.673206 0.160223 -0.945134 -0.284692
0.062590 0.055124 0.741676 0.156249 -0.864732 -0.477309
0.067754 0.140781 0.715718 0.128540 -0.707836 -0.694583
0.042868 0.077749 0.661117 -0.896543 -0.220088 -0.384410
0.071389 0.160580 0.236367 0.193209 0.976707 -0.093343
0.055803 0.222146 0.702389 0.196177 -0.674748 -0.711498
0.059447 0.121112 0.960883 -0.447271 0.805457 -0.388829
0.070819 0.139006 0.774862 -0.820502 0.571081 0.025360
0.075054 0.152157 0.225238 0.841125 0.534581 -0.082051
0.040579 0.219435 0.673647 -0.952890 0.261052 -0.154445
0.053456 0.047914 0.702739 -0.599568 -0.730231 0.327537
0.071704 0.140852 0.773444 -0.900699 0.434031 0.018953
0.086475 0.138549 0.713447 0.704375 -0.460250 0.540394
0.046026 0.152594 0.224742 -0.753215 0.657258 -0.026040
0.077969 0.212617 0.674660 -0.700242 -0.711755 0.055365
0.047168 0.061708 0.701760 -0.886426 -0.441870 0.137841
0.046974 0.160192 0.824619 -0.261033 0.267076 0.927649
0.067867 0.227185 0.739699 0.635965 0.698543 -0.328003
0.081194 0.142819 0.721730 0.999399 -0.005660 0.034200
0.068843 0.140920 0.082434 -0.830529 -0.512956 -0.217020
0.073190 0.074033 0.684373 -0.650448 0.722047 -0.235724
0.075516 0.150813 0.095437 0.895011 0.435804 -0.095030
0.073149 0.139556 0.713690 0.741898 -0.669196 0.041986
0.056744 0.169914 0.928618 -0.158949 0.963168 0.216893
0.073819 0.155758 0.297621 0.706522 0.702842 -0.082702
0.069397 0.137906 0.368878 -0.752120 -0.655170 -0.071185
0.066932 0.147593 0.682958 -0.954223 0.298561 0.017868
0.061010 0.048629 0.750625 0.112637 -0.938873 -0.325315
0.066187 0.130597 0.968530 0.208146 -0.615809 0.759904
0.075714 0.080765 0.656610 0.854642 -0.176139 -0.488428
0.074375 0.144920 0.737748 0.636072 0.027484 0.771140
0.042942 0.094985 0.695542 -0.810148 -0.446022 -0.380426
0.054348 0.150545 0.760214 -0.220311 0.286341 0.932455
0.047431 0.143488 0.864570 -0.975384 -0.215139 0.048386
0.076876 0.145829 0.544090 0.962633 -0.270646 0.009366
0.049743 0.154116 0.869974 -0.804998 0.592836 0.022891
0.070787 0.150446 0.818570 -0.062418 -0.021374 -0.997821
0.058562 0.063195 0.776714 0.142535 0.873040 -0.466353
0.049528 0.159387 0.453573 0.175147 0.983208 -0.051240
0.049557 0.135334 0.841550 -0.689793 -0.710146 0.140993
0.052518 0.143058 0.302412 0.895622 -0.444801 0.003730
0.041602 0.154966 0.706855 -0.306363 0.403109 -0.862348
0.080435 0.092727 0.740472 0.088154 0.960900 0.262489
0.064948 0.253132 0.678211 0.510693 0.848398 0.139333
0.059795 0.162780 0.693106 0.000962 0.780113 -0.625638
0.038780 0.120107 0.714737 -0.975482 -0.074670 -0.207027
0.073077 0.145276 0.875453 0.996576 -0.082648 -0.002502
0.067936 0.150519 0.395831 -0.879393 0.476005 0.009345
0.076271 0.160363 0.918065 0.531261 0.484090 -0.695283
0.073463 0.135885 0.293097 0.376157 -0.925401 -0.046253
0.045426 0.215802 0.736590 -0.866293 0.475478 -0.153155
0.068146 0.151129 0.109257 -0.737243 0.673696 -0.051055
0.064035 0.151238 0.724029 0.024536 0.893960 -0.447474
0.047484 0.070509 0.670659 0.800521 0.597479 0.046738
0.069866 0.156143 0.368095 -0.581562 0.813382 -0.014010
0.072298 0.074080 0.655618 -0.864766 0.454628 0.213290
0.088518 0.148557 0.925764 0.710187 0.377272 -0.594391
0.062348 0.132520 0.899228 -0.138226 0.987681 0.073350
0.060657 0.148186 0.723565 -0.974687 -0.223273 0.011595
0.066969 0.144980 0.131533 -0.943048 -0.319760 -0.091734
0.050348 0.143163 0.058630 0.811775 -0.562685 -0.156226
0.053328 0.157169 0.874147 -0.540612 0.841265 0.003590
0.058999 0.181470 0.948136 -0.411601 0.908132 0.076691
0.058571 0.061074 0.771588 0.098330 0.962586 -0.252506
0.060491 0.164533 0.714310 -0.184039 0.979953 0.076295
0.066448 0.241424 0.652333 0.641073 0.553517 -0.531642
0.084125 0.146670 0.922066 0.936228 0.015937 -0.351030
0.060176 0.216453 0.698999 -0.045431 -0.886800 -0.459915
0.066742 0.145641 0.119641 -0.952985 -0.288934 -0.091311
0.058791 0.158631 0.686324 -0.033392 0.941770 -0.334596
0.050057 0.135023 0.126227 -0.124402 -0.984828 -0.120988
0.049159 0.141534 0.926873 0.890376 -0.421009 0.173153
0.076076 0.149181 0.426200 0.891403 0.451092 -0.043788
0.048527 0.141632 0.766765 0.928252 0.371748 -0.012278
0.075668 0.142311 0.155642 0.798763 -0.601150 -0.024397
0.072540 0.159483 0.349389 0.347329 0.934783 -0.074458
0.048002 0.134077 0.915668 -0.306781 -0.304443 -0.901776
0.079823 0.085037 0.666802 -0.833592 0.526238 0.167926
0.051537 0.139855 0.616206 0.854612 -0.518926 0.018823
0.038795 0.101162 0.695828 -0.810145 -0.381419 -0.445180
0.071889 0.161380 0.136802 0.476754 0.871402 -0.115605
0.068540 0.135012 0.792564 -0.588330 0.801657 0.105897
0.053314 0.145659 0.704203 0.977472 -0.210594 0.014095
0.067863 0.142375 0.279105 -0.887362 -0.454757 -0.076060
0.057315 0.134987 0.731157 -0.050121 -0.450608 0.891314
0.069777 0.138763 0.914579 -0.044909 0.047626 -0.997855
0.055308 0.134745 0.767419 0.393618 0.919228 -0.009251
0.052008 0.141395 0.599465 0.893562 -0.448646 0.016256
0.052789 0.159420 0.841803 0.491091 -0.859473 -0.141901
0.057884 0.129511 0.917324 0.169364 0.942643 -0.287647
0.069198 0.155355 0.686060 0.100589 0.930509 0.352187
0.043716 0.134284 0.934702 -0.662692 -0.472283 -0.581196
0.073426 0.151678 0.898322 0.922355 0.379426 -0.072784
0.064088 0.226596 0.755195 -0.217788 -0.912471 0.346360
0.046563 0.154346 0.152225 -0.448856 0.889838 -0.081957
0.050448 0.156381 0.262480 0.720403 0.687399 -0.092202
0.074754 0.139649 0.712067 0.846259 -0.532229 0.024049
0.047042 0.102624 0.709692 -0.052038 0.177191 -0.982800
0.074064 0.197781 0.697655 -0.648090 -0.725295 -0.232220
0.075067 0.152121 0.321482 0.827119 0.557850 -0.068398
0.063379 0.114787 0.957737 0.826626 -0.498647 0.260846
0.042849 0.147256 0.917852 -0.948472 0.022122 0.316088
0.059484 0.171124 0.939353 -0.239368 -0.842473 0.482641
0.081194 0.209937 0.681661 0.150781 -0.975348 -0.161125
0.044027 0.151735 0.967759 -0.652331 0.211654 0.727782
0.047298 0.151113 0.894802 -0.936761 0.341955 -0.074460
0.081037 0.145388 0.706855 0.212846 -0.285567 -0.934424
0.074924 0.152537 0.698839 0.538154 0.842718 0.014733
0.046323 0.148905 0.917738 0.490801 0.282996 -0.824031
0.071761 0.161663 0.563865 -0.295993 0.955172 -0.005916
0.049267 0.160238 0.627334 -0.302360 0.953167 0.007078
0.060584 0.246674 0.647895 -0.050207 -0.976969 0.207388
0.034364 0.152877 0.708152 -0.872228 0.339522 0.352057
0.071168 0.159937 0.489116 -0.361852 0.932154 -0.012361
0.070457 0.143088 0.054063 -0.479023 -0.334295 -0.811655
0.069752 0.155811 0.354314 -0.595829 0.802969 -0.015140
0.058715 0.259518 0.697875 -0.119239 0.953854 0.275579
0.061296 0.260152 0.694140 0.050504 0.983341 0.174615
0.044752 0.142978 0.837919 0.968409 0.215622 -0.125265
0.058881 0.147998 0.706855 0.035403 0.024019 -0.999084
0.068322 0.154508 0.937604 -0.077123 -0.092133 0.992755
0.054489 0.157505 0.767783 0.461304 -0.887210 -0.007560
0.065216 0.158247 0.884162 -0.382755 -0.922839 0.043196
0.045619 0.151264 0.285653 -0.869089 0.494623 0.005690
0.057934 0.076644 0.691467 0.132375 0.991177 -0.006704
0.075806 0.142712 0.346793 0.877183 -0.480122 0.005699
0.063269 0.184591 0.733720 0.196678 0.014747 0.980357
0.053920 0.057698 0.657908 0.537291 0.833614 0.128085
0.081194 0.118425 0.724583 0.923046 0.077618 0.376779
0.062762 0.132003 0.796552 0.170408 -0.977413 -0.125001
0.069681 0.200983 0.735157 0.205049 -0.364310 0.908423
0.052670 0.143554 0.640085 0.943569 -0.330845 0.014822
0.038490 0.145162 0.937091 -0.874414 -0.046281 -0.482969
0.071819 0.135241 0.969344 0.432197 -0.434198 0.790365
0.052059 0.225761 0.763561 -0.720492 0.517642 0.461452
0.067118 0.148134 0.386611 -0.930930 0.365138 0.006534
0.067306 0.148682 0.595457 -0.931998 0.362128 0.015618
0.038780 0.203196 0.718049 -0.979381 0.142669 0.143032
0.073076 0.134758 0.332286 0.312415 -0.948940 -0.043705
0.059124 0.234277 0.732283 -0.201833 0.610466 0.765895
0.069349 0.134237 0.842246 -0.589739 0.794913 -0.142554
0.067154 0.161386 0.696796 0.317337 0.686038 -0.654713
0.069017 0.153668 0.240299 -0.657376 0.752909 -0.031383
0.051162 0.122705 0.691093 -0.262839 -0.828177 -0.495013
0.038780 0.199807 0.708614 -0.856717 -0.385774 -0.342365
0.048117 0.159422 0.149496 0.277830 0.953105 -0.120010
0.041878 0.206763 0.752627 -0.905257 0.242049 0.349174
0.073471 0.156772 0.366473 0.589180 0.804742 -0.072512
0.053605 0.051250 0.651614 -0.622539 -0.556793 -0.549933
0.052768 0.143876 0.139512 0.883507 -0.468221 -0.013567
0.039375 0.176490 0.725643 -0.878353 -0.128592 0.460392
0.065590 0.163403 0.815086 -0.292174 -0.952360 0.087432
0.053368 0.145836 0.708784 0.979502 -0.200946 0.014000
0.060883 0.236342 0.777707 0.046788 0.618038 0.784755
0.048668 0.131458 0.398160 -0.068061 -0.995789 -0.061417
0.045341 0.146148 0.906598 0.997552 0.009429 0.069284
0.072416 0.139211 0.818556 0.052885 -0.030162 -0.998145
0.043653 0.156535 0.965095 -0.667609 0.400799 0.627422
0.076534 0.144835 0.337726 0.925570 -0.378566 0.002903
0.076960 0.087663 0.746722 -0.691794 0.721935 -0.015174
0.059621 0.029742 0.691643 0.073035 -0.985193 0.155117
0.070305 0.135258 0.487226 -0.355012 -0.933860 -0.043264
0.052742 0.148889 0.419462 0.912678 0.406325 -0.043810
0.075428 0.141613 0.310219 0.840245 -0.542178 0.005559
0.075017 0.152266 0.363342 0.815864 0.574798 -0.063035
0.074035 0.146435 0.052603 0.571481 0.138659 -0.808816
0.052266 0.167197 0.932113 -0.315514 0.794045 0.519561
0.059398 0.242528 0.636270 0.146948 -0.877744 0.456039
0.083109 0.154951 0.957547 0.885476 0.337903 0.318990
0.074155 0.125114 0.945325 0.540907 -0.828138 -0.146991
0.074230 0.147289 0.793229 -0.991727 -0.066674 0.109693
0.052639 0.143456 0.196548 0.890739 -0.454513 -0.001241
0.048978 0.148498 0.713690 -0.345140 0.906664 0.242568
0.048110 0.159406 0.829670 -0.681063 0.726647 0.090206
0.050992 0.145423 0.759729 -0.406919 -0.155476 0.900136
0.063917 0.136360 0.706855 0.061423 -0.360037 -0.930914
0.045617 0.151257 0.134225 -0.769336 0.637290 -0.044542
0.065234 0.236011 0.643731 0.562536 0.434175 -0.703594
0.046870 0.155348 0.381610 -0.694876 0.719122 -0.003179
0.049435 0.214660 0.749941 0.749586 -0.655591 0.091221
0.047600 0.127078 0.688040 -0.394996 -0.723678 -0.565923
0.058965 0.144307 0.723565 0.722441 -0.691218 -0.017225
0.063137 0.132825 0.895300 0.211386 -0.974552 -0.074599
0.038780 0.087605 0.696906 -0.697438 0.567180 -0.438049
0.064529 0.066089 0.773549 0.462895 -0.475516 0.748072
0.075575 0.150640 0.136592 0.893963 0.439287 -0.088639
0.046241 0.139384 0.375292 -0.822272 -0.564883 -0.069105
0.052604 0.149342 0.232034 0.923379 0.377449 -0.070028
0.062782 0.120117 0.941530 0.442843 0.822871 0.356052
0.066705 0.070785 0.754000 -0.547985 0.824389 0.141758
0.052653 0.135564 0.920749 -0.533480 -0.786909 0.310119
0.066655 0.145895 0.628060 -0.941326 -0.337280 -0.012133
0.077895 0.174569 0.726057 0.783340 -0.079283 0.616517
0.073098 0.145967 0.914535 -0.016834 0.005238 -0.999845
0.043149 0.069588 0.702754 -0.936492 -0.337591 0.094947
0.046972 0.094102 0.699227 0.646682 0.704246 -0.292985
0.050455 0.136321 0.662743 0.745390 -0.666175 0.024577
0.050557 0.156027 0.226403 0.738836 0.666975 -0.096259
0.045430 0.075579 0.718508 -0.887701 -0.348584 0.300792
0.049989 0.134800 0.484897 0.587514 -0.809206 0.003438
0.049437 0.206714 0.706234 0.451656 -0.483203 -0.750015
0.072337 0.160074 0.576998 -0.159030 0.987251 -0.006721
0.052116 0.229000 0.758796 -0.703641 0.629335 0.329889
0.042873 0.087915 0.749048 0.751539 0.654716 -0.080853
0.075406 0.141548 0.232224 0.806750 -0.590837 -0.008157
0.074629 0.144646 0.740967 -0.991154 0.111859 -0.071431
0.074586 0.138570 0.913827 -0.849980 0.499320 -0.167968
0.048261 0.225526 0.655732 -0.872883 0.304438 -0.381304
0.048210 0.152007 0.678780 -0.424906 0.227524 -0.876178
0.068325 0.141028 0.315144 -0.851643 -0.518932 -0.073583
0.049358 0.159941 0.497343 0.007006 0.999350 -0.035367
0.075828 0.147846 0.739397 -0.192066 0.077578 -0.978311
0.051412 0.139446 0.490643 0.822875 -0.568033 0.014696
0.067120 0.159515 0.739598 0.463963 0.883132 0.069398
0.044718 0.144360 0.553424 -0.929166 -0.368642 -0.027441
0.046162 0.153036 0.447178 -0.832028 0.554565 0.013662
0.051608 0.140085 0.584519 0.856541 -0.515787 0.017369
0.074318 0.154303 0.586256 0.523978 0.851521 -0.018962
0.044628 0.154097 0.918367 -0.858047 0.389396 0.334852
0.067393 0.246100 0.665363 0.689989 0.672819 -0.266891
0.050061 0.135034 0.506715 0.633791 -0.773420 0.011387
0.051845 0.151819 0.494728 0.830524 0.555146 -0.045193
0.056343 0.171647 0.702873 -0.157993 0.570998 -0.805605
0.052170 0.141923 0.418966 0.882889 -0.469493 0.009150
0.072757 0.153480 0.723565 0.818156 0.463896 -0.339737
0.076114 0.134027 0.824263 0.359880 -0.293869 0.885510
0.038780 0.168533 0.719947 -0.982581 0.138160 0.124286
0.060478 0.033610 0.646967 0.038737 -0.808908 -0.586658
0.068959 0.139180 0.501542 -0.733007 -0.678809 -0.043806
0.052585 0.143277 0.250855 0.894283 -0.447499 0.001707
0.063588 0.158592 0.766714 -0.260219 -0.965469 -0.012494
0.072774 0.133877 0.536569 0.538226 -0.842734 0.010631
0.069347 0.138052 0.547927 -0.579874 -0.814116 -0.031003
0.081194 0.162073 0.710505 0.941772 0.281674 -0.183643
0.046690 0.233938 0.676371 -0.901243 0.432674 -0.023532
0.048780 0.143573 0.920749 -0.943375 -0.167718 0.286205
0.068500 0.242116 0.690773 0.758219 0.645389 0.092616
0.047957 0.151326 0.888271 -0.924714 0.375530 -0.062299
0.057835 0.160090 0.793624 0.168492 -0.979326 0.111944
0.073861 0.134499 0.817135 0.750329 -0.657999 -0.063582
0.067693 0.149810 0.413010 -0.897729 0.440449 0.009331
0.052808 0.148673 0.645564 0.885149 0.465163 -0.011586
0.056909 0.160111 0.970347 -0.139959 0.539539 0.830246
0.066133 0.171290 0.714611 0.130747 0.866615 0.481542
0.073234 0.138690 0.800704 0.850464 -0.506135 -0.143314
0.067921 0.143995 0.080832 -0.901203 -0.364102 -0.235079
0.047822 0.158457 0.612522 -0.660487 0.750426 0.024839
0.053980 0.045997 0.656717 -0.585913 -0.675479 -0.447699
0.076677 0.079505 0.718198 0.920646 -0.283189 0.268729
0.050355 0.156686 0.367160 0.627331 0.775019 -0.076169
0.081194 0.187112 0.706171 0.700583 -0.559508 -0.442870
0.071395 0.155214 0.745644 0.237300 0.960414 -0.145922
0.045153 0.149741 0.518454 -0.918634 0.394900 0.012848
0.069522 0.134279 0.843157 0.605023 -0.783014 0.144347
0.038780 0.206672 0.695959 -0.428212 -0.795053 -0.429564
0.047241 0.136119 0.197293 -0.729667 -0.675667 -0.105165
0.048587 0.160956 0.450538 -0.191973 0.980715 -0.036652
0.066679 0.046286 0.693762 0.652181 -0.748498 0.120048
0.060608 0.162489 0.807022 -0.017067 -0.992416 0.121736
0.063956 0.145107 0.920749 0.685296 -0.722596 0.090685
0.067288 0.061773 0.678458 -0.576171 0.781646 -0.238864
0.067024 0.130142 0.725863 0.334368 -0.880207 -0.336800
0.085757 0.160378 0.709559 0.926183 -0.059536 0.372343
0.069558 0.155245 0.452657 -0.736062 0.676717 0.016311
0.071604 0.156754 0.803986 -0.730770 -0.669011 0.135647
0.077418 0.215821 0.713258 0.928045 0.310304 0.206018
0.072160 0.132089 0.543021 0.374878 -0.927071 -0.002526
0.076218 0.143912 0.504214 0.926131 -0.377061 0.010288
0.071895 0.161362 0.699202 -0.465850 0.884416 0.028147
0.046875 0.147988 0.057874 -0.898576 0.419971 -0.127219
0.058132 0.238336 0.635708 0.534709 -0.770925 0.346064
0.033681 0.157953 0.717641 -0.527643 0.524809 0.667958
0.059673 0.043436 0.636981 -0.091948 -0.572640 -0.814634
0.044165 0.146165 0.190746 -0.965324 -0.249510 -0.076776
0.071675 0.106608 0.710042 0.157722 -0.048149 -0.986309
0.081194 0.083171 0.711103 0.980355 -0.164727 0.108489
0.072289 0.160215 0.295960 0.357611 0.929930 -0.085696
0.057194 0.055125 0.742123 -0.247770 -0.854957 -0.455696
0.064502 0.158599 0.778336 -0.323914 -0.945177 0.041476
0.067415 0.158827 0.902732 -0.499085 -0.863584 0.071672
0.075250 0.141387 0.087006 0.663258 -0.745362 -0.067260
0.069521 0.144179 0.721550 0.133865 0.008008 0.990967
0.045006 0.143420 0.519027 -0.913108 -0.406182 -0.035344
0.049019 0.139472 0.780130 -0.853014 -0.519475 -0.050124
0.066981 0.219940 0.765447 -0.620700 -0.730120 -0.285754
0.054867 0.129243 0.936360 -0.155876 -0.441293 0.883721
0.076773 0.081636 0.732776 0.850649 -0.481871 -0.210229
0.044512 0.147647 0.702313 -0.961930 0.272756 0.017186
0.038780 0.089899 0.716440 -0.992137 -0.108364 0.062615
0.048757 0.210156 0.765235 -0.852728 0.191494 0.485988
0.066719 0.145706 0.508986 -0.942786 -0.331959 -0.030942
0.073231 0.079084 0.694979 -0.399248 0.733663 -0.549854
0.081194 0.202666 0.735225 0.957771 -0.239999 0.158348
0.037371 0.156041 0.946975 -0.920342 0.381394 -0.086657
0.050418 0.057951 0.657323 -0.835691 -0.407386 -0.368317
0.059367 0.162948 0.913926 -0.080014 0.980473 0.179639
0.080131 0.075698 0.672612 0.952549 -0.245910 -0.179382
0.063248 0.124246 0.934884 0.461078 0.635605 0.619204
0.071348 0.160460 0.399992 -0.140040 0.989147 -0.044462
0.039563 0.137110 0.959969 -0.834675 -0.362364 0.414740
0.068567 0.152358 0.610460 -0.845366 0.533800 0.020353
0.045780 0.211437 0.696381 0.289135 -0.758909 -0.583487
0.076680 0.147005 0.754932 0.569292 0.195794 0.798480
0.054933 0.155586 0.753851 -0.042445 0.896557 0.440889
0.074134 0.137841 0.680457 0.779641 -0.625734 0.024848
0.066618 0.146679 0.686814 -0.966591 0.255766 0.016903
0.050194 0.157213 0.198514 0.701439 0.705166 -0.103563
0.054491 0.160346 0.737270 -0.377428 0.923815 0.064143
0.050834 0.157548 0.844881 0.638207 -0.757490 -0.137481
0.050528 0.136560 0.542143 0.732728 -0.680235 0.019753
0.069450 0.218643 0.695397 -0.563755 -0.654378 -0.503954
0.081194 0.093436 0.721087 0.959578 -0.176501 0.219219
0.052715 0.148979 0.263778 0.927114 0.369219 -0.064324
0.050931 0.137877 0.706093 0.807355 -0.589555 0.024579
0.055642 0.124053 0.960477 -0.214221 -0.870169 0.443752
0.047404 0.157092 0.693685 -0.718316 0.695190 0.027059
0.038780 0.077479 0.688584 -0.998070 -0.033243 -0.052450
0.074770 0.139693 0.314591 0.757018 -0.653393 -0.001130
0.060886 0.144354 0.723565 0.916144 -0.398810 -0.040386
0.067626 0.061452 0.675071 -0.600055 0.776339 -0.192956
0.066874 0.145256 0.595972 -0.932036 -0.361896 -0.018463
0.070809 0.149249 0.723565 0.930491 0.255245 -0.262746
0.038780 0.144328 0.711515 -0.997952 0.019534 -0.060917
0.081194 0.080936 0.699424 0.991992 0.036804 -0.120816
0.056850 0.142996 0.721550 -0.003058 -0.631419 -0.775436
0.046557 0.138354 0.556287 -0.620723 -0.783387 -0.031761
0.072878 0.134181 0.490948 0.506576 -0.862195 0.000856
0.074805 0.154083 0.729613 -0.848525 -0.490571 0.198356
0.045632 0.141375 0.091830 -0.886752 -0.449207 -0.109015
0.074039 0.137564 0.270096 0.529312 -0.847637 -0.036601
0.048013 0.098957 0.732432 -0.394374 0.258268 0.881911
0.049143 0.132035 0.254596 -0.191046 -0.976990 -0.094823
0.058512 0.061192 0.771518 0.103603 0.961884 -0.253073
0.073158 0.134998 0.176124 0.017595 -0.995169 -0.096584
0.080254 0.150350 0.721550 0.177237 0.414353 -0.892692
0.066269 0.042007 0.671734 0.604873 -0.796205 0.013641
0.075946 0.143120 0.129911 0.826878 -0.561857 -0.024274
0.047116 0.136529 0.343281 -0.712757 -0.696739 -0.080821
0.065162 0.114468 0.940902 0.954998 -0.296612 0.000576
0.056967 0.123445 0.930814 -0.149343 -0.901213 0.406831
0.081541 0.150420 0.820990 0.755146 0.142711 -0.639834
0.071312 0.133826 0.082025 -0.556471 -0.798367 -0.230109
0.039368 0.208096 0.675758 0.710347 -0.700048 0.073071
0.069793 0.155929 0.198324 -0.318976 0.944819 -0.074638
0.051873 0.151727 0.439180 0.841229 0.538150 -0.052240
0.073345 0.138570 0.741297 0.210690 0.306131 0.928382
0.070840 0.134169 0.818801 0.106784 -0.121367 -0.986847
0.071453 0.055455 0.677552 0.880255 -0.473179 0.035399
0.062625 0.242271 0.760470 0.310430 0.933029 0.181907
0.076721 0.147301 0.617828 0.909155 0.416275 -0.012309
0.063481 0.211462 0.684111 0.304784 0.544013 -0.781765
0.063861 0.133257 0.855030 -0.263795 0.960194 -0.091867
0.048932 0.131348 0.142815 -0.453820 -0.882940 -0.120268
0.086101 0.145712 0.949520 0.999665 -0.024559 0.008219
0.059112 0.133537 0.876300 -0.090685 -0.995859 -0.006460
0.060116 0.167564 0.697689 0.018450 0.638863 -0.769099
0.047803 0.154599 0.920749 -0.791587 0.501671 0.348879
0.061687 0.151523 0.974121 0.043295 0.203854 0.978044
0.045136 0.143477 0.086233 -0.923773 -0.358016 -0.135894
0.038020 0.139316 0.749687 -0.557174 -0.745358 0.366059
0.080745 0.078326 0.670795 0.948060 -0.233582 -0.215922
0.077981 0.144829 0.829082 -0.992236 0.088399 -0.087488
0.046064 0.152716 0.615996 -0.853732 0.520332 0.019880
0.048084 0.126497 0.939487 -0.491030 -0.774355 -0.399080
0.040251 0.077234 0.707350 -0.963946 -0.241055 0.112696
0.061746 0.133054 0.891182 0.106334 -0.991418 -0.076053
0.078933 0.103147 0.729604 0.711804 0.222969 0.666048
0.067529 0.143348 0.502687 -0.898887 -0.436571 -0.037530
0.042976 0.142409 0.827902 0.973270 0.217860 -0.072684
0.069770 0.080627 0.765767 -0.810552 0.483632 -0.330312
0.081194 0.101918 0.704427 0.949944 0.189520 -0.248371
0.066499 0.042647 0.671609 0.626631 -0.779314 0.001859
0.045453 0.141960 0.530423 -0.881223 -0.471206 -0.037554
0.053366 0.145827 0.295770 0.949571 -0.313552 0.000308
0.053706 0.058379 0.755767 -0.601430 -0.788250 0.130164
0.062118 0.148574 0.920304 -0.468646 -0.719704 -0.512248
0.044885 0.143813 0.392528 -0.925472 -0.374970 -0.053851
0.076063 0.143461 0.088680 0.819490 -0.572046 -0.034624
0.060378 0.031163 0.650413 0.067852 -0.861313 -0.503524
0.055727 0.162380 0.835868 -0.272094 0.955254 0.115996
0.049724 0.136409 0.078033 -0.035861 -0.984035 -0.174322
0.063731 0.224784 0.700346 -0.254438 -0.718912 -0.646859
0.074064 0.162616 0.934974 0.519672 0.635266 -0.571296
0.066735 0.085538 0.698339 -0.462022 0.825391 -0.324448
0.045383 0.142189 0.160319 -0.902077 -0.420891 -0.095437
0.081194 0.159139 0.726814 0.983401 0.125777 0.130776
0.052454 0.153195 0.926267 -0.327277 0.268930 -0.905851
0.055599 0.163306 0.919685 0.215642 -0.906655 -0.362595
0.073078 0.140371 0.900439 -0.899406 0.431012 0.072785
0.060686 0.147106 0.723565 -0.820094 -0.572090 0.012633
0.076255 0.150926 0.825394 0.165498 0.043098 0.985268
0.045017 0.142127 0.968815 -0.619422 -0.165621 0.767389
0.064978 0.236580 0.653103 -0.455891 -0.868623 0.194055
0.073709 0.136604 0.096182 0.050473 -0.992130 -0.114586
0.076205 0.148703 0.929332 0.609885 0.092734 -0.787045
0.054084 0.153066 0.920749 -0.538415 0.814007 0.217948
0.081194 0.093163 0.734821 0.593635 0.540332 0.596354
0.083442 0.161872 0.714128 0.671767 -0.643185 -0.367481
0.054756 0.174307 0.734514 -0.292794 0.343777 0.892238
0.055352 0.238207 0.754602 -0.387316 0.919801 -0.062861
0.047211 0.136217 0.242456 -0.730353 -0.676055 -0.097644
0.056828 0.163726 0.823128 0.194572 -0.980811 -0.012337
0.081194 0.215322 0.698610 0.980834 0.192913 -0.027380
0.046799 0.141966 0.747117 -0.948628 -0.307910 0.072778
0.048909 0.142182 0.928196 0.829631 -0.413514 0.375125
0.080386 0.075681 0.700565 0.965823 -0.256585 0.036739
0.048413 0.160387 0.661407 -0.590997 0.806192 0.027876
0.064454 0.076497 0.706423 -0.039545 0.451297 -0.891497
0.062453 0.162363 0.730984 -0.099170 -0.983593 0.150700
0.075378 0.151213 0.531988 0.815745 0.577319 -0.035538
0.063293 0.114381 0.734789 0.161174 -0.283611 0.945298
0.055587 0.134507 0.925877 -0.511773 0.857598 0.051120
0.041833 0.203893 0.699429 -0.168412 -0.774806 -0.609354
0.075056 0.152153 0.494308 0.791477 0.609632 -0.043740
0.072377 0.101062 0.709279 -0.243994 0.592627 -0.767633
0.061162 0.124023 0.964916 0.214444 0.763780 -0.608814
0.065342 0.159103 0.788624 0.363808 0.927210 -0.089022
0.078152 0.144256 0.827107 0.991598 -0.113105 0.062770
0.076814 0.088365 0.752602 -0.811689 0.566418 -0.142593
0.046865 0.158043 0.814245 -0.748773 0.656445 -0.091754
0.046794 0.155099 0.144265 -0.316138 0.943855 -0.095887
0.085792 0.149157 0.718813 0.399450 0.340957 0.850993
0.048781 0.161591 0.510552 -0.234557 0.971819 -0.023460
0.084443 0.125741 0.719887 0.485259 -0.871920 0.065408
0.049455 0.222307 0.738887 -0.779347 0.583909 -0.227308
0.037513 0.128468 0.696369 -0.589565 -0.707535 -0.389625
0.070801 0.128637 0.733930 0.630451 -0.470169 0.617634
0.062683 0.049162 0.719245 0.267594 -0.742640 0.613905
0.059996 0.267466 0.667851 0.034494 0.996759 0.072682
0.039599 0.206082 0.665748 0.859417 -0.479320 0.177920
0.060664 0.137316 0.750724 -0.154772 -0.973664 0.167406
0.053669 0.164044 0.698573 -0.264037 0.629936 -0.730386
0.038780 0.171461 0.713897 -0.955548 0.117785 -0.270287
0.066119 0.139835 0.760094 0.189146 -0.441125 0.877287
0.072840 0.134071 0.499690 0.507980 -0.861366 0.002342
0.044550 0.147771 0.560964 -0.954656 0.297461 0.012186
0.063046 0.129772 0.825276 0.027999 -0.204305 0.978507
0.058049 0.230855 0.769397 0.165189 -0.967512 -0.191399
0.048957 0.157163 0.733380 0.739284 -0.670041 0.067120
0.044364 0.147165 0.697541 -0.967765 0.251318 0.016415
0.072188 0.057839 0.683767 0.883452 -0.462476 0.075019
0.067808 0.152670 0.746646 0.477274 -0.254915 0.840968
0.049414 0.159758 0.325032 0.387358 0.917976 -0.085285
0.052536 0.136068 0.763092 0.602489 0.797591 -0.029260
0.070440 0.157814 0.380770 -0.422118 0.906155 -0.026454
0.062982 0.151766 0.935542 -0.223210 -0.530085 0.818039
0.052892 0.159156 0.843377 0.491000 -0.859103 -0.144434
0.046034 0.125421 0.948811 -0.579788 -0.814102 -0.032915
0.055450 0.121832 0.692019 -0.135758 -0.875768 -0.463249
0.068361 0.140922 0.644762 -0.731487 -0.681822 -0.006742
0.063248 0.150104 0.748417 0.236933 -0.148432 0.960120
0.053457 0.133262 0.740386 -0.466859 -0.881571 0.069830
0.045383 0.142187 0.293364 -0.896959 -0.435814 -0.074367
0.072071 0.160850 0.261029 0.347892 0.932969 -0.092416
0.074232 0.154555 0.354638 0.740258 0.668531 -0.071299
0.067085 0.200784 0.735816 0.219792 -0.271036 0.937140
0.042818 0.205264 0.725945 -0.749380 0.435845 -0.498466
0.055623 0.132664 0.742114 0.319899 0.944765 -0.071297
0.076105 0.215698 0.672719 -0.742223 -0.667685 0.057456
0.067601 0.229056 0.682257 -0.603943 -0.753516 -0.259742
0.070274 0.135348 0.333832 -0.597280 -0.797995 -0.080376
0.046003 0.156189 0.706855 -0.249375 0.395799 -0.883830
0.045709 0.218737 0.717241 -0.878447 0.357122 0.317481
0.045309 0.150251 0.200118 -0.873613 0.486541 -0.008825
0.038780 0.148852 0.713094 -0.996459 0.062162 -0.056609
0.046898 0.152083 0.904299 0.914001 -0.399469 0.070907
0.069436 0.154890 0.251141 -0.547004 0.836103 -0.041464
0.051657 0.120635 0.695152 -0.230879 -0.917818 -0.322964
0.046180 0.139586 0.280003 -0.832990 -0.546881 -0.083960
0.057322 0.036957 0.699060 -0.208671 -0.933793 0.290668
0.046331 0.153588 0.426964 -0.813889 0.580865 0.013437
0.071161 0.220891 0.720868 0.812382 0.419237 0.405309
0.067770 0.073169 0.759874 -0.661806 0.742141 -0.106020
0.070949 0.133382 0.411273 -0.266618 -0.961956 -0.059623
0.057816 0.033475 0.685361 -0.172193 -0.974751 0.142161
0.065686 0.131842 0.909521 -0.333279 0.942657 -0.017966
0.056238 0.172345 0.696488 -0.101498 0.977330 -0.185807
0.061142 0.154935 0.818897 -0.015318 -0.188973 -0.981863
0.073515 0.136037 0.694277 0.713470 -0.700155 0.027264
0.084770 0.139105 0.945463 0.947691 -0.283237 -0.147165
0.043070 0.135272 0.687331 -0.014556 -0.402807 0.915169
0.069716 0.145285 0.731820 0.167625 -0.858096 -0.485358
0.044857 0.148130 0.739432 0.219456 0.154501 -0.963311
0.047354 0.136131 0.086653 -0.724854 -0.672404 -0.149865
0.055895 0.132751 0.937580 -0.056630 -0.142981 0.988104
0.049181 0.127172 0.712426 -0.137615 0.990218 0.023048
0.046134 0.152946 0.546113 -0.842105 0.539033 0.017402
0.081058 0.166866 0.707313 0.886882 0.222645 -0.404809
0.066030 0.173745 0.720200 0.144482 0.987386 0.064761
0.083845 0.138062 0.942886 0.912823 -0.324310 -0.248149
0.070285 0.135317 0.591620 -0.148044 -0.988929 -0.010079
0.061938 0.145460 0.920749 0.551467 -0.833111 0.042533
0.074256 0.154485 0.505608 0.618765 0.784490 -0.041291
0.071758 0.072052 0.684650 -0.700064 0.676340 -0.229072
0.048634 0.148579 0.713690 -0.658620 0.733438 0.168191
0.070507 0.134669 0.170645 -0.647396 -0.754379 -0.108583
0.073989 0.155262 0.290444 0.726285 0.682432 -0.082437
0.074436 0.080979 0.723509 0.860564 -0.321154 0.395336
0.072664 0.170615 0.696892 0.304910 0.920726 -0.243502
0.068279 0.141162 0.513243 -0.841559 -0.538642 -0.040547
0.075183 0.151782 0.447846 0.817023 0.574454 -0.049751
0.068065 0.141786 0.162342 -0.878549 -0.467752 -0.096748
0.071868 0.140453 0.880929 0.891933 -0.451290 -0.028166
0.047591 0.150155 0.759262 -0.956996 0.286262 0.047042
0.083539 0.133184 0.706855 0.185159 -0.624945 -0.758393
0.051338 0.244232 0.677631 -0.754300 0.648916 0.099699
0.048725 0.131272 0.519943 0.209007 -0.977652 -0.022633
0.071845 0.070198 0.666096 -0.817146 0.570533 0.082248
0.067674 0.142924 0.274142 -0.899942 -0.429447 -0.075371
0.081095 0.097655 0.753287 -0.866940 0.466879 -0.174468
0.068936 0.124224 0.922486 0.333954 -0.888705 -0.314131
0.067024 0.144819 0.555467 -0.925966 -0.376727 -0.025762
0.073533 0.156589 0.448725 0.495297 0.867045 -0.053981
0.073023 0.135347 0.739533 0.577639 -0.704369 0.412549
0.085728 0.150197 0.948158 0.987272 0.151565 -0.048183
0.050972 0.154671 0.583565 0.505882 0.862333 -0.021563
0.048400 0.142141 0.732622 -0.078973 -0.902602 0.423171
0.061554 0.150121 0.721550 0.043950 0.610178 -0.791044
0.053475 0.146275 0.252897 0.988517 -0.149530 -0.021808
0.054565 0.056124 0.644351 -0.555800 -0.451617 -0.697946
0.045359 0.150415 0.097862 -0.799252 0.599067 -0.048109
0.082489 0.130245 0.711694 0.268843 -0.919563 -0.286580
0.050087 0.135121 0.178033 0.017106 -0.994562 -0.102732
0.084135 0.152091 0.941724 0.925584 0.226409 -0.303371
0.058004 0.145811 0.727805 0.010091 -0.894544 0.446867
0.048892 0.151150 0.926013 0.873259 0.483502 0.060376
0.074048 0.137591 0.250549 0.501774 -0.863904 -0.043504
0.059927 0.243794 0.635691 0.098135 -0.886440 0.452321
0.067799 0.139748 0.818664 -0.079078 0.078249 -0.993793
0.067263 0.148557 0.131953 -0.897629 0.440561 -0.012948
0.048723 0.131278 0.232053 -0.371480 -0.922624 -0.103768
0.042582 0.153538 0.965636 -0.709283 0.282546 0.645821
0.049521 0.132104 0.724965 -0.587372 -0.722623 -0.364431
0.070037 0.151097 0.065410 -0.690969 0.704877 -0.160346
0.068088 0.064789 0.759071 0.727690 -0.596536 0.338544
0.047395 0.135616 0.203917 -0.712061 -0.694230 -0.104947
0.076172 0.143779 0.319821 0.900243 -0.435374 0.003437
0.046181 0.148638 0.970094 -0.568535 0.090152 0.817704
0.063137 0.133869 0.881778 -0.221963 0.974527 0.032081
0.053000 0.140336 0.818682 0.093471 0.074990 -0.992794
0.077807 0.073230 0.706293 0.939316 -0.304363 0.158267
0.067105 0.135622 0.871416 -0.538085 0.842733 -0.016324
0.054006 0.131220 0.835740 0.379268 0.918009 -0.115828
0.076044 0.139578 0.923704 -0.225148 -0.971340 -0.076198
0.045634 0.141369 0.380407 -0.874421 -0.481067 -0.062949
0.047621 0.153379 0.848361 -0.866866 0.483320 0.122246
0.070158 0.144589 0.733446 0.125228 -0.268772 0.955029
0.034722 0.148448 0.940935 0.811721 0.435792 0.388837
0.059105 0.162643 0.675888 -0.300428 0.799587 -0.520004
0.059769 0.242915 0.633047 0.279499 0.406044 -0.870062
0.053726 0.058941 0.758084 -0.610621 -0.750003 0.254238
0.048520 0.159236 0.720006 -0.192772 -0.265615 -0.944610
0.049733 0.136376 0.745426 -0.495013 -0.766285 0.409597
0.045258 0.142596 0.565755 -0.893899 -0.447244 -0.030298
0.056226 0.159692 0.730103 -0.052309 0.316289 0.947220
0.048131 0.133646 0.724242 0.617940 0.690194 0.376539
0.050101 0.135165 0.274963 0.257150 -0.964173 -0.065149
0.057042 0.119339 0.724744 -0.065702 -0.985877 0.154044
0.034364 0.145823 0.742992 -0.932276 -0.328439 0.151624
0.081194 0.091348 0.705976 0.774638 0.496851 -0.391247
0.070912 0.131916 0.824286 -0.591984 0.805505 -0.026756
0.054839 0.134195 0.856709 0.407423 0.909295 -0.084794
0.063838 0.235932 0.742998 0.349054 0.849101 -0.396470
0.057818 0.173403 0.711728 -0.065435 0.987980 0.140050
0.057878 0.147639 0.920749 -0.208047 0.977037 0.045993
0.060155 0.076316 0.699206 0.009507 0.884098 -0.467204
0.076173 0.143781 0.480373 0.920597 -0.390398 0.009541
0.047907 0.158735 0.511315 -0.551715 0.834025 0.003443
0.051283 0.139025 0.445403 0.802076 -0.597069 0.013532
0.047548 0.145724 0.764976 0.998626 0.048196 -0.020591
0.050035 0.143442 0.053278 0.825908 -0.537362 -0.170639
0.045364 0.214530 0.656989 0.871277 -0.440304 0.216815
0.046603 0.138203 0.270745 -0.792960 -0.602753 -0.088902
0.073640 0.156278 0.499576 0.447800 0.893197 -0.040912
0.053990 0.135159 0.768253 -0.491121 -0.871075 0.005354
0.067238 0.148484 0.318962 -0.920457 0.390822 0.004144
0.051232 0.138860 0.691299 0.836417 -0.547616 0.022854
0.071686 0.151238 0.723704 0.092374 0.809377 -0.579980
0.068700 0.158144 0.678298 0.260729 0.355137 -0.897718
0.074757 0.153023 0.462659 0.765319 0.641652 -0.050691
0.053320 0.058264 0.670610 0.542823 0.832070 -0.114035
0.074152 0.137893 0.354180 0.666150 -0.745796 -0.005669
0.074426 0.146808 0.058798 0.693118 0.190817 -0.695109
0.041218 0.134957 0.937682 -0.764030 -0.446976 -0.465263
0.047117 0.170062 0.714232 -0.200671 0.677055 0.708045
0.049295 0.138290 0.894648 0.803891 0.590079 0.074613
0.050456 0.136324 0.517767 0.719626 -0.694099 0.019076
0.075162 0.145775 0.723565 -0.939284 0.052058 0.339169
0.069242 0.137378 0.765203 -0.707610 0.706330 -0.019654
0.045050 0.160598 0.718599 -0.286148 -0.548067 -0.785966
0.053501 0.087455 0.685004 0.432776 0.727887 0.531870
0.050976 0.122271 0.732539 -0.535518 -0.317632 0.782516
0.046529 0.154236 0.467527 -0.796830 0.604000 0.015643
0.063640 0.129264 0.919206 -0.148123 0.925308 -0.349091
0.067384 0.061978 0.654747 -0.666098 0.716826 0.206091
0.044995 0.143455 0.413507 -0.918050 -0.393083 -0.051663
0.070965 0.133337 0.515171 -0.053597 -0.998155 -0.028545
0.056606 0.209940 0.702348 0.165060 -0.821852 -0.545266
0.070811 0.161148 0.817573 0.580322 0.812349 -0.057577
0.081235 0.143067 0.823610 0.646064 -0.113243 0.754836
0.068158 0.151167 0.366263 -0.860200 0.509882 0.008764
0.051258 0.153737 0.483904 0.728526 0.683249 -0.049196
0.069689 0.137055 0.633423 -0.299184 -0.954195 -0.000467
0.038780 0.077415 0.677046 -0.984282 -0.052276 -0.168690
0.047223 0.136177 0.448037 -0.552666 -0.831272 -0.059561
0.061442 0.158444 0.755474 0.030340 0.871776 0.488964
0.067133 0.144500 0.580262 -0.918929 -0.393777 -0.022583
0.086475 0.158687 0.724794 0.735157 0.345404 0.583301
0.074413 0.153230 0.920749 -0.842996 -0.400817 -0.358751
0.050283 0.157637 0.969531 -0.403453 0.443479 0.800345
0.052399 0.142670 0.495243 0.910408 -0.413568 0.010912
0.066882 0.155559 0.755800 0.306319 0.821044 0.481721
0.052664 0.152578 0.723565 -0.794278 0.559983 -0.235674
0.060665 0.145827 0.723565 0.334887 0.942255 0.002385
0.057476 0.229721 0.756860 0.206542 -0.902605 0.377683
0.038780 0.110389 0.716697 -0.980138 0.198265 -0.004578
0.030756 0.147960 0.962518 -0.665652 0.569349 0.482441
0.052432 0.135933 0.878665 -0.602288 -0.798090 -0.017384
0.068325 0.151652 0.595533 -0.864109 0.502948 0.018961
0.081194 0.096253 0.733552 0.646014 0.513886 0.564435
0.076000 0.149403 0.686222 0.813059 0.582179 0.001398
0.065114 0.154667 0.920749 -0.420706 -0.878207 -0.227506
0.049742 0.134668 0.721550 -0.226172 -0.467161 0.854755
0.047531 0.135173 0.290826 -0.663166 -0.742802 -0.091951
0.048730 0.131255 0.301286 -0.242271 -0.966239 -0.087671
0.040836 0.135004 0.960339 -0.786129 -0.445191 0.428726
0.038780 0.157735 0.705174 -0.981643 0.134068 -0.135660
0.047303 0.134977 0.819097 -0.181714 -0.165013 -0.969407
0.048092 0.135184 0.836078 -0.735910 -0.666805 0.117505
0.046413 0.153857 0.200881 -0.603538 0.795626 -0.052163
0.052717 0.143708 0.304894 0.910715 -0.413024 0.003052
0.076082 0.143516 0.488676 0.915915 -0.401244 0.010187
0.057681 0.163782 0.723565 0.165185 -0.903221 0.396112
0.043777 0.143413 0.729348 -0.966935 -0.133586 -0.217235
0.070062 0.135966 0.635580 -0.139193 -0.990259 0.003381
0.048876 0.236109 0.691348 -0.873777 0.481568 0.067863
0.052009 0.151285 0.639360 0.753200 0.657719 -0.009727
0.045395 0.208732 0.746820 0.672981 -0.736560 0.067643
0.076293 0.214653 0.745807 0.914905 0.392506 0.094279
0.062143 0.171549 0.946028 0.059646 0.985368 -0.159660
0.054236 0.225489 0.695171 0.365709 -0.734617 -0.571485
0.052516 0.143053 0.627640 0.933183 -0.359087 0.015066
0.059620 0.242835 0.635594 0.136347 -0.875571 0.463448
0.060015 0.134206 0.706855 0.027967 -0.377537 -0.925572
0.067380 0.210133 0.740214 -0.124239 -0.631454 0.765396
0.071299 0.139398 0.781970 -0.845191 0.531236 0.058655
0.049118 0.160724 0.683168 -0.440034 0.897680 0.023249
0.075338 0.135035 0.686633 -0.146587 -0.374074 0.915740
0.035203 0.164087 0.706855 -0.440303 0.647102 -0.622409
0.043907 0.228220 0.677059 -0.929436 0.364161 -0.059452
0.044265 0.133779 0.684151 -0.551180 -0.483279 -0.680178
0.046272 0.149814 0.795093 -0.964349 0.236806 -0.118127
0.067983 0.211272 0.703552 0.606845 0.748108 0.268464
0.057421 0.164019 0.723565 -0.116668 0.904226 -0.410809
0.073401 0.135706 0.323123 0.408374 -0.912047 -0.037422
0.073480 0.137418 0.082119 0.144264 -0.979576 -0.140067
0.050047 0.137353 0.748489 0.747808 0.659686 -0.074813
0.045522 0.150946 0.150603 -0.806220 0.590660 -0.033621
0.036195 0.139596 0.733227 -0.267584 -0.962286 0.049032
0.050958 0.130281 0.718140 -0.012161 0.488964 -0.872219
0.050763 0.155352 0.171008 0.770858 0.628785 -0.102020
0.045307 0.150243 0.333469 -0.896979 0.442026 0.006441
0.054969 0.162319 0.919853 -0.812427 -0.162848 -0.559860
0.051452 0.153103 0.559361 0.697859 0.715577 -0.030697
0.072464 0.150289 0.878404 -0.950938 -0.308960 0.016133
0.089692 0.149430 0.954938 -0.426548 0.903743 -0.036117
0.065753 0.162871 0.832728 0.309368 0.945435 0.102192
0.050642 0.132342 0.916622 0.567763 0.780314 -0.262211
0.070387 0.154873 0.825702 0.013937 0.007488 0.999875
0.076253 0.144014 0.287333 0.901488 -0.432800 0.001944
0.074490 0.153801 0.557948 0.614654 0.788297 -0.028063
0.047985 0.213567 0.726102 -0.817223 0.362768 0.447823
0.055873 0.081998 0.739893 -0.117611 0.403811 0.907251
0.056530 0.158480 0.920749 0.282928 -0.914456 -0.289348
0.037846 0.150077 0.715348 -0.900850 0.334096 -0.277217
0.082062 0.141142 0.936805 0.846502 -0.204557 -0.491520
0.065561 0.236549 0.663027 -0.534443 -0.841459 0.079484
0.041644 0.080318 0.679075 0.448243 0.888695 -0.096434
0.053154 0.157257 0.689636 -0.247451 0.903225 -0.350646
0.042382 0.144637 0.723665 -0.911154 -0.056432 -0.408185
0.064644 0.114011 0.947983 0.972999 -0.219351 0.071823
0.049264 0.132431 0.120558 -0.407746 -0.904477 -0.125161
0.049763 0.230119 0.655221 -0.853778 0.353666 -0.382079
0.082414 0.134707 0.710959 0.490958 -0.522481 0.697118
0.067234 0.247754 0.675776 0.676459 0.732078 0.080405
0.072032 0.131715 0.228636 -0.245050 -0.964752 -0.095942
0.050963 0.131199 0.723565 -0.501668 -0.763698 -0.406317
0.066391 0.086893 0.685708 -0.552349 0.668715 0.497725
0.072951 0.141418 0.706855 0.141345 -0.314028 -0.938833
0.048646 0.161148 0.477643 -0.223133 0.974335 -0.029716
0.067321 0.147063 0.081380 -0.928484 0.369799 -0.034142
0.044976 0.143515 0.392796 -0.919970 -0.388153 -0.054709
0.034364 0.148883 0.714748 -0.955192 0.099758 -0.278669
0.051470 0.153044 0.200519 0.838156 0.538009 -0.089666
0.076619 0.145082 0.692807 0.964433 -0.263854 0.015842
0.074223 0.154579 0.233274 0.761252 0.642350 -0.088786
0.063319 0.133303 0.858661 0.228294 -0.970630 0.075895
0.049412 0.159094 0.835140 -0.643667 0.756879 0.113257
0.039938 0.160857 0.950981 -0.818414 0.569784 0.074457
0.059710 0.143842 0.731155 -0.134587 0.989529 -0.052138
0.069384 0.154739 0.575815 -0.765505 0.643081 0.021183
0.048529 0.131914 0.689562 0.454053 -0.890622 0.025047
0.054371 0.081518 0.687612 -0.448674 -0.604061 -0.658636
0.071304 0.160331 0.518932 -0.367063 0.930169 -0.007137
