0.110770 0.043098 0.444562 0.027370 -0.999623 0.002151
0.116958 0.047217 0.276272 -0.057327 0.998355 -0.000392
0.111757 0.047214 0.310914 0.047972 0.998849 0.000225
0.093625 0.044749 0.476782 -0.895799 -0.444444 -0.003590
0.099378 0.043380 0.403591 -0.120885 -0.992666 0.000149
0.124627 0.043086 0.348182 0.042238 -0.999108 0.000344
0.135211 0.045245 0.276475 0.852879 0.522045 -0.008140
0.131055 0.043664 0.656213 0.200591 -0.979673 0.001932
0.102873 0.047057 0.264334 -0.076350 0.997081 -0.000738
0.108832 0.047242 0.322837 -0.008922 0.999960 0.000376
0.108301 0.047245 0.216936 -0.014823 0.999887 -0.002467
0.105320 0.047176 0.619774 -0.037116 0.999302 0.004268
0.192557 0.041045 0.843812 0.342604 -0.919775 0.191407
0.101917 0.046987 0.272350 -0.092227 0.995738 -0.000705
0.111113 0.043106 0.654838 0.026878 -0.999625 0.005245
0.105600 0.047182 0.547395 -0.035534 0.999363 0.003283
0.128310 0.043302 0.452875 0.100260 -0.994961 0.000714
0.133660 0.046566 0.960842 0.996139 0.062576 0.061582
0.110832 0.055283 0.902234 -0.329365 0.942998 -0.047686
0.094466 0.044416 0.284007 -0.617959 -0.786178 -0.007135
0.109626 0.043780 0.111740 -0.014575 -0.999798 -0.013827
0.155053 0.038031 0.833280 -0.098586 -0.951370 0.291848
0.103941 0.043036 0.832286 -0.844777 -0.369856 -0.386729
0.124186 0.043074 0.344916 0.036978 -0.999316 0.000384
0.093406 0.045260 0.333165 -0.999693 0.023831 -0.006815
0.095514 0.046109 0.462188 -0.359751 0.933048 0.000090
0.113794 0.043179 0.155332 0.069783 -0.997560 -0.001869
0.055650 0.039492 0.843776 0.001878 -0.808697 0.588223
0.172727 0.049609 0.825031 0.337146 0.770374 -0.541161
0.124895 0.043102 0.813270 0.057477 -0.996574 0.059464
0.113267 0.034225 0.861268 -0.091469 -0.995670 -0.016571
0.121615 0.047215 0.574224 0.025142 0.999679 0.003028
0.114221 0.055862 0.859003 -0.019193 0.999656 -0.017857
0.110588 0.043581 0.125327 0.017272 -0.999787 -0.011318
0.121126 0.043048 0.438686 0.004588 -0.999988 0.001855
0.106349 0.044802 0.814665 0.380516 -0.217651 -0.898797
0.119236 0.043066 0.374667 -0.011608 -0.999932 0.001201
0.135461 0.045144 0.767770 0.914112 -0.405193 0.014785
0.123289 0.047175 0.484673 0.040243 0.999188 0.002039
0.114917 0.046138 0.708997 -0.257660 0.966232 0.002499
0.100288 0.046868 0.438686 -0.113526 0.993534 0.001174
0.124317 0.049283 0.848581 0.909953 0.412756 -0.040228
0.094120 0.045548 0.634634 -0.697242 0.716832 0.002389
0.129723 0.046691 0.418060 0.159390 0.987216 0.000047
0.099493 0.043362 0.578725 -0.121584 -0.992577 0.002760
0.117478 0.047102 0.150698 -0.016405 0.999821 -0.009385
0.125613 0.047063 0.800934 0.095756 0.994028 0.052337
0.100009 0.043318 0.557083 -0.107085 -0.994246 0.002675
0.116970 0.043122 0.504830 -0.053443 -0.998564 0.003714
0.111713 0.043127 0.420889 0.064464 -0.997917 0.002316
0.125591 0.047065 0.300383 0.065559 0.997849 -0.000537
0.133773 0.041577 0.833249 -0.256736 -0.450260 0.855191
0.111885 0.025462 0.962390 -0.135594 -0.985670 0.100347
0.106318 0.047199 0.381965 -0.031569 0.999501 0.001061
0.109890 0.047235 0.408388 0.001377 0.999998 0.001602
0.128943 0.050337 0.814666 -0.168976 0.633088 -0.755412
0.150159 0.038031 0.819105 0.063260 -0.839671 -0.539399
0.127701 0.043266 0.259224 0.097100 -0.995274 -0.000976
0.131139 0.043677 0.554395 0.208199 -0.978086 0.000997
0.119181 0.043067 0.616117 -0.015410 -0.999870 0.004810
0.125012 0.043109 0.204858 0.052194 -0.998628 -0.004266
0.105280 0.043066 0.654978 -0.028783 -0.999574 0.004866
0.044962 0.039918 0.832193 -0.360307 -0.848653 -0.387256
0.100799 0.051223 0.826564 0.190203 0.981492 0.022299
0.134089 0.045697 0.725998 0.826877 0.562335 0.007363
0.111968 0.047208 0.191141 0.020326 0.999783 -0.004608
0.157708 0.038031 0.822864 0.106331 -0.893796 -0.435686
0.104284 0.043075 0.366276 -0.033459 -0.999440 0.000651
0.100949 0.046916 0.533863 -0.098857 0.995099 0.002353
0.135339 0.045194 0.578615 0.999702 0.024403 0.000797
0.193945 0.048037 0.834009 0.332018 0.914840 -0.229853
0.103924 0.048008 0.923987 -0.958524 0.276213 -0.070267
0.099686 0.043337 0.229428 -0.100734 -0.994911 -0.002399
0.124412 0.043076 0.430014 0.037600 -0.999292 0.001416
0.103604 0.047110 0.499111 -0.058965 0.998257 0.002453
0.095699 0.043945 0.514425 -0.324340 -0.945940 -0.000514
0.108936 0.054422 0.897140 -0.505285 0.861911 -0.042375
0.128505 0.046852 0.249427 0.108412 0.994105 -0.001713
0.126675 0.046986 0.662744 0.091585 0.995786 0.004661
0.115132 0.046221 0.680542 -0.358072 0.933691 0.002458
0.109916 0.047234 0.522644 0.003284 0.999990 0.003203
0.131632 0.043753 0.742530 0.223635 -0.974670 0.002551
0.134555 0.044591 0.741639 0.704612 -0.709579 0.004369
0.104268 0.048964 0.939207 -0.925288 0.369338 -0.086204
0.103616 0.043106 0.358589 -0.042757 -0.999085 0.000452
0.105408 0.043065 0.479767 -0.024085 -0.999707 0.002345
0.131558 0.043741 0.511612 0.234235 -0.972180 0.000490
0.130383 0.046582 0.610367 0.201879 0.979407 0.002783
0.146340 0.047972 0.835064 -0.173353 0.585541 0.791890
0.126231 0.043180 0.251239 0.071960 -0.997407 -0.000949
0.130347 0.043575 0.158149 0.222059 -0.974823 -0.020234
0.135653 0.038031 0.831697 -0.174046 -0.852355 0.493152
0.098259 0.051223 0.828869 0.170703 0.958877 0.226750
0.119723 0.050464 0.833249 -0.323105 0.859976 0.395024
0.119921 0.043050 0.321384 -0.004986 -0.999987 0.000421
0.099546 0.041716 0.833247 0.325567 -0.311438 0.892756
0.098673 0.043488 0.510565 -0.159771 -0.987154 0.000928
0.113427 0.046214 0.347166 0.342560 0.939494 0.001612
0.108773 0.046560 0.116831 -0.032705 0.999379 -0.013118
0.134797 0.044686 0.796472 0.620339 -0.784160 0.016509
0.114060 0.046084 0.472876 0.073841 0.997269 0.001644
0.121453 0.047218 0.622305 0.024351 0.999697 0.003663
0.102948 0.047062 0.685386 -0.065102 0.997867 0.004816
0.110562 0.043533 0.833247 0.499685 0.125130 0.857122
0.121182 0.047109 0.151821 0.020126 0.999748 -0.009936
0.098440 0.046622 0.792851 -0.188714 0.981382 0.035726
0.100894 0.043266 0.692340 -0.096670 -0.995305 0.004763
0.120867 0.043046 0.510424 0.001345 -0.999995 0.002964
0.130255 0.043541 0.247692 0.194271 -0.980947 -0.001551
0.118305 0.043087 0.704090 -0.025893 -0.999643 0.006624
0.078364 0.038029 0.835634 0.167943 -0.862469 0.477433
0.118005 0.043094 0.728420 -0.029370 -0.999543 0.007149
0.031201 0.047612 0.836990 -0.364155 0.929981 0.050256
0.109523 0.047237 0.507721 -0.000694 0.999995 0.002992
0.105736 0.043063 0.480813 -0.020724 -0.999782 0.002377
0.116229 0.043154 0.221158 -0.093140 -0.995651 -0.001842
0.114632 0.043407 0.177908 -0.139738 -0.990188 -0.000682
0.103444 0.041524 0.833247 0.369896 -0.249554 0.894930
0.107166 0.043051 0.743639 -0.011074 -0.999919 0.006241
0.126035 0.054992 0.968603 0.702666 0.569406 0.426657
0.114222 0.046370 0.832889 0.573133 0.545969 0.611094
0.128946 0.043340 0.553380 0.107587 -0.994194 0.001568
0.122354 0.037717 0.881463 0.745292 -0.666229 -0.026075
0.115917 0.043476 0.669417 -0.788935 -0.614452 0.005567
0.134719 0.044656 0.585709 0.754529 -0.656259 0.002965
0.131914 0.043796 0.220396 0.292794 -0.956167 -0.004140
0.135152 0.045267 0.190522 0.842239 0.536820 -0.049574
0.115868 0.044600 0.058626 0.011780 -0.999771 -0.017893
0.118486 0.035031 0.862317 0.388738 -0.921199 -0.016583
0.106613 0.050383 0.834736 -0.619246 0.689292 -0.376046
0.120386 0.043238 0.146493 0.008213 -0.999920 -0.009587
0.098018 0.043588 0.734092 -0.214453 -0.976723 0.004625
0.119039 0.045551 0.062991 0.232993 0.971801 -0.036306
0.126238 0.043181 0.772810 0.076923 -0.996791 0.022150
0.131993 0.043808 0.512831 0.259078 -0.965856 0.000374
0.115113 0.044143 0.702356 -0.280576 -0.959829 0.002356
0.117482 0.047226 0.615805 -0.011875 0.999926 0.002752
0.108415 0.043045 0.233426 0.007568 -0.999971 -0.001006
0.128456 0.046856 0.499783 0.115948 0.993253 0.002134
0.130755 0.046520 0.370027 0.207855 0.978158 -0.001788
0.098205 0.046583 0.365730 -0.196597 0.980484 -0.000262
0.116461 0.034419 0.868080 0.208477 -0.977920 -0.014483
0.124623 0.047136 0.625118 0.057109 0.998359 0.004206
0.113384 0.043269 0.150118 0.154131 -0.988036 -0.005418
0.105692 0.043063 0.194208 -0.016741 -0.999844 -0.005591
0.111810 0.044641 0.056524 -0.044870 -0.998777 -0.020758
0.121486 0.043051 0.598804 0.006024 -0.999974 0.004051
0.097803 0.043621 0.781306 -0.265699 -0.963678 0.027007
0.113454 0.026044 0.960441 -0.060647 -0.996558 0.056523
0.103652 0.047113 0.421482 -0.059761 0.998212 0.001411
0.135571 0.044992 0.542598 0.982296 -0.187336 -0.000136
0.120310 0.047245 0.684214 0.014459 0.999886 0.004451
0.090319 0.051223 0.815424 -0.020259 0.830428 -0.556758
0.109452 0.044512 0.070078 -0.113785 -0.993194 -0.024852
0.109700 0.038029 0.830625 0.401245 -0.653227 0.642103
0.099546 0.043354 0.183433 -0.102691 -0.994664 -0.009938
0.119876 0.043051 0.750709 -0.010808 -0.999858 0.012889
0.105886 0.047189 0.166901 -0.039920 0.999168 -0.008401
0.096039 0.043892 0.502002 -0.303860 -0.952717 -0.000668
0.107547 0.047228 0.641931 -0.016695 0.999849 0.004786
0.160634 0.045010 0.820065 0.363333 0.097165 -0.926579
0.133885 0.045779 0.240645 0.559458 0.828823 -0.007691
0.119373 0.046982 0.141953 0.004324 0.999938 -0.010279
0.093956 0.038370 0.814665 0.088130 -0.791223 -0.605144
0.112674 0.046843 0.292163 0.808748 0.588155 0.000917
0.111188 0.047226 0.339306 0.012528 0.999921 0.000647
0.100239 0.046864 0.633384 -0.107133 0.994239 0.003494
0.129226 0.046773 0.638603 0.142976 0.989718 0.004000
0.098950 0.038029 0.821628 0.222952 -0.972408 -0.068667
0.120121 0.043046 0.420998 -0.004413 -0.999989 0.001851
0.115902 0.044574 0.060312 -0.015058 -0.999750 -0.016537
0.117293 0.043110 0.432530 -0.030750 -0.999524 0.002504
0.114523 0.046089 0.523753 -0.088747 0.996053 0.001736
0.103433 0.046666 0.137576 -0.103186 0.994555 -0.014590
0.107842 0.047235 0.318930 -0.017782 0.999842 0.000269
0.103308 0.043124 0.464360 -0.049543 -0.998770 0.001928
0.132372 0.046252 0.222939 0.276443 0.960996 -0.008093
0.123699 0.044078 0.833249 -0.391667 0.168045 0.904632
0.105173 0.043067 0.616617 -0.029140 -0.999566 0.004307
0.109731 0.046855 0.133860 -0.008577 0.999907 -0.010557
0.122307 0.047198 0.517206 0.030976 0.999517 0.002327
0.111062 0.043105 0.464641 0.029941 -0.999549 0.002453
0.128002 0.043284 0.577037 0.090212 -0.995921 0.001843
0.143915 0.042013 0.815714 0.062753 -0.433406 -0.899011
0.128977 0.046815 0.803376 0.181946 0.982042 0.049892
0.130056 0.046636 0.414498 0.175484 0.984482 -0.000359
0.123907 0.050210 0.936353 0.879795 0.468043 -0.083042
0.131024 0.043659 0.637790 0.199868 -0.979821 0.001775
0.104609 0.041398 0.833247 0.381344 -0.242494 0.892062
0.104245 0.047150 0.417732 -0.051632 0.998665 0.001481
0.143565 0.051225 0.819212 0.061959 0.917550 -0.392764
0.096698 0.046333 0.274147 -0.294376 0.955688 -0.001719
0.107309 0.047223 0.225093 -0.024629 0.999695 -0.001655
0.100750 0.046902 0.495627 -0.103622 0.994615 0.001884
0.119370 0.043063 0.565802 -0.012708 -0.999911 0.003948
0.101725 0.039421 0.953046 -0.924191 -0.379783 -0.040454
0.106952 0.052932 0.864322 -0.690958 0.722755 -0.014233
0.119692 0.047241 0.420764 0.006052 0.999981 0.001001
0.126943 0.038031 0.816176 -0.211291 -0.896811 -0.388697
0.112961 0.047092 0.182830 0.453376 0.891303 -0.005407
0.125289 0.043125 0.616727 0.046988 -0.998890 0.003331
0.103497 0.047102 0.666667 -0.057282 0.998347 0.004700
0.122038 0.028754 0.964805 0.401022 -0.887710 0.226167
0.113822 0.046113 0.539816 0.145462 0.989362 0.001740
0.105765 0.038401 0.884030 -0.784401 -0.619590 -0.028702
0.080020 0.050593 0.816765 -0.125951 0.785824 -0.605489
0.107007 0.052985 0.894163 -0.683847 0.728566 -0.039308
0.105317 0.047176 0.702403 -0.036189 0.999330 0.005430
0.101215 0.046936 0.378886 -0.100120 0.994975 0.000521
0.109819 0.054877 0.934417 -0.411214 0.907920 -0.081140
0.113615 0.046139 0.626258 0.203233 0.979129 0.001899
0.103818 0.047126 0.359120 -0.058500 0.998287 0.000607
0.106518 0.043056 0.643900 -0.015819 -0.999864 0.004770
0.123578 0.047168 0.329931 0.040323 0.999187 -0.000077
0.125172 0.046098 0.924313 0.993048 0.094245 -0.070522
0.096214 0.038029 0.822869 0.191906 -0.981086 -0.025332
0.118364 0.043086 0.476673 -0.020881 -0.999778 0.002813
0.119605 0.043057 0.802479 -0.013031 -0.998057 0.060933
0.114059 0.046084 0.464016 0.075304 0.997159 0.001624
0.123102 0.043065 0.709153 0.019679 -0.999793 0.005155
0.112561 0.043240 0.447202 0.805677 -0.592348 0.002977
0.127064 0.043229 0.180008 0.088917 -0.996003 -0.008428
0.117215 0.043112 0.765495 -0.044620 -0.998516 0.031208
0.065007 0.038063 0.821114 -0.229153 -0.786817 -0.573069
0.111976 0.047208 0.544285 0.084134 0.996448 0.003550
0.126480 0.043195 0.327790 0.073362 -0.997305 -0.000282
0.121645 0.047214 0.482329 0.024388 0.999701 0.001903
0.127775 0.044654 0.115508 0.769705 -0.633642 -0.077798
0.107157 0.043051 0.253958 -0.004491 -0.999990 -0.000787
0.133576 0.044203 0.797095 0.403215 -0.914944 0.017177
0.099757 0.043332 0.523456 -0.110225 -0.993904 0.002150
0.054339 0.038745 0.829926 -0.289658 -0.900764 -0.323609
0.096794 0.043777 0.170530 -0.217419 -0.975857 -0.020764
0.106484 0.041278 0.975000 -0.550995 -0.224676 0.803695
0.099209 0.043406 0.707778 -0.141743 -0.989894 0.004415
0.118500 0.061785 0.965845 0.243056 0.928214 0.281679
0.122807 0.043062 0.768142 0.022236 -0.999435 0.025218
0.129723 0.046691 0.367902 0.157610 0.987501 -0.000735
0.112736 0.043611 0.294335 0.726564 -0.687099 0.000424
0.115973 0.055757 0.914354 0.148401 0.987088 -0.060286
0.094086 0.044566 0.620945 -0.872806 -0.488066 0.000915
0.098978 0.046711 0.427295 -0.154712 0.987959 0.000737
0.183632 0.043888 0.845878 0.156784 -0.247283 0.956175
0.122617 0.037975 0.882632 0.767154 -0.640885 -0.027229
0.108956 0.047241 0.497908 -0.005792 0.999979 0.002842
0.117025 0.043120 0.179970 -0.026730 -0.999628 -0.005489
0.114182 0.037363 0.834464 0.026840 -0.891563 -0.452101
0.112542 0.055708 0.889872 -0.176471 0.983688 -0.034858
0.133450 0.045954 0.394731 0.457909 0.888994 -0.003054
0.106612 0.053043 0.974547 -0.472038 0.544229 0.693538
0.108434 0.043045 0.553255 0.003929 -0.999986 0.003583
0.114308 0.045952 0.818451 -0.867520 0.012735 -0.497239
0.115331 0.044048 0.599038 -0.407131 -0.913366 0.002621
0.128410 0.046859 0.743342 0.123848 0.992284 0.005921
0.097892 0.034615 0.961131 -0.849621 -0.523303 0.065560
0.116037 0.047193 0.415513 -0.179677 0.983725 0.001518
0.113489 0.046186 0.740561 0.250064 0.968226 0.002354
0.129385 0.043408 0.263224 0.141277 -0.989969 -0.001148
0.127009 0.046962 0.736858 0.099902 0.994980 0.005816
0.116267 0.046894 0.138225 -0.058944 0.998205 -0.010559
0.100517 0.043288 0.200529 -0.086226 -0.996252 -0.006806
0.072612 0.049980 0.838122 0.147602 0.754560 0.639416
0.119343 0.038031 0.819365 -0.346413 -0.935879 -0.064256
0.064718 0.051223 0.828537 -0.152540 0.981432 -0.116284
0.128157 0.043293 0.312149 0.102976 -0.994684 -0.000533
0.122731 0.043791 0.117394 0.081706 -0.996527 -0.016063
0.128396 0.046860 0.303008 0.107918 0.994159 -0.000925
0.121355 0.043050 0.668698 0.003981 -0.999979 0.005096
0.109827 0.044301 0.079653 -0.090659 -0.995629 -0.022465
0.118736 0.043077 0.370839 -0.015943 -0.999872 0.001156
0.095164 0.045968 0.295429 -0.487480 0.873131 -0.002209
0.102735 0.043157 0.374214 -0.056659 -0.998393 0.000535
0.120291 0.043042 0.425389 -0.002977 -0.999994 0.001910
0.123969 0.045022 0.975000 0.643027 -0.038445 0.764878
0.120492 0.043043 0.681636 -0.004162 -0.999976 0.005540
0.114132 0.034215 0.859072 -0.014175 -0.999744 -0.017651
0.104393 0.043074 0.762165 -0.046370 -0.998714 0.020495
0.108725 0.043052 0.298914 0.009469 -0.999955 -0.000038
0.120574 0.047239 0.622242 0.016174 0.999862 0.003678
0.114320 0.046064 0.240208 0.019729 0.999805 0.001165
0.124438 0.047148 0.352948 0.049325 0.998783 0.000378
0.115794 0.043661 0.692152 -0.694490 -0.719487 0.004709
0.135389 0.045173 0.714106 0.966523 -0.256525 0.005215
0.125896 0.047043 0.613805 0.076617 0.997053 0.003896
0.112596 0.043338 0.520144 0.839592 -0.543208 0.003262
0.114732 0.044240 0.352963 -0.175833 -0.984419 0.001466
0.097014 0.046385 0.423014 -0.256833 0.966456 0.000033
0.130939 0.043647 0.176305 0.247493 -0.968765 -0.015525
0.127061 0.043229 0.321806 0.083644 -0.996496 -0.000374
0.135394 0.044923 0.239926 0.963755 0.266619 -0.009465
0.099347 0.046772 0.756068 -0.131686 0.991213 0.012445
0.125884 0.047044 0.616211 0.076498 0.997062 0.003933
0.161335 0.051225 0.821658 0.217058 0.856421 -0.468433
0.128581 0.046847 0.517784 0.118702 0.992927 0.002415
0.104694 0.043071 0.601148 -0.033775 -0.999421 0.004060
0.089293 0.038029 0.828995 0.120666 -0.946355 0.299753
0.104608 0.047159 0.777973 -0.044864 0.998409 0.034146
0.117404 0.047226 0.569724 -0.013479 0.999907 0.002302
0.093478 0.045289 0.748159 -0.808552 0.588406 0.004780
0.071947 0.048271 0.838364 0.186290 0.613996 0.767010
0.093001 0.044998 0.165867 -0.901431 -0.427039 -0.071130
0.119374 0.043063 0.658432 -0.014297 -0.999883 0.005438
0.110524 0.047230 0.712434 0.012804 0.999901 0.005845
0.118797 0.047235 0.528253 -0.000655 0.999998 0.001974
0.119232 0.035330 0.931870 0.441943 -0.893614 -0.078358
0.116863 0.043127 0.262787 -0.057178 -0.998364 -0.000329
0.112534 0.047194 0.530925 0.174132 0.984716 0.003587
0.114464 0.034212 0.877241 0.023135 -0.999497 -0.021706
0.099444 0.043369 0.602929 -0.124884 -0.992167 0.003053
0.113738 0.046123 0.489345 0.182130 0.983273 0.001648
0.097489 0.043670 0.755450 -0.257959 -0.966087 0.011542
0.109672 0.047236 0.309399 -0.001691 0.999999 0.000205
0.120298 0.047246 0.292210 0.009965 0.999950 -0.000338
0.109664 0.047236 0.513206 0.000609 0.999995 0.003072
0.078914 0.038029 0.834377 0.163827 -0.890469 0.424530
0.129138 0.051225 0.826120 -0.170280 0.985332 0.011226
0.133294 0.046017 0.347119 0.411310 0.911487 -0.004012
0.108375 0.054056 0.884136 -0.561684 0.826847 -0.028894
0.101236 0.046937 0.430123 -0.097868 0.995199 0.001134
0.121131 0.045966 0.088684 0.108961 0.993822 -0.021109
0.103481 0.043113 0.566099 -0.048833 -0.998801 0.003423
0.053730 0.050224 0.831403 -0.213411 0.959716 -0.182758
0.119990 0.051225 0.831053 -0.296869 0.930629 0.214006
0.103858 0.047129 0.789074 -0.055089 0.997562 0.042836
0.093420 0.045265 0.558333 -0.898840 0.438277 0.000281
0.115544 0.046448 0.354463 -0.528120 0.849169 0.001010
0.125102 0.043531 0.886432 0.991202 -0.128620 -0.031225
0.094041 0.044584 0.487798 -0.767943 -0.640511 -0.003052
0.127848 0.046900 0.476110 0.104817 0.994490 0.001764
0.159751 0.051225 0.821701 0.200105 0.871003 -0.448678
0.127333 0.043245 0.602851 0.078421 -0.996918 0.002259
0.105079 0.047170 0.325274 -0.045079 0.998983 0.000253
0.095717 0.046170 0.229535 -0.354438 0.935075 -0.003055
0.115927 0.046894 0.483610 -0.805228 0.592959 0.002661
0.134523 0.044578 0.816017 0.575492 -0.817502 0.022368
0.103432 0.043116 0.435639 -0.047073 -0.998890 0.001534
0.108439 0.047244 0.343838 -0.012131 0.999926 0.000663
0.106597 0.047206 0.512378 -0.026803 0.999637 0.002876
0.115854 0.046785 0.485064 -0.759661 0.650316 0.002008
0.116770 0.043483 0.133999 -0.025009 -0.999641 -0.009617
0.117135 0.047221 0.172263 -0.036969 0.999290 -0.007270
0.121969 0.043055 0.725966 0.008985 -0.999943 0.005736
0.092933 0.045069 0.768279 -0.854203 0.519853 0.009486
0.132644 0.046207 0.446280 0.312974 0.949761 -0.001104
0.139051 0.039303 0.833249 -0.145611 -0.776542 0.613009
0.114072 0.044273 0.691355 0.099193 -0.995068 0.000805
0.094873 0.044257 0.161909 -0.483722 -0.874180 -0.042679
0.119175 0.043067 0.428780 -0.012788 -0.999916 0.001981
0.163961 0.038031 0.828294 0.133883 -0.969287 -0.206295
0.116425 0.043146 0.252880 -0.091570 -0.995798 -0.000528
0.130309 0.046594 0.807106 0.297552 0.953259 0.052542
0.053698 0.048593 0.844256 0.034953 0.671426 0.740246
0.105221 0.039235 0.849847 -0.829595 -0.556777 -0.042103
0.076773 0.038029 0.831375 0.101641 -0.967161 0.232955
0.133747 0.044271 0.599132 0.516635 -0.856204 0.001914
0.129246 0.046770 0.225354 0.126848 0.991914 -0.004037
0.103151 0.047077 0.814700 -0.070532 0.995531 0.062794
0.124449 0.043076 0.398762 0.038596 -0.999254 0.001034
0.112789 0.055754 0.871683 -0.160140 0.986966 -0.015906
0.065656 0.051223 0.836480 0.043052 0.918662 0.392692
0.101667 0.046969 0.525222 -0.087286 0.996181 0.002318
0.102403 0.043177 0.507174 -0.064338 -0.997925 0.002401
0.135284 0.044879 0.676620 0.850298 -0.526284 0.004397
0.127775 0.046906 0.311508 0.098622 0.995125 -0.000721
0.117722 0.047228 0.426436 -0.012885 0.999917 0.000892
0.118199 0.047231 0.485439 -0.007071 0.999974 0.001459
0.121557 0.047216 0.460594 0.023343 0.999726 0.001643
0.133972 0.044360 0.529316 0.584195 -0.811612 0.001511
0.119835 0.046290 0.975000 0.389358 0.065564 0.918750
0.133425 0.045964 0.635759 0.475606 0.879653 0.003020
0.124970 0.047172 0.925254 0.978551 0.193122 -0.071705
0.114643 0.046703 0.127793 -0.082313 0.996592 -0.005397
0.094171 0.044533 0.639509 -0.860262 -0.509850 0.001574
0.132861 0.046171 0.474032 0.327887 0.944717 -0.000434
0.108336 0.047245 0.402106 -0.012356 0.999923 0.001481
0.117704 0.043101 0.428967 -0.026565 -0.999645 0.002281
0.105473 0.047179 0.191750 -0.043579 0.999035 -0.005492
0.126324 0.056102 0.967201 0.696586 0.624161 0.353824
0.101928 0.045377 0.106265 -0.853622 0.513073 -0.089916
0.118713 0.054946 0.873849 0.388720 0.921177 -0.018173
0.121111 0.047227 0.639259 0.021267 0.999766 0.003853
0.105716 0.047185 0.270022 -0.039780 0.999208 -0.000477
0.114985 0.046157 0.455656 -0.242452 0.970162 0.001669
0.134323 0.044499 0.527175 0.671737 -0.740787 0.001924
0.046899 0.049576 0.831774 -0.269400 0.924679 -0.269060
0.124842 0.046497 0.833249 -0.353841 0.497727 0.791874
0.194009 0.048029 0.835052 0.331156 0.931652 -0.149533
0.111421 0.043114 0.379261 0.040567 -0.999176 0.001306
0.126344 0.043187 0.445093 0.066535 -0.997784 0.000775
0.124828 0.043098 0.567630 0.040934 -0.999158 0.002935
0.097897 0.046532 0.500564 -0.200631 0.979666 0.001189
0.123634 0.043069 0.540707 0.027419 -0.999620 0.002792
0.111889 0.047210 0.213126 0.035855 0.999354 -0.002594
0.111914 0.047210 0.449515 0.063775 0.997962 0.002148
0.105246 0.043275 0.145733 -0.029610 -0.999500 -0.011058
0.111237 0.047225 0.252240 0.011413 0.999935 -0.000566
0.128313 0.046866 0.396387 0.109846 0.993949 0.000526
0.104026 0.047141 0.226680 -0.058183 0.998304 -0.001695
0.074068 0.042844 0.818129 -0.226259 -0.309662 -0.923535
0.127024 0.043227 0.733639 0.071113 -0.997460 0.003993
0.028517 0.041976 0.838403 -0.604445 -0.742417 -0.288901
0.123236 0.043066 0.572818 0.022700 -0.999737 0.003197
0.135048 0.045311 0.624680 0.993481 0.113969 0.002637
0.133145 0.046077 0.779103 0.543481 0.838801 0.032267
0.133544 0.045916 0.561005 0.499861 0.866105 0.001018
0.099653 0.046822 0.347010 -0.127626 0.991822 0.000039
0.132045 0.046306 0.445046 0.279305 0.960202 -0.001149
0.174707 0.040437 0.826015 0.389404 -0.690915 -0.609099
0.093780 0.044688 0.780165 -0.997862 0.062134 0.020273
0.128950 0.040431 0.968718 0.851313 -0.297809 0.431944
0.184560 0.049212 0.838207 0.176637 0.977606 0.114397
0.120138 0.050715 0.831661 0.347108 0.794354 -0.498516
0.113020 0.043917 0.378183 0.530201 -0.847871 0.001136
0.110943 0.047227 0.493048 0.012925 0.999913 0.002788
0.129449 0.046736 0.409404 0.145708 0.989328 0.000199
0.117640 0.043102 0.385543 -0.026351 -0.999651 0.001583
0.116138 0.047196 0.421201 -0.162379 0.986727 0.001616
0.118593 0.047234 0.697293 -0.000567 0.999992 0.003961
0.097453 0.043675 0.759039 -0.263662 -0.964518 0.013669
0.116019 0.055747 0.933965 0.159349 0.983921 -0.080665
0.065142 0.042829 0.840779 0.196747 -0.371672 0.907276
0.098642 0.046655 0.633712 -0.162215 0.986751 0.003075
0.109885 0.038029 0.815379 0.315403 -0.899874 -0.301243
0.065906 0.038029 0.837769 0.084694 -0.903682 0.419745
0.123102 0.043618 0.817080 0.048567 -0.994545 0.092315
0.121231 0.047224 0.534738 0.021197 0.999772 0.002569
0.109387 0.043067 0.267881 0.016732 -0.999860 -0.000477
0.171715 0.038438 0.828559 0.271095 -0.900565 -0.339839
0.093463 0.045283 0.411622 -0.976936 0.213491 -0.004144
0.127784 0.046905 0.214365 0.096241 0.995347 -0.004660
0.127743 0.046908 0.623477 0.108300 0.994110 0.004055
0.113578 0.043330 0.145705 0.121834 -0.992539 -0.004687
0.125008 0.046973 0.860140 0.982662 0.185361 -0.004104
0.118235 0.034930 0.892980 0.365025 -0.930218 -0.038090
0.117181 0.043113 0.383871 -0.034420 -0.999406 0.001714
0.065820 0.044921 0.820818 -0.402521 0.078166 -0.912067
0.119164 0.047238 0.812562 0.004757 0.998235 0.059194
0.121157 0.049353 0.833249 -0.339415 0.795142 0.502540
0.115918 0.043474 0.514346 -0.796786 -0.604251 0.003635
0.127182 0.043996 0.127936 0.251250 -0.967556 -0.026622
0.125495 0.047072 0.231346 0.062805 0.998025 -0.001583
0.094712 0.045786 0.682261 -0.545060 0.838392 0.002857
0.106832 0.043053 0.237567 -0.007337 -0.999973 -0.001043
0.101708 0.046972 0.410591 -0.090608 0.995886 0.000932
0.121678 0.053033 0.887292 0.667495 0.743921 -0.032139
0.127727 0.046909 0.565349 0.105952 0.994366 0.003151
0.124282 0.047152 0.334322 0.047409 0.998875 0.000087
0.095290 0.046018 0.363495 -0.431392 0.902164 -0.001007
0.132705 0.046197 0.658494 0.338300 0.941030 0.003980
0.126896 0.038031 0.832616 -0.290042 -0.704499 0.647732
0.104936 0.043069 0.320118 -0.025961 -0.999663 0.000020
0.128197 0.043296 0.252333 0.105943 -0.994372 -0.001070
0.103780 0.046668 0.837282 -0.946073 0.222732 -0.235236
0.100821 0.046907 0.522378 -0.101430 0.994840 0.002208
0.120153 0.043045 0.788389 -0.007365 -0.998847 0.047432
0.123080 0.047180 0.757187 0.043889 0.998901 0.016450
0.099480 0.046794 0.328368 -0.135767 0.990741 -0.000247
0.130347 0.046588 0.512893 0.193073 0.981184 0.000871
0.120955 0.050467 0.814666 -0.316706 0.507333 -0.801443
0.072431 0.038029 0.821662 -0.108594 -0.875172 -0.471467
0.097542 0.043662 0.539691 -0.221320 -0.975201 0.000531
0.129956 0.043495 0.390934 0.160217 -0.987082 -0.000152
0.105788 0.043062 0.492064 -0.020402 -0.999789 0.002542
0.124572 0.041393 0.948770 0.933438 -0.345645 -0.096035
0.178513 0.041784 0.827905 0.465400 -0.594010 -0.656167
0.104100 0.043077 0.317180 -0.034483 -0.999405 -0.000068
0.124457 0.047147 0.760062 0.061968 0.997895 0.019096
0.105417 0.047178 0.181165 -0.044388 0.998991 -0.006817
0.131914 0.046328 0.472938 0.274819 0.961496 -0.000483
0.126730 0.046982 0.403778 0.084643 0.996411 0.000748
0.125077 0.043112 0.212624 0.053141 -0.998581 -0.003345
0.117095 0.055521 0.875053 0.238713 0.970896 -0.019407
0.116702 0.043134 0.323306 -0.071064 -0.997472 0.000668
0.094403 0.044441 0.588288 -0.719635 -0.694352 -0.000086
0.131717 0.043766 0.223553 0.281429 -0.959576 -0.003548
0.134365 0.044516 0.221979 0.933770 -0.357590 -0.014248
0.116933 0.047216 0.181406 -0.069918 0.997532 -0.006352
0.112461 0.055693 0.885020 -0.185691 0.982156 -0.029810
0.040040 0.045365 0.846511 -0.264755 0.091755 0.959940
0.114420 0.051225 0.830768 -0.391814 0.909870 0.136449
0.113268 0.046284 0.394872 0.419499 0.907754 0.001752
0.110487 0.044281 0.079812 -0.030104 -0.999394 -0.017465
0.127296 0.043243 0.650947 0.076910 -0.997034 0.002863
0.117929 0.043095 0.761669 -0.030380 -0.999252 0.023935
0.111918 0.045868 0.070687 -0.024894 0.999542 -0.017216
0.106185 0.043490 0.131766 -0.031280 -0.999433 -0.012470
0.124223 0.047153 0.384809 0.047763 0.998858 0.000791
0.094092 0.045536 0.548848 -0.711699 0.702483 0.001351
0.123541 0.043068 0.588116 0.025520 -0.999669 0.003374
0.116932 0.043124 0.532847 -0.056981 -0.998366 0.004178
0.120235 0.043043 0.758743 -0.007069 -0.999772 0.020134
0.118380 0.043085 0.463984 -0.020465 -0.999787 0.002595
0.122393 0.043059 0.404966 0.017407 -0.999848 0.001174
0.109964 0.047014 0.144357 -0.004556 0.999945 -0.009493
0.128233 0.046872 0.352026 0.106916 0.994268 -0.000164
0.095406 0.044044 0.381168 -0.374314 -0.927295 -0.003576
0.118101 0.043092 0.205101 -0.019008 -0.999814 -0.003250
0.092927 0.045067 0.220236 -0.923253 -0.383688 -0.019669
0.064141 0.042481 0.821429 -0.388576 -0.384272 -0.837463
0.099153 0.043414 0.653166 -0.141146 -0.989983 0.003464
0.107337 0.034774 0.951076 -0.584797 -0.808469 -0.066263
0.111479 0.038921 0.830630 -0.135125 -0.826773 -0.546065
0.094436 0.044428 0.465719 -0.641398 -0.767202 -0.003134
0.122788 0.047187 0.325056 0.033061 0.999453 -0.000088
0.106409 0.047201 0.571380 -0.027825 0.999606 0.003688
0.115559 0.043894 0.336509 -0.575011 -0.818144 0.001695
0.114222 0.048406 0.827141 0.808015 0.587853 0.039260
0.135216 0.045243 0.367542 0.888271 0.459282 -0.005833
0.110317 0.047232 0.782201 0.016792 0.999116 0.038533
0.106861 0.044842 0.074766 -0.506515 -0.860030 -0.061566
0.111883 0.047211 0.794521 0.118966 0.991748 0.047780
0.135269 0.044873 0.783313 0.751721 -0.659335 0.013890
0.120246 0.044489 0.075962 0.202987 -0.978686 -0.031131
0.133315 0.044100 0.709700 0.384965 -0.922928 0.002400
0.129323 0.043399 0.190232 0.144143 -0.989520 -0.008477
0.125261 0.043123 0.655791 0.045779 -0.998944 0.003821
0.106293 0.043058 0.731779 -0.019833 -0.999785 0.006026
0.108722 0.043052 0.345900 0.008852 -0.999961 0.000638
0.132227 0.043844 0.560271 0.266153 -0.963930 0.000739
0.124046 0.047157 0.616539 0.050343 0.998724 0.004036
0.115267 0.046417 0.222542 -0.346649 0.937995 0.000343
0.119956 0.035765 0.875604 0.528652 -0.848603 -0.019991
0.105306 0.047175 0.348369 -0.042358 0.999102 0.000573
0.133699 0.045854 0.445062 0.529814 0.848111 -0.002123
0.119554 0.043058 0.680605 -0.012926 -0.999900 0.005736
0.132458 0.046238 0.255974 0.285417 0.958389 -0.005345
0.127531 0.046923 0.506534 0.100538 0.994931 0.002235
0.081764 0.038029 0.834018 0.155067 -0.878638 0.451607
0.103496 0.038114 0.814665 0.223116 -0.864674 -0.450064
0.122268 0.052430 0.886922 0.723319 0.689783 -0.031780
0.147724 0.038031 0.824261 -0.050900 -0.977001 -0.207069
0.117261 0.043681 0.119550 -0.018645 -0.999765 -0.011087
0.104906 0.027825 0.962563 -0.488555 -0.865699 0.108987
0.114582 0.044259 0.686511 -0.074446 -0.997224 0.001378
0.118463 0.047233 0.434530 -0.005353 0.999985 0.000954
0.132893 0.046165 0.291632 0.310776 0.950471 -0.004796
0.111006 0.043104 0.176457 0.033512 -0.999417 -0.006518
0.117825 0.047229 0.772125 -0.009881 0.999620 0.025740
0.110541 0.047230 0.752671 0.014199 0.999806 0.013665
0.081986 0.045506 0.816315 -0.135356 0.202049 -0.969977
0.096236 0.046256 0.313024 -0.314979 0.949097 -0.001416
0.105341 0.043066 0.530800 -0.025753 -0.999664 0.003078
0.132541 0.046224 0.750347 0.342884 0.939316 0.010769
0.103533 0.044814 0.883347 -0.999102 -0.031753 -0.028061
0.108438 0.051223 0.830691 0.295100 0.935909 0.192326
0.106316 0.047106 0.153217 -0.038639 0.999204 -0.009877
0.096025 0.046221 0.650400 -0.282376 0.959301 0.002277
0.123764 0.043070 0.355979 0.032432 -0.999474 0.000533
0.166431 0.038214 0.838308 -0.020371 -0.923430 0.383225
0.114019 0.046794 0.184933 0.129713 0.991552 -0.000033
0.112844 0.027584 0.958254 -0.099650 -0.994633 0.027845
0.105752 0.059939 0.965927 -0.468700 0.835835 0.285833
0.113817 0.044241 0.323602 0.123150 -0.992387 0.001034
0.122004 0.043202 0.149600 0.023345 -0.999679 -0.009842
0.101618 0.043223 0.809164 -0.134348 -0.989663 0.050176
0.124854 0.043099 0.618695 0.040321 -0.999180 0.003546
0.106715 0.047209 0.370464 -0.027814 0.999613 0.000917
0.114641 0.046104 0.469485 -0.119499 0.992833 0.001585
0.123709 0.050513 0.931546 0.863201 0.498765 -0.078210
0.108652 0.047243 0.673089 -0.006428 0.999965 0.005299
0.103545 0.045972 0.859598 -0.996649 0.081680 -0.004435
0.119564 0.043058 0.647900 -0.012189 -0.999912 0.005187
0.133635 0.045880 0.624493 0.535638 0.844444 0.002595
0.131693 0.046364 0.380887 0.253353 0.967370 -0.002601
0.115988 0.043161 0.171966 -0.054481 -0.998494 -0.006424
0.133468 0.045947 0.686933 0.517401 0.855730 0.004739
0.107875 0.036783 0.975000 -0.456151 -0.515892 0.725108
0.114318 0.044292 0.573740 -0.002934 -0.999995 0.000994
0.191648 0.048325 0.843634 0.218779 0.814335 0.537581
0.106911 0.047213 0.737936 -0.021345 0.999754 0.006078
0.105781 0.048840 0.975000 -0.561932 0.289297 0.774945
0.118990 0.043071 0.386887 -0.013912 -0.999902 0.001382
0.110991 0.047227 0.292882 0.009722 0.999953 0.000001
0.114961 0.044047 0.754483 -0.214844 -0.976623 0.007096
0.129579 0.043437 0.643947 0.133277 -0.991076 0.002213
0.126068 0.043171 0.198746 0.070649 -0.997488 -0.005066
0.104287 0.049011 0.850089 -0.923607 0.380720 -0.044739
0.103316 0.048431 0.949750 -0.948103 0.306887 -0.083200
0.119885 0.047243 0.764468 0.010985 0.999714 0.021222
0.105318 0.043836 0.116696 -0.089855 -0.995791 -0.018056
0.118326 0.043086 0.362229 -0.019423 -0.999811 0.001040
0.115657 0.064445 0.962737 0.076499 0.990043 0.118167
0.111859 0.056600 0.950208 -0.192808 0.978165 -0.077581
0.119017 0.045849 0.075337 0.099576 0.994786 -0.022015
0.107323 0.036752 0.854610 -0.636541 -0.770781 -0.026674
0.100106 0.043312 0.339228 -0.097426 -0.995243 -0.000403
0.125949 0.036612 0.953767 0.789911 -0.612440 -0.030963
0.120891 0.043046 0.392668 0.002965 -0.999995 0.001263
0.125471 0.045873 0.108686 0.244477 0.969163 -0.030878
0.119487 0.043060 0.723138 -0.014420 -0.999875 0.006471
0.121153 0.047226 0.619039 0.021428 0.999764 0.003603
0.105644 0.043262 0.146338 -0.025539 -0.999615 -0.010857
0.111883 0.047211 0.710997 0.104021 0.994557 0.006043
0.103445 0.043116 0.591319 -0.049884 -0.998748 0.003781
0.118140 0.044059 0.830332 0.352895 -0.185362 -0.917118
0.096577 0.043810 0.671323 -0.291190 -0.956661 0.002924
0.106926 0.043053 0.511518 -0.009582 -0.999950 0.002887
0.125088 0.046543 0.867329 0.988223 0.152597 -0.011410
0.096950 0.043753 0.189136 -0.214637 -0.976553 -0.016598
0.108263 0.046951 0.141099 -0.025123 0.999629 -0.010540
0.132649 0.045342 0.143994 0.763936 0.641697 -0.068025
0.110323 0.058532 0.953347 -0.273615 0.961152 -0.036353
0.131695 0.043762 0.292929 0.271541 -0.962425 -0.001558
0.122386 0.043059 0.323821 0.018945 -0.999820 0.000184
0.096943 0.043754 0.728045 -0.276242 -0.961079 0.004188
0.117095 0.047221 0.756816 -0.016625 0.999791 0.011898
0.097856 0.043614 0.212095 -0.180802 -0.983475 -0.009353
0.043921 0.045406 0.830380 -0.590629 0.126434 -0.796977
0.121554 0.047216 0.810410 0.035827 0.997582 0.059550
0.114308 0.038096 0.831530 -0.453430 -0.528003 0.718063
0.114147 0.046182 0.751365 0.011920 0.999915 0.005266
0.099424 0.046785 0.724701 -0.123588 0.992324 0.004462
0.126759 0.038031 0.830295 -0.295687 -0.792339 0.533637
0.114370 0.046070 0.411982 -0.021908 0.999759 0.001533
0.110266 0.047232 0.649619 0.009094 0.999946 0.004970
0.118261 0.043088 0.566990 -0.023666 -0.999710 0.004358
0.125242 0.047091 0.497783 0.064026 0.997946 0.002309
0.122061 0.047204 0.310555 0.026265 0.999655 -0.000221
0.128127 0.046880 0.811700 0.166427 0.984398 0.057110
0.100798 0.043271 0.250974 -0.084150 -0.996452 -0.001554
0.045150 0.039895 0.840244 -0.244560 -0.956366 0.159857
0.137870 0.049781 0.814666 0.006689 0.719138 -0.694836
0.125083 0.043438 0.883231 0.990281 -0.136254 -0.027909
0.114675 0.043428 0.796599 -0.125085 -0.991919 0.021231
0.099549 0.043354 0.169093 -0.101757 -0.994735 -0.012186
0.113539 0.046164 0.366214 0.279544 0.960132 0.001537
0.099779 0.046831 0.790539 -0.126431 0.991209 0.038996
0.114279 0.044296 0.285476 -0.034751 -0.999395 0.001246
0.117790 0.047228 0.671073 -0.007952 0.999963 0.003335
0.110682 0.034838 0.853039 -0.322948 -0.944739 -0.056322
0.118907 0.047236 0.597304 0.001090 0.999995 0.002859
0.116752 0.055593 0.869047 0.205774 0.978501 -0.013919
0.105220 0.047173 0.428717 -0.041654 0.999131 0.001661
0.108811 0.035719 0.860930 -0.502891 -0.864260 -0.012427
0.134063 0.044396 0.432811 0.622986 -0.782233 0.000544
0.095085 0.045936 0.726591 -0.439470 0.898251 0.003259
0.114171 0.046290 0.100434 0.076827 0.996993 -0.010170
0.130406 0.038865 0.957844 0.922121 -0.386243 0.022558
0.122240 0.047200 0.332259 0.028139 0.999604 0.000034
0.100958 0.043262 0.460516 -0.087073 -0.996201 0.001478
0.118892 0.043073 0.367011 -0.014525 -0.999894 0.001098
0.101032 0.046922 0.785692 -0.106269 0.993693 0.035782
0.117144 0.047222 0.588788 -0.022566 0.999742 0.002663
0.096503 0.046301 0.651728 -0.257109 0.966379 0.002447
0.127493 0.043254 0.770357 0.094514 -0.995321 0.020084
0.127990 0.046890 0.302398 0.101674 0.994817 -0.000883
0.133362 0.045990 0.339541 0.428566 0.903500 -0.004307
0.103693 0.048106 0.833247 0.320769 0.676351 0.663067
0.135289 0.045214 0.648416 0.996611 -0.082196 0.003245
0.104303 0.047507 0.814665 0.315526 0.200917 -0.927403
0.106301 0.047199 0.544035 -0.029121 0.999570 0.003294
0.117326 0.044749 0.052690 0.093068 -0.995380 -0.023589
0.111834 0.047212 0.520706 0.058303 0.998294 0.003145
0.119238 0.047238 0.372230 0.001244 0.999999 0.000326
0.122015 0.047205 0.400028 0.026848 0.999639 0.000875
0.112084 0.034455 0.938258 -0.217443 -0.972341 -0.085270
0.141194 0.038031 0.830055 -0.128533 -0.935694 0.328566
0.114968 0.047164 0.158308 -0.149645 0.988736 -0.002861
0.097405 0.046450 0.340228 -0.245684 0.969350 -0.000778
0.098335 0.043540 0.450312 -0.174350 -0.984684 -0.000288
0.108056 0.047240 0.233723 -0.017040 0.999854 -0.000897
0.103570 0.043848 0.917352 -0.992073 -0.108528 -0.063350
0.097674 0.043641 0.814843 -0.364010 -0.930546 0.039771
0.121247 0.043049 0.336869 0.007009 -0.999975 0.000379
0.128852 0.046827 0.792088 0.168809 0.984768 0.041662
0.163537 0.051225 0.833929 0.021427 0.971567 0.235794
0.110146 0.047233 0.801367 0.019405 0.998318 0.054623
0.136408 0.038031 0.826432 -0.151155 -0.974347 0.166732
0.100333 0.045184 0.113389 -0.983547 0.151310 -0.098693
0.121041 0.047228 0.400497 0.017960 0.999838 0.000941
0.121984 0.047206 0.251927 0.024906 0.999689 -0.000932
0.081255 0.038029 0.822502 0.028213 -0.947331 -0.319012
0.103613 0.043106 0.577100 -0.047015 -0.998888 0.003603
0.107066 0.043052 0.528535 -0.008469 -0.999959 0.003140
0.098318 0.046602 0.367620 -0.189850 0.981813 -0.000208
0.128283 0.043301 0.514096 0.097457 -0.995239 0.001262
0.099479 0.043776 0.145076 -0.178082 -0.983787 -0.021202
0.130957 0.043649 0.402356 0.214185 -0.976793 -0.000336
0.119770 0.043054 0.313024 -0.006204 -0.999981 0.000304
0.184105 0.042138 0.845965 0.153762 -0.669271 0.726935
0.125966 0.046958 0.154907 0.073251 0.997240 -0.012118
0.123177 0.043065 0.652525 0.021047 -0.999769 0.004318
0.127908 0.048199 0.814666 -0.231050 0.378524 -0.896290
0.135284 0.044879 0.670120 0.850612 -0.525777 0.004333
0.125084 0.037792 0.971978 0.653593 -0.474816 0.589378
0.125103 0.043536 0.946508 0.984436 -0.148720 -0.093637
0.109187 0.043062 0.515706 0.011039 -0.999934 0.003109
0.100765 0.043273 0.785728 -0.133144 -0.990527 0.033587
0.120703 0.047236 0.262787 0.013326 0.999911 -0.000721
0.118428 0.039495 0.830332 0.288470 -0.776753 -0.559857
0.134390 0.044525 0.491908 0.697156 -0.716918 0.001503
0.097610 0.043651 0.498658 -0.212927 -0.977068 -0.000282
0.127210 0.044778 0.110025 0.847480 -0.523703 -0.086680
0.129070 0.046799 0.768042 0.159428 0.986923 0.023783
0.111802 0.043130 0.310602 0.095480 -0.995431 0.000415
0.117238 0.047225 0.236114 -0.021115 0.999777 -0.000960
0.111584 0.055528 0.930199 -0.249758 0.965267 -0.076678
0.110217 0.043086 0.175836 0.026051 -0.999639 -0.006639
0.134110 0.044415 0.538660 0.618378 -0.785879 0.001777
0.133841 0.045797 0.257912 0.549430 0.835509 -0.007170
0.047072 0.039654 0.836062 -0.302703 -0.948301 -0.095375
0.111831 0.047212 0.313399 0.054294 0.998525 0.000255
0.109005 0.035586 0.845388 -0.452235 -0.881249 -0.137418
0.109655 0.043073 0.733670 0.012689 -0.999900 0.006270
0.109256 0.035447 0.934815 -0.474283 -0.876600 -0.081416
0.171480 0.049660 0.843336 -0.071148 0.746708 0.661335
0.108219 0.043042 0.527456 0.002296 -0.999992 0.003197
0.105453 0.043136 0.814665 0.353879 -0.445193 -0.822540
0.123647 0.039445 0.900288 0.858500 -0.510778 -0.045658
0.118303 0.047232 0.435327 -0.006938 0.999975 0.000965
0.132457 0.046238 0.371574 0.294765 0.955565 -0.002898
0.112154 0.044568 0.060900 -0.028758 -0.999401 -0.019252
0.112853 0.046588 0.640821 0.651487 0.758650 0.003880
0.129060 0.043358 0.794010 0.135441 -0.990231 0.033137
0.110032 0.047234 0.745257 0.008608 0.999936 0.007401
0.105124 0.047171 0.277428 -0.045568 0.998961 -0.000395
0.134491 0.044565 0.502908 0.725325 -0.688404 0.001583
0.113543 0.055869 0.937297 -0.066992 0.994214 -0.083965
0.099022 0.043434 0.337666 -0.136152 -0.990687 -0.001166
0.109086 0.047240 0.298523 -0.006971 0.999976 0.000040
0.106509 0.043056 0.728138 -0.017540 -0.999828 0.005984
0.124641 0.048476 0.899216 0.945644 0.322142 -0.044530
0.113844 0.043174 0.155614 0.056582 -0.998397 -0.001565
0.117394 0.043108 0.410638 -0.029307 -0.999568 0.002099
0.130850 0.046504 0.621055 0.229859 0.973219 0.003053
0.131061 0.038031 0.817428 -0.164087 -0.909966 -0.380839
0.116770 0.043131 0.169778 -0.027531 -0.999600 -0.006394
0.105121 0.047171 0.373089 -0.043734 0.999043 0.000903
0.093893 0.044643 0.286976 -0.754004 -0.656824 -0.007740
0.118237 0.047231 0.744005 -0.003192 0.999985 0.004448
0.099402 0.043376 0.324009 -0.116793 -0.993156 -0.000958
0.118005 0.034838 0.895848 0.342682 -0.938554 -0.041046
0.113892 0.044251 0.334541 0.100226 -0.994964 0.001048
0.112721 0.046768 0.301336 0.776636 0.629948 0.001169
0.059829 0.038294 0.836511 -0.062817 -0.969091 0.238572
0.118878 0.044200 0.085287 0.027841 -0.999484 -0.015989
0.130405 0.043564 0.430311 0.179323 -0.983790 0.000081
0.104015 0.041751 0.906809 -0.950881 -0.305090 -0.052393
0.098885 0.046695 0.169566 -0.180066 0.983569 -0.012970
0.114402 0.046074 0.626383 -0.064082 0.997943 0.001997
0.122427 0.047195 0.780299 0.038959 0.998622 0.035148
0.119432 0.047240 0.548895 0.005188 0.999983 0.002467
0.131621 0.043751 0.273647 0.269877 -0.962893 -0.001714
0.114080 0.046081 0.737326 0.027832 0.999610 0.002240
0.077285 0.038029 0.820773 -0.056016 -0.882453 -0.467053
0.100516 0.046234 0.134718 -0.264191 0.964124 -0.025840
0.131848 0.046339 0.350307 0.259702 0.965683 -0.003240
0.114126 0.055863 0.944168 -0.011085 0.995755 -0.091371
0.104684 0.047161 0.735967 -0.041526 0.999120 0.005844
0.129493 0.046729 0.798700 0.207958 0.977030 0.046531
0.118484 0.047233 0.663838 -0.001900 0.999992 0.003511
0.105852 0.043062 0.474641 -0.019411 -0.999809 0.002294
0.100266 0.046866 0.393653 -0.115567 0.993299 0.000636
0.097466 0.043673 0.574693 -0.229498 -0.973308 0.001221
0.094302 0.045621 0.239208 -0.901623 0.432446 -0.008101
0.098740 0.043477 0.281366 -0.148099 -0.988970 -0.002268
0.113095 0.050765 0.830332 -0.111461 0.788054 -0.605431
0.111516 0.047220 0.485157 0.030887 0.999519 0.002668
0.117431 0.043107 0.435608 -0.029424 -0.999564 0.002500
0.117480 0.043106 0.366089 -0.027580 -0.999619 0.001323
0.106063 0.043060 0.179520 -0.012997 -0.999890 -0.007083
0.108259 0.047245 0.769600 -0.007242 0.999583 0.027971
0.119078 0.043946 0.101361 0.020633 -0.999686 -0.014235
0.108483 0.054126 0.873339 -0.555195 0.831533 -0.017645
0.117081 0.043118 0.535004 -0.045244 -0.998967 0.004225
0.128074 0.043289 0.647212 0.088828 -0.996044 0.002473
0.129762 0.043466 0.206487 0.168933 -0.985610 -0.005866
0.135338 0.045191 0.161988 0.869689 0.488306 -0.072098
0.107836 0.047198 0.156598 -0.021321 0.999733 -0.008932
0.102796 0.043154 0.612304 -0.060645 -0.998151 0.003976
0.134636 0.044623 0.741030 0.723089 -0.690741 0.004453
0.134394 0.045574 0.616351 0.836246 0.548348 0.002566
0.129118 0.046791 0.813127 0.197698 0.978598 0.057113
0.113500 0.046181 0.715638 0.247551 0.968872 0.002280
0.104378 0.047947 0.835077 -0.857168 0.407381 -0.315124
0.098183 0.043563 0.458625 -0.182197 -0.983262 -0.000331
0.097038 0.043238 0.965683 -0.958518 -0.083429 0.272550
0.140947 0.048730 0.815033 0.054702 0.656331 -0.752487
0.121517 0.043052 0.179466 0.012460 -0.999904 -0.006148
0.117307 0.055477 0.843446 0.234841 0.954327 -0.184689
0.177803 0.040146 0.827553 0.388117 -0.731705 -0.560333
0.098623 0.044221 0.814665 0.219347 -0.219986 -0.950522
0.111295 0.047225 0.789599 0.032952 0.998463 0.044565
0.110242 0.043086 0.787369 0.018005 -0.998906 0.043168
0.134545 0.044587 0.615117 0.714445 -0.699685 0.003069
0.119803 0.043053 0.487064 -0.007981 -0.999964 0.002807
0.093290 0.045213 0.325103 -0.998136 -0.060608 -0.007208
0.113244 0.044060 0.252646 0.370395 -0.928874 0.000793
0.111088 0.053114 0.975000 -0.190805 0.563223 0.803973
0.098156 0.043567 0.604976 -0.192441 -0.981306 0.002035
0.099426 0.043372 0.462391 -0.120652 -0.992694 0.001036
0.110672 0.046440 0.107057 -0.006118 0.999898 -0.012899
0.105000 0.047168 0.630758 -0.039921 0.999193 0.004395
0.131951 0.043802 0.624914 0.242430 -0.970168 0.001410
0.125182 0.044989 0.858795 0.999995 -0.000225 -0.003246
0.072392 0.050410 0.818513 -0.201322 0.773000 -0.601615
0.099794 0.043330 0.551129 -0.110592 -0.993863 0.002550
0.132182 0.043837 0.583053 0.260495 -0.965475 0.000961
0.128707 0.045006 0.115773 0.991072 -0.091620 -0.096856
0.130728 0.043614 0.814671 0.207593 -0.977579 0.035266
0.113484 0.055900 0.948820 -0.068077 0.993122 -0.095261
0.095721 0.046171 0.599007 -0.306044 0.952016 0.001617
0.121070 0.043048 0.278460 0.006359 -0.999980 -0.000329
0.121064 0.043048 0.786695 0.004080 -0.999021 0.044050
0.124734 0.036896 0.952109 0.771459 -0.634101 -0.052602
0.131340 0.046422 0.193460 0.213316 0.976867 -0.015101
0.113238 0.046298 0.628368 0.402451 0.915438 0.002725
0.122866 0.038304 0.850819 0.772504 -0.632230 -0.059352
0.108796 0.047242 0.408857 -0.008233 0.999965 0.001586
0.105312 0.039096 0.848911 -0.818715 -0.572012 -0.050078
0.122616 0.043061 0.320868 0.021363 -0.999772 0.000140
0.134540 0.044585 0.447484 0.794351 -0.607459 -0.000321
0.121358 0.043050 0.518675 0.005790 -0.999979 0.002936
0.124845 0.047839 0.915595 0.964329 0.257458 -0.061518
0.107956 0.047238 0.366058 -0.016202 0.999868 0.000943
0.195117 0.047891 0.840307 0.297026 0.904940 0.304729
0.059934 0.042390 0.822978 -0.437297 -0.397515 -0.806693
0.103641 0.043472 0.864185 -0.987916 -0.154775 -0.008189
0.094839 0.045837 0.583912 -0.523261 0.852171 0.001643
0.097197 0.043715 0.332712 -0.226289 -0.974055 -0.003173
0.120854 0.037001 0.841366 0.559369 -0.800941 -0.213540
0.126905 0.043220 0.303695 0.081645 -0.996661 -0.000525
0.098951 0.046706 0.227546 -0.171933 0.985106 -0.002293
0.120854 0.043046 0.563630 0.000588 -0.999993 0.003734
0.118569 0.044563 0.065849 0.093301 -0.995391 -0.022185
0.113443 0.046207 0.586834 0.298753 0.954328 0.002177
0.122057 0.043056 0.428561 0.013487 -0.999908 0.001473
0.111697 0.044030 0.096172 0.017171 -0.999757 -0.013853
0.116422 0.043146 0.526503 -0.122233 -0.992489 0.004967
0.134619 0.044616 0.575881 0.734314 -0.678804 0.002757
0.114308 0.040411 0.832170 -0.586749 -0.295288 0.754010
0.133218 0.044062 0.302305 0.412260 -0.911065 -0.001564
0.093818 0.045426 0.808435 -0.626416 0.779113 0.024193
0.118806 0.043075 0.810986 -0.026930 -0.996919 0.073675
0.109983 0.054943 0.875816 -0.416674 0.908831 -0.020215
0.123333 0.038986 0.936271 0.822033 -0.563330 -0.083194
0.115776 0.046306 0.099414 -0.038746 0.999157 -0.013582
0.099873 0.046838 0.260381 -0.127135 0.991885 -0.000980
0.100452 0.046880 0.437639 -0.110805 0.993842 0.001173
0.132278 0.046267 0.703746 0.319385 0.947611 0.005065
0.134900 0.045370 0.696887 0.998114 0.061131 0.005584
0.112642 0.046894 0.232739 0.831916 0.554901 0.000084
0.113627 0.046159 0.745412 0.182881 0.983131 0.002721
0.095935 0.038029 0.818981 0.156138 -0.938582 -0.307709
0.114278 0.044296 0.342244 -0.025468 -0.999675 0.001179
0.104149 0.048687 0.876825 -0.945889 0.323793 -0.021242
0.083837 0.051223 0.831848 0.051609 0.887308 0.458281
0.133543 0.051225 0.818308 -0.059985 0.886960 -0.457934
0.109093 0.043725 0.115480 -0.016691 -0.999769 -0.013539
0.111372 0.043112 0.776929 0.029241 -0.998966 0.034823
