0.032009 0.182274 0.508172 -0.973229 0.229450 0.013327
0.037132 0.177924 0.769408 0.973700 0.227785 0.004652
0.034730 0.194283 0.365396 0.316360 0.943265 0.100837
0.036296 0.178605 0.878637 0.973161 0.230005 0.007391
0.037643 0.174629 0.820486 0.990144 0.139891 0.006765
0.044047 0.172528 0.254183 0.992869 0.066728 0.098786
0.031082 0.176594 0.640454 -0.985538 0.169416 0.003611
0.033364 0.143328 0.463669 -0.950577 -0.310453 0.004609
0.035389 0.140454 0.351590 0.940737 -0.338674 0.017729
0.031328 0.178021 0.612581 -0.974868 0.222755 0.003606
0.038721 0.156737 0.367556 0.988879 0.148083 0.013799
0.041246 0.042141 0.267499 0.759008 -0.045553 0.649486
0.032518 0.146998 0.470998 -0.970781 -0.239943 0.003366
0.030367 0.175090 0.338658 -0.975436 -0.219186 0.021955
0.030200 0.156169 0.419485 -0.997572 -0.067004 0.018999
0.037816 0.156682 0.761949 0.990898 -0.134552 0.004135
0.032168 0.169260 0.764043 -0.988845 -0.148945 -0.000641
0.034530 0.186724 0.848820 0.011364 0.999710 0.021230
0.034096 0.185840 0.807433 -0.828474 0.559909 0.011539
0.038003 0.177951 0.533903 0.977124 0.212314 0.012302
0.039970 0.161713 0.072629 0.914150 -0.401771 -0.053945
0.033313 0.190116 0.343253 -0.951461 0.307687 0.007067
0.035162 0.192264 0.379458 0.909554 0.415156 0.018887
0.034056 0.141091 0.506395 -0.778370 -0.627724 0.010104
0.031915 0.148286 0.377360 -0.974429 -0.224564 0.007707
0.031312 0.178560 0.572673 -0.974899 0.222575 0.005749
0.034546 0.189328 0.703432 0.034519 0.999249 0.017580
0.040662 0.157848 0.132075 0.793921 -0.607235 -0.030901
0.033422 0.184568 0.727735 -0.950545 0.310537 0.005581
0.030926 0.175993 0.638185 -0.991597 0.129321 0.003420
0.034439 0.190134 0.643622 -0.138819 0.990171 0.017072
0.036394 0.179197 0.840651 0.972407 0.233213 0.006005
0.038011 0.155783 0.651829 0.988466 -0.151400 0.003614
0.030706 0.028719 0.248109 -0.592169 -0.627285 -0.505817
0.041258 0.163193 0.030393 0.782913 -0.070735 -0.618098
0.035902 0.197805 0.238579 0.196007 0.240671 -0.950610
0.033989 0.147662 0.857250 -0.952724 -0.303751 0.007197
0.034986 0.185557 0.813828 0.878445 0.477741 0.009948
0.032989 0.153908 0.178016 -0.258682 -0.965949 0.005071
0.035732 0.149785 0.830235 0.965194 -0.261467 0.005923
0.041246 0.027666 0.255599 0.692829 -0.579006 -0.429814
0.036095 0.144707 0.439428 0.960686 -0.277610 0.003945
0.025000 0.143687 0.246571 -0.950360 -0.084631 -0.299422
0.031784 0.170202 0.325124 -0.980726 -0.195327 0.004929
0.031834 0.177151 0.137915 -0.356719 0.933658 -0.032169
0.035895 0.159979 0.934271 0.995514 -0.086851 0.037539
0.035104 0.151753 0.925568 0.966870 -0.251508 0.043656
0.037765 0.179447 0.493862 0.974836 0.222111 0.019038
0.032307 0.160282 0.911017 -0.996744 -0.074716 0.030319
0.031893 0.169866 0.379770 -0.982950 -0.183862 0.001995
0.032907 0.182288 0.742852 -0.966106 0.258104 0.004689
0.031735 0.164994 0.888312 -0.989666 0.126495 -0.067524
0.035427 0.190368 0.428899 0.944018 0.329860 0.004775
0.037433 0.149059 0.313743 0.974802 -0.222816 0.010700
0.034438 0.136333 0.287629 -0.128633 -0.636770 0.760249
0.036798 0.149433 0.558229 0.972523 -0.232726 0.006207
0.036435 0.147655 0.541614 0.969630 -0.244550 0.003670
0.030382 0.240641 0.261990 -0.531708 0.005701 0.846908
0.034808 0.257184 0.261990 -0.070232 -0.027524 0.997151
0.043915 0.203083 0.242523 0.881964 0.177621 -0.436567
0.036819 0.163065 0.704750 0.990132 0.140138 -0.000321
0.034294 0.187517 0.759183 -0.454346 0.890680 0.016076
0.041629 0.158689 0.198240 0.860936 -0.508375 0.018548
0.035248 0.191905 0.378022 0.938299 0.345677 0.010124
0.035125 0.152648 0.034037 -0.249313 -0.893834 -0.372698
0.030581 0.154390 0.408322 -0.987078 -0.158964 0.020202
0.035506 0.185564 0.696952 0.946401 0.322944 0.005695
0.032499 0.165730 0.760040 -0.999911 0.013311 -0.000967
0.026316 0.160924 0.193980 -0.942141 -0.334879 0.015042
0.031762 0.160860 0.673575 -0.977392 0.211433 -0.000112
0.036661 0.164708 0.627246 0.998024 0.062839 0.000019
0.037606 0.149963 0.329411 0.974836 -0.222536 0.013095
0.030411 0.175964 0.480964 -0.996218 0.084185 0.021509
0.037508 0.172070 0.641685 0.972205 -0.234131 0.000179
0.032823 0.145371 0.445988 -0.963540 -0.267537 0.003806
0.031711 0.180632 0.538398 -0.973851 0.226891 0.011605
0.035672 0.141935 0.376147 0.950559 -0.310515 0.004219
0.032701 0.143854 0.271390 -0.963814 -0.265980 0.017804
0.036874 0.168013 0.359043 0.994741 -0.102409 0.001727
0.037409 0.171643 0.629892 0.974012 -0.226496 0.000162
0.037075 0.183510 0.414900 0.974162 0.225564 0.011350
0.038129 0.151909 0.289211 0.975326 -0.219944 0.019057
0.034291 0.164059 0.967376 -0.987006 -0.107512 0.119413
0.036906 0.181415 0.607720 0.972740 0.231868 0.003680
0.032677 0.125424 0.239392 -0.267013 -0.214001 -0.939632
0.031032 0.173932 0.707173 -0.986040 -0.166502 0.001289
0.033855 0.147192 0.809077 -0.945242 -0.326303 0.006663
0.027800 0.304155 0.265400 -0.971618 0.226827 0.067133
0.041258 0.167745 0.048433 0.877670 -0.042136 0.477410
0.032410 0.166460 0.486792 -0.999758 -0.021987 0.000413
0.037351 0.160678 0.596770 0.976156 0.217070 0.000344
0.041137 0.050007 0.247517 0.765064 0.472346 -0.437683
0.037028 0.150292 0.551631 0.973124 -0.230180 0.006849
0.030135 0.176660 0.287790 -0.907315 0.127551 0.400638
0.037155 0.170650 0.740281 0.980651 -0.195764 -0.000515
0.038269 0.173978 0.392969 0.964152 -0.265325 0.003751
0.039515 0.155926 0.238579 0.597276 -0.505208 -0.622917
0.032458 0.154971 0.220730 -0.307171 -0.951480 -0.018224
0.035648 0.186620 0.602735 0.950422 0.310920 0.005135
0.026028 0.167786 0.216167 -0.993244 0.115821 0.007254
0.032947 0.150061 0.773394 -0.965777 -0.259327 0.004837
0.029959 0.157246 0.112557 -0.674888 -0.736787 -0.040872
0.038469 0.157021 0.514244 0.993366 0.114972 0.002438
0.031250 0.175504 0.755407 -0.989251 0.146165 0.004186
0.034175 0.138326 0.364263 -0.563341 -0.822176 0.081694
0.025000 0.185845 0.254071 -0.989832 0.055467 0.130982
0.037333 0.149240 0.387746 0.974789 -0.222871 0.010722
0.031092 0.168672 0.025351 -0.348397 0.208633 -0.913834
0.037119 0.170471 0.758296 0.981912 -0.189339 -0.000612
0.037495 0.157469 0.843976 0.985996 -0.166554 0.008497
0.032733 0.150249 0.733261 -0.970349 -0.241668 0.004351
0.027800 0.288565 0.268512 -0.698529 -0.039568 0.714487
0.032400 0.194921 0.261991 -0.282158 0.358863 0.889721
0.031612 0.148698 0.273957 -0.975115 -0.221480 0.009887
0.033327 0.141519 0.313455 -0.948353 -0.316367 0.023215
0.037043 0.148744 0.440493 0.973940 -0.226665 0.007941
0.035138 0.192118 0.398549 0.896632 0.442597 0.012631
0.031823 0.155291 0.807622 -0.974783 -0.223084 0.005658
0.032351 0.164645 0.550550 -0.997827 0.065894 0.000316
0.032189 0.163546 0.842308 -0.991997 0.126122 -0.005885
0.029832 0.155614 0.152240 -0.621168 -0.783496 -0.016834
0.034451 0.190755 0.611592 -0.116404 0.993058 0.016909
0.036243 0.157691 0.075463 0.337640 -0.939042 -0.064799
0.037678 0.172591 0.577744 0.970166 -0.242442 0.000707
0.037493 0.161043 0.266093 0.980730 0.194324 0.020196
0.032090 0.169627 0.664044 -0.986454 -0.164039 -0.000101
0.037702 0.172360 0.459508 0.967211 -0.253959 0.002808
0.033938 0.186458 0.739087 -0.934173 0.356761 0.006491
0.037084 0.170209 0.649496 0.983178 -0.182652 -0.000006
0.033959 0.188958 0.599530 -0.899981 0.435866 0.007382
0.032170 0.151691 0.681234 -0.972488 -0.232918 0.004003
0.035307 0.178013 0.151806 0.112253 0.993423 -0.022588
0.032990 0.187232 0.453705 -0.959732 0.280886 0.004066
0.031514 0.149841 0.354647 -0.974888 -0.222358 0.012243
0.040454 0.218373 0.261991 0.645618 0.043379 0.762428
0.031046 0.151839 0.350675 -0.975525 -0.219152 0.017989
0.031167 0.177356 0.184346 -0.484782 0.874586 0.009248
0.034726 0.177231 0.124800 0.030699 0.998686 -0.041027
0.035702 0.151598 0.897093 0.970685 -0.240102 0.011044
0.030954 0.154706 0.171343 -0.509581 -0.860423 -0.000035
0.031873 0.188189 0.238579 -0.209601 0.200806 -0.956945
0.039591 0.243184 0.245349 0.749570 0.103634 -0.653762
0.038061 0.156726 0.700274 0.994470 -0.104958 0.003624
0.036414 0.180246 0.794792 0.971460 0.237155 0.004892
0.035748 0.153128 0.032876 -0.187516 -0.878275 -0.439853
0.037137 0.170413 0.624786 0.981990 -0.188933 0.000146
0.037583 0.172118 0.525959 0.969698 -0.244303 0.001515
0.032013 0.169139 0.298771 -0.986979 -0.160751 0.005582
0.030486 0.196055 0.261991 -0.498454 0.291511 0.816434
0.030876 0.157711 0.583589 -0.968428 0.249293 0.000951
0.042290 0.159423 0.163667 0.899727 -0.436392 -0.007339
0.030948 0.158688 0.332784 -0.967269 0.250887 0.038018
0.042029 0.168688 0.104553 0.979461 0.197800 -0.039131
0.031386 0.157012 0.097742 -0.522262 -0.851239 -0.051333
0.042896 0.165015 0.223570 0.997153 -0.065537 -0.037288
0.033691 0.191791 0.343308 -0.938723 0.343871 0.023503
0.034199 0.145949 0.817847 -0.661969 -0.749366 0.015773
0.027789 0.162869 0.026922 -0.728134 -0.140626 -0.670854
0.044047 0.140581 0.256124 0.991723 -0.026234 0.125691
0.027800 0.302052 0.263540 -0.989305 0.138546 -0.045608
0.027964 0.210526 0.261991 -0.768087 0.063478 0.637191
0.036345 0.149213 0.662253 0.969497 -0.245070 0.004122
0.036498 0.178640 0.846711 0.972914 0.231086 0.006176
0.025000 0.152732 0.252640 -0.999518 -0.012486 0.028421
0.038539 0.153550 0.269680 0.976280 -0.196961 0.089914
0.031996 0.169917 0.804631 -0.984740 -0.174017 -0.002031
0.036646 0.166435 0.464078 0.999783 -0.020822 0.000463
0.033717 0.188512 0.566041 -0.940729 0.339114 0.005555
0.037214 0.148882 0.400405 0.974564 -0.223913 0.009416
0.030644 0.174301 0.349802 -0.967102 -0.253943 0.015035
0.032742 0.149386 0.682466 -0.968958 -0.247191 0.004243
0.036605 0.044620 0.244129 0.350348 0.344274 -0.871052
0.038134 0.174186 0.589316 0.968697 -0.248244 0.000858
0.031181 0.172800 0.417714 -0.965578 -0.260102 0.002423
0.028593 0.166580 0.065951 -0.998028 0.046357 -0.042331
0.034969 0.147002 0.843492 0.884903 -0.465660 0.010397
0.031131 0.173092 0.459679 -0.966372 -0.257139 0.002044
0.032725 0.143799 0.276101 -0.963527 -0.267109 0.016373
0.041150 0.231401 0.261991 0.656134 -0.015328 0.754489
0.033039 0.149668 0.771613 -0.963214 -0.268690 0.005000
0.031506 0.154964 0.721703 -0.974865 -0.222753 0.004392
0.035272 0.174837 0.080485 0.146805 0.987014 -0.065208
0.032469 0.165615 0.596514 -0.999822 0.018891 0.000140
0.034962 0.139279 0.407024 0.717867 -0.695069 0.039320
0.032762 0.061018 0.249876 -0.661343 -0.045952 -0.748675
0.035470 0.182019 0.881123 0.965520 0.260119 0.010429
0.032504 0.183117 0.594539 -0.971818 0.235703 0.003676
0.042669 0.114774 0.250017 0.970927 -0.092405 -0.220822
0.031942 0.162444 0.329283 -0.986178 0.165482 0.008223
0.028684 0.106084 0.261991 -0.683071 -0.005480 0.730331
0.037300 0.175796 0.827883 0.976171 0.216877 0.007457
0.031904 0.151110 0.578685 -0.973413 -0.229020 0.004166
0.028663 0.163011 0.072492 -0.960060 -0.274774 -0.052772
0.025000 0.183667 0.255706 -0.978096 0.049578 0.202163
0.032849 0.147618 0.601741 -0.964755 -0.263116 0.004217
0.031502 0.178493 0.626621 -0.974338 0.225060 0.003669
0.031357 0.159845 0.416821 -0.967792 0.251728 0.003406
0.038932 0.155828 0.341395 0.985248 -0.098576 0.139890
0.030236 0.246036 0.261990 -0.531946 -0.003934 0.846769
0.034055 0.184280 0.873896 -0.927208 0.374436 0.009132
0.027238 0.172431 0.136398 -0.887499 0.459875 -0.029333
0.030939 0.173526 0.408767 -0.964855 -0.262772 0.002504
0.031418 0.156126 0.774363 -0.982735 -0.184961 0.004549
0.030839 0.173683 0.343109 -0.968767 -0.247368 0.017282
0.036814 0.163170 0.631338 0.990566 0.137033 0.000071
0.027800 0.295845 0.263279 -0.997409 0.071265 0.009848
0.033123 0.150183 0.813353 -0.967165 -0.254093 0.005443
0.031130 0.175698 0.710689 -0.989680 0.143238 0.003948
0.036699 0.167595 0.588718 0.997032 -0.076991 0.000238
0.032380 0.166410 0.845192 -0.999711 -0.022478 -0.008495
0.035998 0.177751 0.911225 0.988583 0.148288 0.026735
0.032419 0.164914 0.688768 -0.998601 0.052875 -0.000349
0.038851 0.087269 0.245603 0.603262 -0.109832 -0.789945
0.044047 0.163347 0.245715 0.936123 0.042559 -0.349087
0.030244 0.261127 0.253821 -0.995804 0.018038 -0.089721
0.025000 0.185848 0.256923 -0.965213 0.051386 0.256364
0.032732 0.188036 0.295707 -0.964795 0.262924 0.006460
0.034490 0.169563 0.967720 -0.843339 0.465671 0.268197
0.032952 0.144436 0.423277 -0.960751 -0.277386 0.003867
0.037106 0.184415 0.312245 0.974629 0.223624 0.009501
0.032012 0.169643 0.483957 -0.985192 -0.171452 0.000697
0.028751 0.157093 0.206591 -0.748728 -0.662436 0.024179
0.030044 0.117939 0.240610 -0.551937 -0.172090 -0.815935
0.026481 0.162154 0.218435 -0.965233 -0.261377 -0.002740
0.034714 0.140625 0.546505 0.313776 -0.949366 0.015775
0.032078 0.306453 0.261625 0.300613 0.916640 0.263443
0.033229 0.189900 0.328417 -0.952851 0.303233 0.011134
0.036911 0.168416 0.375868 0.992418 -0.122897 0.001544
0.038889 0.155925 0.380670 0.995544 -0.079987 0.049937
0.037296 0.148236 0.290688 0.974924 -0.222367 0.008694
0.037093 0.170269 0.661880 0.982834 -0.184490 -0.000076
0.025423 0.166544 0.191700 -0.999304 0.034414 0.014423
0.037614 0.159574 0.798468 0.975210 0.221278 -0.001109
0.035214 0.192685 0.318031 0.924785 0.377879 0.044510
0.033579 0.174509 0.938408 -0.992842 0.112545 0.039983
0.041612 0.160758 0.114422 0.923494 -0.381987 -0.035288
0.041041 0.096296 0.247819 0.932767 -0.076827 -0.352198
0.036231 0.147470 0.585340 0.965538 -0.260230 0.004104
0.031996 0.160136 0.899860 -0.996493 -0.079902 0.024864
0.032064 0.152007 0.674352 -0.972780 -0.231699 0.003958
0.027800 0.034193 0.251756 -0.852646 -0.386775 -0.351283
0.037901 0.172767 0.363763 0.966430 -0.256234 0.018922
0.031908 0.170291 0.557476 -0.982363 -0.186985 0.000465
0.038251 0.105314 0.261991 0.586553 -0.013022 0.809806
0.038404 0.174905 0.549955 0.994273 -0.106850 0.002320
0.030928 0.063118 0.251663 -0.787106 -0.037340 -0.615687
0.037788 0.159310 0.476712 0.967301 0.253624 0.001776
0.031883 0.162110 0.375562 -0.983268 0.182125 0.003779
0.033602 0.181158 0.906906 -0.966296 0.256380 0.023252
0.031562 0.086065 0.261991 -0.316578 0.036410 0.947868
0.031233 0.159589 0.334216 -0.968292 0.247210 0.036023
0.037552 0.171266 0.289975 0.977723 -0.206958 0.035015
0.031071 0.178929 0.467203 -0.975260 0.219770 0.023872
0.037404 0.178160 0.684375 0.974173 0.225764 0.004073
0.033790 0.186361 0.709775 -0.938857 0.344252 0.006148
0.031669 0.171185 0.830280 -0.978060 -0.208296 -0.003324
0.034367 0.138354 0.424071 -0.243085 -0.967154 0.074313
0.028793 0.196263 0.238579 -0.624542 0.149499 -0.766549
0.037256 0.170862 0.813046 0.978374 -0.206826 -0.002558
0.033485 0.191209 0.311983 -0.942815 0.331882 0.030884
0.043708 0.126572 0.242245 0.828837 -0.137606 -0.542304
0.031586 0.170907 0.290151 -0.979120 -0.202637 0.016212
0.041246 0.038558 0.270127 0.570797 -0.162494 0.804852
0.032421 0.152128 0.772241 -0.971884 -0.235418 0.004545
0.025000 0.130661 0.241225 -0.818654 -0.155259 -0.552901
0.031378 0.159944 0.856342 -0.980587 0.196052 -0.003516
0.037337 0.160588 0.699752 0.975562 0.219722 -0.000255
0.044047 0.134645 0.248175 0.955784 -0.100781 -0.276260
0.036619 0.167086 0.769044 0.998627 -0.052378 -0.000901
0.031669 0.160470 0.656535 -0.974737 0.223355 0.000002
0.034107 0.192095 0.448980 -0.686221 0.727093 0.020888
0.032052 0.157090 0.090516 -0.436930 -0.897708 -0.056679
0.038638 0.175388 0.488026 0.999895 -0.005219 0.013502
0.042559 0.170282 0.214106 0.956869 0.289769 0.020891
0.035976 0.143001 0.348757 0.957870 -0.287176 0.003725
0.040065 0.143835 0.238579 0.418155 -0.263277 -0.869386
0.031374 0.159311 0.662079 -0.971744 0.236035 0.000283
0.037254 0.181108 0.527294 0.973626 0.227757 0.013353
0.041069 0.179809 0.044065 0.776358 0.604567 0.178232
0.036548 0.185402 0.438943 0.970812 0.239820 0.003265
0.031110 0.061046 0.251328 -0.769041 -0.036696 -0.638146
0.032160 0.162870 0.799779 -0.989092 0.147289 -0.001725
0.036906 0.163616 0.380901 0.992557 0.121773 0.001108
0.035285 0.174118 0.069692 0.158149 0.985171 -0.066542
0.033226 0.152094 0.895830 -0.974567 -0.223830 0.010892
0.026816 0.172645 0.161256 -0.897193 0.441539 -0.009339
0.031054 0.157891 0.790146 -0.998541 -0.053845 0.004052
0.027201 0.163124 0.101740 -0.975100 -0.218002 -0.040684
0.041409 0.231539 0.244265 0.804081 0.124093 -0.581425
0.035630 0.025422 0.254495 -0.290863 -0.932963 -0.212083
0.036307 0.211213 0.240145 0.322577 0.213909 -0.922056
0.033235 0.039285 0.243153 -0.167265 -0.030910 -0.985427
0.028527 0.167997 0.069828 -0.983129 0.176040 -0.049673
0.035484 0.141024 0.365668 0.945302 -0.326135 0.006252
0.035228 0.144428 0.646227 0.937905 -0.346839 0.005976
0.037058 0.162088 0.554125 0.984418 0.175842 0.000463
0.035494 0.148631 0.821128 0.957611 -0.287998 0.006195
0.035720 0.029958 0.246862 -0.097401 -0.664248 -0.741140
0.033291 0.182200 0.827254 -0.965403 0.260697 0.005844
0.032991 0.185318 0.581395 -0.961239 0.275683 0.004387
0.030946 0.177946 0.502554 -0.979013 0.203014 0.017856
0.043489 0.168698 0.162035 0.985729 0.168126 -0.008518
0.037455 0.174180 0.861689 0.986829 0.161497 0.009361
0.027909 0.160958 0.100928 -0.917633 -0.395148 -0.042517
0.033285 0.258866 0.247902 0.184210 0.068511 -0.980496
0.032822 0.145004 0.423617 -0.963666 -0.267083 0.003695
0.031269 0.177447 0.634718 -0.975237 0.221128 0.003789
0.027800 0.303426 0.265743 -0.954756 0.256337 0.150773
0.033353 0.184576 0.710559 -0.952239 0.305306 0.005416
0.033831 0.153586 0.931660 -0.978565 -0.200589 0.046622
0.025000 0.188104 0.253604 -0.991944 0.059912 0.111612
0.031481 0.145439 0.238579 -0.322480 -0.329862 -0.887241
0.032285 0.166805 0.310032 -0.999166 -0.040769 0.002135
0.033323 0.145471 0.589603 -0.952526 -0.304417 0.004965
0.041246 0.284078 0.255720 0.909570 -0.195702 -0.366582
0.037043 0.162379 0.463665 0.985047 0.172284 0.000768
0.025000 0.188530 0.259298 -0.933983 0.051843 0.353537
0.031520 0.179819 0.540843 -0.974340 0.224804 0.011199
0.036782 0.164087 0.836488 0.994892 0.100781 -0.005673
0.028761 0.160540 0.089236 -0.877420 -0.477183 -0.049304
0.034949 0.043492 0.243662 0.131296 0.267842 -0.954475
0.030748 0.157534 0.515447 -0.966722 0.255820 0.001906
0.026463 0.113807 0.255921 -0.997756 -0.066903 0.002467
0.026278 0.165266 0.228735 -0.989643 -0.041266 -0.137491
0.035881 0.154422 0.916385 0.989320 -0.142539 0.030475
0.040382 0.174765 0.208337 0.759946 0.649502 0.025094
0.030996 0.174718 0.740755 -0.997127 0.075666 0.003609
0.034786 0.185228 0.870537 0.602420 0.797970 0.018296
0.036659 0.164681 0.642944 0.997941 0.064133 -0.000063
0.035096 0.185650 0.787105 0.936143 0.351556 0.006696
0.034014 0.029372 0.268096 0.319249 -0.627637 0.710036
0.036911 0.255433 0.247343 0.664536 0.076346 -0.743346
0.027789 0.152120 0.036636 -0.762931 -0.624476 -0.167231
0.032419 0.164849 0.748489 -0.998429 0.056033 -0.000748
0.038328 0.157202 0.605214 0.997792 0.066390 0.002107
0.026442 0.169258 0.125726 -0.973732 0.225558 -0.031140
0.034465 0.181463 0.935268 -0.213613 0.954322 0.208899
0.036984 0.168794 0.870859 0.989853 -0.141882 -0.007794
0.041258 0.165355 0.027283 0.711449 -0.033356 -0.701945
0.032224 0.146607 0.341413 -0.974318 -0.225148 0.003454
0.025000 0.170962 0.238914 -0.826228 -0.019243 -0.563007
0.037428 0.156891 0.832915 0.980224 -0.197728 0.007985
0.028347 0.229852 0.243179 -0.783559 0.074985 -0.616775
0.025000 0.139834 0.239677 -0.796746 -0.126247 -0.590980
0.038751 0.176589 0.146791 0.573126 0.819159 -0.022451
0.035587 0.141673 0.387478 0.948456 -0.316879 0.004368
0.044047 0.146570 0.261534 0.927458 -0.019821 0.373402
0.033614 0.302404 0.247133 0.117782 0.695434 -0.708872
0.036928 0.180585 0.652486 0.972690 0.232075 0.003871
0.030804 0.158420 0.264116 -0.968341 0.243546 0.054780
0.027789 0.166413 0.028247 -0.743491 -0.001025 -0.668745
0.041246 0.288554 0.259202 0.981970 0.088788 -0.166887
0.036750 0.146312 0.344255 0.974192 -0.225705 0.002678
0.037961 0.180060 0.386985 0.975305 0.218806 0.030060
0.025000 0.162697 0.249406 -0.993303 0.007646 -0.115284
0.038232 0.157083 0.679008 0.997768 -0.066703 0.003244
0.031206 0.172374 0.280967 -0.974815 -0.220424 0.033914
0.038354 0.306672 0.255135 0.614430 0.772976 -0.158065
0.034524 0.303486 0.248364 0.230615 0.743998 -0.627123
0.031649 0.027899 0.266231 -0.420192 -0.573350 0.703355
0.036805 0.164573 0.372422 0.997329 0.073035 0.001137
0.039634 0.158969 0.094401 0.787700 -0.614115 -0.048908
0.032400 0.164894 0.610201 -0.998550 0.053829 0.000101
0.031560 0.157384 0.842197 -0.985250 -0.170912 0.008410
0.038739 0.154597 0.289942 0.969080 -0.164663 0.183764
0.031570 0.171784 0.554793 -0.972558 -0.232660 0.000623
0.025014 0.201750 0.256753 -0.961795 0.077334 0.262623
0.035853 0.142667 0.370245 0.955059 -0.296390 0.003959
0.038567 0.174928 0.399457 0.968143 -0.250363 0.004263
0.034639 0.138467 0.440548 0.174887 -0.982071 0.070366
0.034473 0.136002 0.272023 -0.068296 -0.517499 0.852954
0.028790 0.164731 0.063542 -0.994011 -0.103723 -0.034416
0.036827 0.079317 0.246897 0.038563 -0.108457 -0.993353
0.028360 0.297090 0.243980 -0.526979 0.326173 -0.784796
0.038163 0.157657 0.649828 0.991034 0.133596 0.001919
0.039803 0.082242 0.247053 0.913228 -0.061793 -0.402735
0.037021 0.156434 0.876199 0.976938 -0.213293 0.009940
0.038171 0.158469 0.329299 0.970194 0.241672 0.017830
0.033721 0.142218 0.489599 -0.940910 -0.338616 0.005203
0.027957 0.165443 0.078452 -0.997486 -0.050216 -0.049997
0.031515 0.149078 0.268577 -0.975195 -0.221074 0.010972
0.025000 0.170009 0.250831 -0.998888 0.031955 -0.034667
0.032981 0.178847 0.895125 -0.981448 0.191387 0.011400
0.041459 0.173098 0.210146 0.862782 0.504945 0.025266
0.034410 0.165090 0.971391 -0.916151 -0.098708 0.388491
0.032083 0.151780 0.665191 -0.972753 -0.231810 0.003921
0.035179 0.175075 0.083954 0.123913 0.990241 -0.063780
0.034459 0.137419 0.393139 -0.093920 -0.990798 0.097460
0.031262 0.154795 0.647796 -0.977068 -0.212892 0.003847
0.037087 0.170044 0.550627 0.983702 -0.179808 0.000567
0.034336 0.153707 0.163987 -0.026322 -0.999594 -0.010923
0.032952 0.143880 0.388675 -0.960871 -0.276971 0.003702
0.038316 0.178033 0.426048 0.982211 0.185262 0.030641
0.033086 0.177618 0.141068 -0.186124 0.982040 -0.030901
0.041021 0.210417 0.240016 0.710574 0.185162 -0.678822
0.044047 0.184566 0.243128 0.893714 0.136779 -0.427277
0.034646 0.194442 0.384615 0.183873 0.978083 0.097694
0.036489 0.186972 0.328525 0.969041 0.246882 0.002974
0.027789 0.156546 0.036339 -0.832530 -0.499935 -0.238661
0.038230 0.174672 0.696499 0.998576 0.053259 0.003230
0.027548 0.159234 0.133176 -0.859950 -0.509426 -0.031156
0.044047 0.164687 0.258452 0.957627 0.025524 0.286879
0.035949 0.208029 0.239627 0.242611 0.226257 -0.943370
0.029287 0.250262 0.249845 -0.973574 0.031801 -0.226147
0.033005 0.181602 0.802149 -0.968318 0.249670 0.005128
0.026761 0.170743 0.130225 -0.944564 0.326903 -0.030537
0.035498 0.141623 0.409310 0.946042 -0.324010 0.004585
0.031757 0.170944 0.819016 -0.978116 -0.208042 -0.002865
0.025810 0.121224 0.248464 -0.941247 -0.118623 -0.316199
0.037596 0.174709 0.051145 -0.117284 0.655145 0.746344
0.032746 0.181800 0.733722 -0.970056 0.242842 0.004374
0.040730 0.052872 0.251967 0.964654 0.209699 -0.159589
0.037601 0.149768 0.309890 0.974896 -0.222299 0.012730
0.036727 0.166633 0.348449 0.999487 -0.031988 0.001539
0.034513 0.173751 0.959278 -0.110156 0.912352 0.394309
0.031339 0.306900 0.256872 0.161974 0.986466 -0.025499
0.032012 0.169321 0.349636 -0.985791 -0.167947 0.003236
0.036450 0.184115 0.553604 0.970125 0.242576 0.003669
0.034886 0.137660 0.296432 0.606819 -0.715896 0.345344
0.035541 0.142329 0.440584 0.947008 -0.321177 0.004683
0.032156 0.153949 0.807421 -0.973460 -0.228795 0.005307
0.041768 0.227465 0.247797 0.901027 0.120203 -0.416774
0.031117 0.158706 0.520534 -0.967823 0.251626 0.001893
0.038634 0.228275 0.242922 0.651686 0.145683 -0.744367
0.036833 0.169009 0.671753 0.989687 -0.143246 -0.000142
0.032979 0.170499 0.025795 -0.106533 0.323749 -0.940126
0.042634 0.114382 0.247035 0.926632 -0.104928 -0.361030
0.035142 0.146475 0.783861 0.936910 -0.349508 0.006594
0.031606 0.182861 0.320067 -0.974620 0.223225 0.016932
0.038292 0.174360 0.486795 0.966130 -0.258046 0.002338
0.036778 0.168561 0.662310 0.992328 -0.123633 -0.000107
0.035277 0.178508 0.929165 0.979607 0.196390 0.042438
0.033365 0.155014 0.122828 -0.177107 -0.983316 -0.041513
0.032262 0.163657 0.569772 -0.993524 0.113624 0.000320
0.033385 0.145285 0.593492 -0.950799 -0.309767 0.005081
0.030510 0.174790 0.381961 -0.964224 -0.265027 0.005715
0.031283 0.173041 0.682592 -0.971772 -0.235921 0.000278
0.035704 0.183615 0.766913 0.954182 0.299177 0.005536
0.037213 0.170386 0.896190 0.997647 0.065050 0.021667
0.035010 0.144586 0.705808 0.861396 -0.507853 0.009059
0.035845 0.186841 0.536345 0.955096 0.296261 0.004642
0.026842 0.162352 0.231975 -0.944463 -0.221142 -0.243077
0.031449 0.182325 0.302432 -0.974770 0.222316 0.019969
0.037705 0.159432 0.538369 0.969127 0.246562 0.001071
0.031719 0.179794 0.601479 -0.973842 0.227196 0.003591
0.035501 0.143453 0.518215 0.945539 -0.325467 0.005114
0.025296 0.201913 0.261991 -0.879229 0.067579 0.471582
0.036236 0.147360 0.576750 0.965552 -0.260179 0.004076
0.037862 0.177067 0.637066 0.980187 0.198038 0.003709
0.036760 0.168265 0.616843 0.993999 -0.109394 0.000120
0.034181 0.188687 0.665804 -0.626391 0.779388 0.013693
0.038525 0.068143 0.260845 0.729707 0.043066 0.682403
0.032584 0.203513 0.238892 -0.311158 0.210341 -0.926789
0.034446 0.165973 0.973278 -0.284642 -0.001518 0.958633
0.032233 0.167449 0.354921 -0.997283 -0.073646 0.001441
0.036929 0.179821 0.698570 0.972581 0.232529 0.004071
0.037021 0.184504 0.343515 0.974360 0.224843 0.008300
0.032412 0.147899 0.501925 -0.972730 -0.231910 0.003764
0.035596 0.190289 0.388109 0.948707 0.316127 0.004358
0.028904 0.039362 0.272264 -0.260114 0.001772 0.965576
0.027789 0.156222 0.035788 -0.824161 -0.504511 -0.257346
0.031580 0.160011 0.763569 -0.974973 0.222325 -0.000408
0.034399 0.194501 0.378597 -0.182321 0.978041 0.100966
0.036680 0.164386 0.792663 0.996814 0.079741 -0.001698
0.027800 0.290598 0.265870 -0.904700 0.019537 0.425602
0.035430 0.155003 0.227075 0.119623 -0.975076 -0.186859
0.031122 0.172944 0.070979 -0.650878 0.756706 -0.061264
0.034407 0.136861 0.323027 -0.184842 -0.856324 0.482226
0.032245 0.168062 0.840890 -0.994116 -0.108147 -0.006053
0.036113 0.143278 0.314710 0.960595 -0.277902 0.005364
0.036660 0.181616 0.656335 0.971978 0.235041 0.003927
0.036043 0.160092 0.930904 0.995784 -0.084178 0.036444
0.032072 0.183766 0.426965 -0.973913 0.226718 0.009567
0.037663 0.171641 0.267952 0.975891 -0.211864 0.052447
0.043697 0.165075 0.179290 0.997891 -0.064731 0.004765
0.031709 0.150535 0.475158 -0.974072 -0.225918 0.012012
0.032189 0.168119 0.412526 -0.994259 -0.106993 0.000796
0.036033 0.172837 0.054362 0.282521 0.950751 0.127490
0.032900 0.143054 0.279419 -0.958730 -0.283441 0.022337
0.026054 0.163344 0.213887 -0.984382 -0.174582 0.022646
0.031566 0.154970 0.737503 -0.974745 -0.223276 0.004497
0.035219 0.192932 0.292178 0.921649 0.383682 0.057884
0.032322 0.063859 0.249413 -0.671722 -0.050864 -0.739055
0.032328 0.163814 0.768399 -0.994357 0.106084 -0.000717
0.037923 0.176654 0.647539 0.984239 0.176805 0.003693
0.033198 0.294596 0.243399 -0.127964 0.164139 -0.978102
0.037016 0.169950 0.748643 0.985037 -0.172344 -0.000559
0.030957 0.173687 0.474438 -0.966304 -0.257398 0.001914
0.041620 0.122188 0.261991 0.859122 -0.040541 0.510162
0.030471 0.155634 0.467127 -0.993907 -0.109252 0.014580
0.037816 0.159678 0.300158 0.973847 0.226009 0.023294
0.031153 0.158741 0.554255 -0.968784 0.247902 0.001273
0.033477 0.144371 0.558616 -0.947767 -0.318921 0.005145
0.031486 0.180130 0.505805 -0.974350 0.224377 0.017217
0.032168 0.162741 0.781458 -0.988873 0.148757 -0.000736
0.035899 0.177429 0.916501 0.989597 0.140564 0.030655
0.037505 0.182114 0.376438 0.974804 0.222194 0.019701
0.038292 0.156308 0.611795 0.995280 -0.096992 0.003087
0.035640 0.189968 0.397660 0.949820 0.312766 0.004342
0.032156 0.185369 0.312526 -0.974562 0.224065 0.004988
0.032307 0.168423 0.785516 -0.993108 -0.117200 -0.000913
0.033180 0.218318 0.241302 -0.044621 0.179138 -0.982812
0.029590 0.151798 0.042508 -0.672330 -0.730683 0.118637
0.043082 0.163359 0.209989 0.984684 -0.172767 0.023442
0.033069 0.155647 0.918228 -0.991229 -0.128251 0.031889
0.028944 0.246370 0.254153 -0.999152 0.032878 -0.024773
0.038015 0.152997 0.448316 0.975579 -0.218991 0.016964
0.028226 0.171360 0.261991 -0.879200 0.067458 0.471654
0.033919 0.140481 0.435975 -0.894752 -0.446512 0.006729
0.033043 0.152044 0.874101 -0.970362 -0.241559 0.006834
0.044047 0.189045 0.247296 0.964445 0.138764 -0.224921
0.034325 0.188082 0.733606 -0.366076 0.930436 0.016669
0.034599 0.192914 0.486421 0.111195 0.992425 0.052233
0.038186 0.157615 0.621105 0.984630 0.174645 0.001531
0.034477 0.136501 0.318629 -0.068975 -0.804041 0.590560
0.036208 0.143750 0.320608 0.963030 -0.269372 0.003321
0.025380 0.164897 0.164502 -0.997571 -0.069265 -0.007423
0.031523 0.179975 0.529468 -0.974313 0.224815 0.013151
0.035072 0.138636 0.310987 0.812071 -0.578474 0.076867
0.037300 0.180626 0.550094 0.973781 0.227288 0.009502
0.032402 0.167294 0.693075 -0.998048 -0.062454 -0.000347
0.034588 0.114142 0.241228 -0.161015 -0.188962 -0.968694
0.034528 0.140078 0.560382 0.006012 -0.999644 0.025985
0.037387 0.167658 0.895781 0.999522 0.024454 0.018935
0.030009 0.174875 0.113579 -0.666359 0.744540 -0.040313
0.032324 0.168108 0.702668 -0.994805 -0.101802 -0.000343
0.032329 0.168113 0.726144 -0.994778 -0.102057 -0.000468
0.035034 0.132745 0.261991 0.086413 -0.333852 0.938656
0.037954 0.158619 0.522406 0.967778 0.251802 0.001414
0.032897 0.181325 0.794718 -0.969458 0.245210 0.004906
0.037489 0.151325 0.485526 0.974292 -0.224894 0.013325
0.034718 0.173279 0.056557 0.024201 0.996873 0.075222
0.038348 0.157141 0.606230 0.999037 0.043829 0.002244
0.031419 0.154661 0.679711 -0.974931 -0.222469 0.004094
0.033872 0.190173 0.506044 -0.936529 0.350546 0.005480
0.028674 0.158897 0.109563 -0.823934 -0.565237 -0.040497
0.042494 0.168661 0.117641 0.978444 0.203857 -0.033011
0.030831 0.178090 0.454198 -0.980183 0.196355 0.026190
0.031173 0.173503 0.746180 -0.972488 -0.232953 0.000139
0.031538 0.171819 0.528045 -0.971945 -0.235205 0.000920
0.035287 0.187973 0.609701 0.939740 0.341841 0.005753
0.034336 0.189747 0.641809 -0.331568 0.943291 0.016286
0.032357 0.167877 0.765483 -0.995882 -0.090658 -0.000749
0.036157 0.143457 0.313321 0.961722 -0.273995 0.004185
0.031327 0.156277 0.760331 -0.985964 -0.166901 0.004355
0.031724 0.150721 0.491779 -0.973898 -0.226661 0.012126
0.036592 0.165376 0.635749 0.999535 0.030478 -0.000060
0.036659 0.165948 0.360099 0.999995 0.002877 0.001175
0.031907 0.183636 0.384374 -0.974410 0.224456 0.012014
0.031982 0.162111 0.812851 -0.984578 0.174929 -0.002542
0.037600 0.179499 0.542320 0.974530 0.223994 0.010836
0.035589 0.185056 0.706645 0.948826 0.315750 0.005591
0.038556 0.180189 0.042677 0.628892 0.765578 0.135591
0.034155 0.147753 0.890046 -0.813376 -0.581503 0.016544
0.043318 0.122146 0.243494 0.856689 -0.128027 -0.499693
0.035352 0.141229 0.423461 0.942015 -0.335535 0.004845
0.036860 0.163512 0.473447 0.992306 0.123809 0.000635
0.034658 0.191204 0.571089 0.223383 0.974594 0.016340
0.026687 0.189148 0.261991 -0.880902 0.072107 0.467773
0.026281 0.162192 0.136298 -0.968341 -0.247973 -0.028706
0.036808 0.152030 0.718920 0.972238 -0.233956 0.004185
0.037929 0.158343 0.727591 0.976273 0.216542 0.000482
0.036881 0.167773 0.292564 0.996431 -0.084175 0.006250
0.031777 0.170873 0.892939 -0.994229 0.103658 0.027619
0.033569 0.188561 0.523958 -0.944892 0.327342 0.005172
0.032406 0.148068 0.511459 -0.972651 -0.232235 0.004007
0.027800 0.031162 0.255669 -0.854739 -0.499326 -0.141755
0.025275 0.183569 0.261991 -0.893064 0.043701 0.447802
0.031181 0.158541 0.828277 -0.998679 -0.051114 0.005180
0.033356 0.185021 0.684941 -0.951664 0.307095 0.005349
0.042848 0.161299 0.152420 0.951715 -0.306559 -0.016106
0.033606 0.142114 0.453526 -0.944271 -0.329133 0.004876
0.037822 0.173223 0.669562 0.971329 -0.237740 0.000364
0.035693 0.149345 0.817658 0.962558 -0.271013 0.005813
0.036076 0.148932 0.709957 0.963547 -0.267498 0.004725
0.042643 0.168093 0.228488 0.985328 0.131796 -0.108440
0.031762 0.151847 0.589797 -0.973761 -0.227544 0.003546
0.044047 0.143364 0.259042 0.965334 -0.011210 0.260778
0.041000 0.096049 0.258547 0.978521 -0.029204 0.204068
0.040578 0.157412 0.139974 0.789067 -0.613724 -0.026749
0.036680 0.152637 0.787703 0.972275 -0.233792 0.004779
0.034175 0.142740 0.631727 -0.635587 -0.771914 0.013316
0.036756 0.164510 0.464184 0.997301 0.073419 0.000543
0.027209 0.171861 0.220634 -0.911381 0.411391 -0.011900
0.035434 0.145676 0.669644 0.944239 -0.329212 0.005720
0.037105 0.162534 0.868561 0.985671 0.168552 -0.006618
0.037151 0.150163 0.504003 0.973522 -0.228354 0.010501
0.037507 0.151354 0.482001 0.974336 -0.224682 0.013670
0.032378 0.167335 0.608832 -0.997921 -0.064445 0.000119
0.042479 0.162913 0.120215 0.973054 -0.228279 -0.032484
0.032208 0.164649 0.282334 -0.997928 0.064074 0.005772
0.031066 0.157811 0.789090 -0.998248 -0.059036 0.004054
0.026528 0.163981 0.232618 -0.965334 -0.115814 -0.233917
0.033272 0.178427 0.915585 -0.986645 0.160098 0.029995
0.035851 0.188531 0.428905 0.954976 0.296652 0.004216
0.032419 0.166471 0.506229 -0.999746 -0.022531 0.000371
0.032829 0.177315 0.905336 -0.988908 0.146778 0.022756
0.035082 0.144774 0.700304 0.921391 -0.388576 0.006921
0.033532 0.140725 0.324534 -0.942445 -0.333319 0.026378
0.031965 0.169796 0.459697 -0.984101 -0.177606 0.000788
0.035552 0.174887 0.935055 0.992624 0.115025 0.038302
0.034107 0.148901 0.911029 -0.910218 -0.412407 0.037729
0.025000 0.142332 0.247310 -0.960099 -0.086171 -0.266053
0.035103 0.192500 0.381327 0.867458 0.496727 0.027910
0.035998 0.189434 0.296354 0.955714 0.293620 0.019964
0.037120 0.182690 0.456565 0.973829 0.226880 0.013529
0.036047 0.179947 0.867466 0.970679 0.240289 0.006660
0.032561 0.177757 0.197056 -0.281630 0.959283 0.021462
0.035321 0.143722 0.583512 0.940772 -0.338994 0.005607
0.033366 0.054439 0.250946 -0.461810 -0.040614 -0.886048
0.027800 0.049758 0.267596 -0.723669 0.475908 0.499814
0.032786 0.181892 0.737802 -0.969137 0.246482 0.004457
0.031640 0.179468 0.034294 0.079199 0.937059 -0.340071
0.027789 0.177354 0.044947 -0.983445 0.153395 -0.096463
0.030205 0.260648 0.254085 -0.997790 0.019453 -0.063534
0.035221 0.141586 0.478945 0.938017 -0.346550 0.005287
0.033533 0.170103 0.947961 -0.996177 0.076219 0.042681
0.033581 0.174530 0.938414 -0.992818 0.112750 0.039996
0.032047 0.168746 0.278080 -0.989989 -0.141014 0.006055
0.032924 0.172255 0.928016 -0.995648 0.086159 0.035530
0.039353 0.173353 0.094776 0.754603 0.654318 -0.049428
0.040289 0.157144 0.208219 0.750564 -0.660322 0.025078
0.041246 0.287438 0.251460 0.848261 -0.112170 -0.517563
0.037182 0.153319 0.706883 0.973517 -0.228576 0.004188
0.037428 0.160208 0.698885 0.973886 0.227036 -0.000179
0.031049 0.153371 0.482747 -0.975569 -0.219297 0.013170
0.036858 0.168878 0.539437 0.990099 -0.140372 0.000540
0.038578 0.153768 0.275289 0.975601 -0.190502 0.109139
0.037362 0.170881 0.432520 0.977228 -0.212181 0.002111
0.042892 0.117304 0.251922 0.988730 -0.086326 -0.122313
0.031389 0.159312 0.710627 -0.972743 0.231885 0.000083
0.032273 0.168419 0.623427 -0.993151 -0.116835 0.000093
0.037997 0.156761 0.719426 0.993907 -0.110159 0.003754
0.037026 0.178698 0.746435 0.973186 0.229976 0.004450
0.035232 0.141824 0.490215 0.938280 -0.345836 0.005327
0.030802 0.152921 0.354144 -0.975870 -0.217330 0.021081
0.030211 0.155783 0.392786 -0.996314 -0.083016 0.021606
0.034085 0.193021 0.389812 -0.716995 0.695376 0.048675
0.025000 0.194616 0.243848 -0.941318 0.076973 -0.328628
0.041969 0.155020 0.261991 0.903358 0.018300 0.428497
0.038660 0.155798 0.452256 0.995223 -0.096219 0.016517
0.030503 0.263553 0.258027 -0.988673 -0.014813 0.149354
0.033930 0.146055 0.766041 -0.934461 -0.356005 0.006570
0.034971 0.112871 0.261991 0.142518 -0.036059 0.989135
0.032088 0.162657 0.503662 -0.986899 0.161337 0.000817
0.032431 0.164972 0.763051 -0.998745 0.050070 -0.000867
0.038058 0.123227 0.239750 0.314766 -0.199450 -0.927977
0.032434 0.165063 0.704935 -0.998957 0.045659 -0.000484
0.028300 0.157682 0.137385 -0.814339 -0.579724 -0.027771
0.038789 0.177133 0.296738 0.932623 0.140699 0.332292
0.037324 0.148579 0.313961 0.974756 -0.223076 0.009353
0.033642 0.178177 0.163569 -0.124759 0.992131 -0.010593
0.031936 0.162415 0.861440 -0.984983 0.172550 -0.005852
0.035140 0.139842 0.395309 0.897908 -0.439964 0.013872
0.041246 0.303195 0.262661 0.832896 0.519206 0.191598
0.044047 0.162359 0.245406 0.930367 0.035673 -0.364890
0.041597 0.102796 0.261458 0.870147 -0.009512 0.492701
0.037913 0.176254 0.675656 0.986241 0.165269 0.003844
0.031098 0.152780 0.452575 -0.975431 -0.219722 0.016010
0.035463 0.140890 0.362046 0.944254 -0.329092 0.009078
0.035400 0.177233 0.127678 0.134051 0.990171 -0.039907
0.033957 0.148601 0.889661 -0.949961 -0.312182 0.010783
0.031631 0.148967 0.312360 -0.974811 -0.222802 0.010142
0.030255 0.156374 0.429898 -0.999641 -0.021635 0.015808
0.033837 0.147610 0.825813 -0.949991 -0.312206 0.006734
0.032073 0.162280 0.722259 -0.986160 0.165799 -0.000416
0.031835 0.161092 0.740139 -0.978906 0.204311 -0.000509
0.042035 0.107583 0.249211 0.958468 -0.086124 -0.271884
0.041246 0.285711 0.247555 0.641809 -0.369812 -0.671804
0.032399 0.165761 0.841877 -0.999873 0.013568 -0.008392
0.031003 0.157924 0.750976 -0.999578 0.028913 0.002841
0.031701 0.171190 0.544736 -0.976557 -0.215258 0.000543
0.027800 0.285428 0.247381 -0.772636 -0.328518 -0.543240
0.038000 0.173810 0.652149 0.970356 -0.241678 0.000549
0.034694 0.194955 0.318425 0.282149 0.843502 0.457052
0.031794 0.178205 0.720201 -0.973844 0.227179 0.004308
0.027006 0.107645 0.255986 -0.996832 -0.060834 -0.051243
0.032706 0.183580 0.615291 -0.968290 0.249798 0.004015
0.033767 0.139784 0.334182 -0.934974 -0.353309 0.031575
0.028719 0.164722 0.064891 -0.993615 -0.106336 -0.037719
0.032660 0.174401 0.913121 -0.993787 0.107135 0.030166
0.033607 0.154636 0.929827 -0.987117 -0.155294 0.038515
0.025970 0.130399 0.261991 -0.898196 -0.043874 0.437400
0.028810 0.178658 0.032338 -0.183457 0.878428 -0.441257
0.037318 0.151471 0.551324 0.973868 -0.227011 0.006873
0.034044 0.188816 0.627113 -0.821849 0.569620 0.009839
0.032615 0.291167 0.243278 -0.258462 -0.063823 -0.963911
0.044047 0.145123 0.260709 0.941412 -0.017654 0.336796
0.025000 0.188235 0.246198 -0.970224 0.066065 -0.233024
0.028962 0.167435 0.060584 -0.992909 0.115239 -0.029194
0.025000 0.190609 0.257679 -0.954722 0.057921 0.291805
0.036749 0.163654 0.698842 0.993509 0.113757 -0.000311
0.037297 0.167428 0.887134 0.989859 -0.126130 -0.065346
0.036051 0.181460 0.806219 0.968587 0.248620 0.005220
0.033363 0.186913 0.576276 -0.951304 0.308213 0.004994
0.044047 0.187705 0.256384 0.965494 0.077027 0.248774
0.038442 0.178869 0.272182 0.974640 0.208639 0.080915
0.033415 0.142713 0.440125 -0.949375 -0.314111 0.004562
0.036483 0.181181 0.726419 0.971336 0.237673 0.004258
0.034742 0.157115 0.079963 0.044814 -0.996824 -0.065833
0.033165 0.143197 0.404167 -0.955834 -0.293879 0.004055
0.038286 0.178344 0.412375 0.979828 0.197111 0.032916
0.042359 0.214745 0.240720 0.777501 0.163182 -0.607341
0.037059 0.148241 0.402452 0.974310 -0.225088 0.007444
0.036989 0.184328 0.378907 0.974182 0.225609 0.008403
0.034180 0.141314 0.550371 -0.609300 -0.792831 0.013129
0.037041 0.177085 0.214506 0.369469 0.928816 0.028174
0.032257 0.181104 0.655311 -0.972320 0.233618 0.003904
0.031121 0.176228 0.049980 -0.546676 0.550855 0.630638
0.031112 0.158830 0.467392 -0.966485 0.256707 0.002832
0.033716 0.189530 0.504034 -0.940968 0.338455 0.005267
0.034903 0.147671 0.885836 0.836249 -0.548136 0.015326
0.044047 0.142010 0.255880 0.993025 -0.020008 0.116197
0.034516 0.144571 0.811030 -0.012752 -0.999728 0.019519
0.037561 0.172172 0.804492 0.975787 -0.218718 -0.001537
0.038320 0.155143 0.513309 0.988890 -0.148274 0.010551
0.041258 0.165146 0.047518 0.963013 0.002703 0.269442
0.035314 0.188233 0.588421 0.940545 0.339621 0.005636
0.041246 0.295087 0.243925 0.696806 0.094264 -0.711039
0.031044 0.173727 0.585071 -0.969108 -0.246634 0.000793
0.037130 0.170393 0.631555 0.982109 -0.188311 0.000106
0.034304 0.139743 0.488065 -0.353633 -0.934807 0.032870
0.036430 0.182636 0.651542 0.971369 0.237542 0.003941
0.037992 0.152852 0.444455 0.975519 -0.219230 0.017343
0.033941 0.179903 0.927380 -0.968808 0.243623 0.045386
0.032115 0.177096 0.837341 -0.974641 0.223673 0.006753
0.041258 0.176014 0.048559 0.898749 0.294215 0.325095
0.034453 0.137199 0.371594 -0.098827 -0.983335 0.152597
0.032455 0.145652 0.347263 -0.971178 -0.238336 0.002900
0.037464 0.183051 0.288024 0.974884 0.222094 0.016604
0.043174 0.165459 0.214911 0.999171 -0.035985 0.019010
0.037378 0.160915 0.473591 0.976310 0.216376 0.001115
0.037081 0.170100 0.584797 0.983757 -0.179506 0.000368
0.037069 0.169820 0.493477 0.984329 -0.176341 0.000895
0.037642 0.172247 0.828161 0.976405 -0.215929 -0.002769
0.025973 0.165123 0.217382 -0.998264 -0.058350 0.008058
0.031147 0.158467 0.709127 -0.971743 0.236043 0.000284
0.031955 0.161689 0.716077 -0.982635 0.185549 -0.000383
0.036081 0.183423 0.687485 0.963125 0.269014 0.004661
0.037244 0.050494 0.267256 0.007699 0.654381 0.756126
0.031865 0.162164 0.311755 -0.985117 0.171582 0.010236
0.031905 0.184371 0.299752 -0.974734 0.223141 0.010137
0.038246 0.152284 0.272486 0.975392 -0.219546 0.020244
0.027789 0.174400 0.036201 -0.858795 0.255542 -0.444038
0.038041 0.053695 0.254008 0.999657 0.025208 -0.007053
0.032590 0.187525 0.284695 -0.967754 0.251823 0.006026
0.033224 0.131587 0.238579 -0.162401 -0.237530 -0.957708
0.032694 0.146351 0.475837 -0.966903 -0.255118 0.003670
0.037163 0.184262 0.301710 0.974726 0.223158 0.010495
0.032495 0.172868 0.914205 -0.995543 0.088876 0.031547
0.031407 0.154838 0.688034 -0.975021 -0.222074 0.004161
0.034717 0.140885 0.561338 0.330348 -0.943728 0.015758
0.038112 0.173844 0.500268 0.966802 -0.255517 0.002240
0.037071 0.306122 0.252984 0.514044 0.803830 -0.299360
0.036566 0.177147 0.130518 0.296732 0.954239 -0.037127
0.025000 0.131317 0.239198 -0.769551 -0.156800 -0.619035
0.025998 0.212925 0.257173 -0.969274 0.064881 0.237272
0.036449 0.185742 0.443382 0.968673 0.248315 0.003440
0.031958 0.169959 0.513596 -0.983778 -0.179388 0.000606
0.037403 0.171089 0.443284 0.975975 -0.217871 0.002095
0.036914 0.153368 0.778688 0.972975 -0.230865 0.004667
0.034858 0.137965 0.335309 0.522987 -0.846184 0.102256
0.037908 0.152310 0.428953 0.975297 -0.220090 0.018865
0.032258 0.163387 0.644430 -0.991948 0.126646 -0.000009
0.037162 0.162176 0.346890 0.982988 0.183635 0.003639
0.044047 0.152967 0.242342 0.860363 -0.028531 -0.508883
0.037013 0.150686 0.586618 0.973071 -0.230477 0.003573
0.037887 0.178166 0.554690 0.975264 0.220871 0.008763
0.044047 0.199523 0.239414 0.818805 0.181655 -0.544573
0.034093 0.146270 0.811645 -0.836749 -0.547469 0.011376
0.038823 0.175625 0.123711 0.615168 0.787560 -0.036289
0.034092 0.147436 0.867379 -0.888098 -0.459526 0.010848
0.034170 0.189110 0.639524 -0.644583 0.764420 0.013245
0.034378 0.141580 0.613094 -0.249219 -0.968307 0.016505
0.036869 0.169160 0.591916 0.988626 -0.150398 0.000292
0.042282 0.162016 0.226632 0.960988 -0.270968 -0.055477
0.038351 0.177658 0.442787 0.984891 0.170920 0.027845
0.034744 0.138598 0.422121 0.356135 -0.931998 0.067434
0.030244 0.155098 0.170590 -0.576549 -0.817062 -0.000498
0.038384 0.153371 0.333513 0.976781 -0.206576 0.056782
0.034549 0.192771 0.507056 0.035931 0.998211 0.047795
0.027447 0.229379 0.254318 -0.997591 0.051028 0.046997
0.031046 0.158144 0.692345 -0.976274 0.216536 0.000701
0.027279 0.104542 0.249973 -0.917564 -0.092062 -0.386784
0.030443 0.155779 0.469893 -0.994859 -0.100257 0.014271
0.034568 0.191148 0.595576 0.071214 0.997318 0.016878
0.041096 0.235093 0.253774 0.977936 0.078976 -0.193399
0.031552 0.171955 0.584496 -0.971713 -0.236166 0.000432
0.044047 0.185496 0.254602 0.984263 0.086205 0.154253
0.035445 0.190144 0.437610 0.944467 0.328572 0.004793
0.036749 0.148920 0.537274 0.972584 -0.232475 0.005900
0.025385 0.192600 0.261991 -0.888099 0.058752 0.455882
0.037258 0.179092 0.661202 0.973524 0.228551 0.003860
0.031013 0.154087 0.525962 -0.977966 -0.208564 0.009108
0.035788 0.188544 0.444662 0.953324 0.301917 0.004377
0.041246 0.037051 0.269204 0.646787 -0.252146 0.719784
0.026972 0.159974 0.209967 -0.910638 -0.412489 0.024300
0.031612 0.148853 0.290450 -0.974988 -0.222027 0.010102
0.036074 0.181785 0.787667 0.966685 0.255921 0.004943
0.037663 0.172239 0.467579 0.967949 -0.251132 0.002603
0.027432 0.158487 0.192806 -0.853246 -0.521292 0.015036
0.029615 0.253984 0.247307 -0.940641 0.029166 -0.338146
0.033777 0.183885 0.839378 -0.955049 0.296371 0.006711
0.036260 0.144693 0.395859 0.964556 -0.263856 0.003512
0.037713 0.172973 0.864998 0.998190 0.059778 0.006628
0.028558 0.173100 0.237463 -0.750686 0.538045 -0.383378
0.037071 0.162677 0.865459 0.986662 0.162648 -0.006565
0.032452 0.175104 0.902965 -0.992530 0.119743 0.023344
0.033672 0.150063 0.895213 -0.957504 -0.288206 0.011106
0.035031 0.147540 0.856570 0.946061 -0.323899 0.007618
0.030962 0.158797 0.300654 -0.968228 0.243655 0.056267
0.031437 0.160378 0.339025 -0.973567 0.227692 0.017981
0.029447 0.300887 0.245967 -0.339459 0.590052 -0.732534
0.030536 0.154319 0.385275 -0.986339 -0.160092 0.038795
0.033453 0.149298 0.834398 -0.963309 -0.268325 0.006093
0.032489 0.149026 0.598743 -0.971848 -0.235580 0.003692
0.036720 0.148596 0.523862 0.972664 -0.232158 0.005286
0.030070 0.207970 0.261991 -0.642401 0.081706 0.762000
0.034942 0.144841 0.736008 0.792180 -0.610188 0.010998
0.035274 0.145710 0.709179 0.939397 -0.342777 0.006118
0.037109 0.177995 0.770666 0.973626 0.228102 0.004655
0.044047 0.190885 0.245045 0.931185 0.152048 -0.331323
0.038022 0.157640 0.090778 0.591629 -0.804447 -0.053301
0.031127 0.181240 0.265036 -0.975058 0.220404 0.026164
0.026644 0.160025 0.197035 -0.917983 -0.396254 0.017040
0.041728 0.160784 0.231652 0.905205 -0.336480 -0.259584
0.037941 0.173628 0.666482 0.970833 -0.239757 0.000459
0.031731 0.171280 0.669040 -0.976521 -0.215421 -0.000080
0.040589 0.164806 0.069673 0.993247 -0.104803 -0.049772
0.032043 0.162319 0.560723 -0.985727 0.168350 0.000495
0.025929 0.119868 0.246829 -0.906058 -0.124402 -0.404454
0.036125 0.148116 0.648107 0.963335 -0.268264 0.004485
0.036673 0.165299 0.835036 0.999210 0.039212 -0.006486
0.034536 0.192422 0.530307 0.017192 0.999107 0.038605
0.034345 0.160344 0.960993 -0.974185 -0.205618 0.093191
0.036762 0.165254 0.296704 0.999265 0.038273 0.002359
0.032286 0.154664 0.853857 -0.974502 -0.224259 0.007313
0.029268 0.300105 0.270040 -0.507417 0.400799 0.762816
0.032122 0.168214 0.304946 -0.993548 -0.113346 0.003935
0.034755 0.188678 0.691907 0.417806 0.908394 0.016064
0.031652 0.153106 0.638886 -0.973927 -0.226833 0.003743
0.040151 0.245475 0.258742 0.971499 -0.053537 0.230919
0.036632 0.181195 0.688750 0.971825 0.235670 0.004072
0.031607 0.151944 0.549383 -0.974179 -0.225670 0.006915
0.034717 0.144138 0.746803 0.366147 -0.930407 0.016724
0.036966 0.103941 0.242889 0.014669 -0.163159 -0.986491
0.030225 0.173388 0.087973 -0.709239 0.702940 -0.053433
0.034966 0.153764 0.182972 0.063198 -0.997948 0.010257
0.034006 0.145702 0.763369 -0.906864 -0.421351 0.007734
0.030768 0.157789 0.456681 -0.965513 0.260341 0.002794
0.025305 0.166593 0.175012 -0.999324 0.036728 0.001540
0.040863 0.025232 0.259467 -0.022456 -0.997444 0.067834
