0.876042 0.090997 0.434582 -0.976435 -0.117986 -0.180704
0.837040 0.381250 0.243006 -0.046787 0.998061 0.041059
0.648973 0.361458 0.423935 0.033661 -0.995836 0.084720
0.556719 0.361458 0.271841 0.011483 -0.999934 0.000548
0.093368 0.284547 0.401043 0.500800 0.164529 -0.849782
0.962742 0.076138 0.123960 0.277290 -0.187024 0.942408
0.432040 0.361458 0.422724 -0.001219 -0.995882 0.090655
0.123958 0.311779 0.074732 0.959860 0.218433 0.175943
0.876042 0.372086 0.054315 -0.839217 0.335988 -0.427582
0.882679 0.381250 0.031467 -0.015869 0.993075 -0.116409
0.596302 0.361458 0.449923 0.021132 -0.993333 0.113325
0.084631 0.038185 0.480210 -0.648096 -0.213027 0.731158
0.769456 0.381250 0.315834 -0.041901 0.999117 0.003206
0.922331 0.188828 0.440627 0.999310 -0.009047 0.036015
0.791619 0.381250 0.126625 -0.032215 0.995757 0.086201
0.846890 0.381250 0.205317 -0.045641 0.997265 0.058133
0.530657 0.381250 0.219327 -0.000566 0.999785 0.020738
0.190641 0.381250 0.435288 0.068041 0.997518 -0.018132
0.895833 0.163859 0.445216 -0.573641 -0.086024 0.814577
0.755707 0.361458 0.491597 0.047492 -0.986553 0.156386
0.115765 0.361458 0.330376 -0.063158 -0.996678 0.051418
0.967359 0.361458 0.381428 0.209266 -0.977593 -0.022802
0.298469 0.361458 0.158052 -0.039854 -0.998120 -0.046556
0.123958 0.239475 0.434304 0.949012 0.077083 -0.305671
0.950230 0.260553 0.123960 0.101343 0.108044 0.988967
0.360672 0.361458 0.235132 -0.024269 -0.999662 -0.009308
0.055826 0.381250 0.188373 -0.004243 0.996067 0.088498
0.955208 0.103069 0.091556 0.900826 -0.161340 -0.403092
0.123958 0.250540 0.039014 0.938880 0.083838 -0.333880
0.915625 0.347835 0.082999 0.282058 0.184680 -0.941454
0.029261 0.144357 0.401043 -0.323439 -0.090619 -0.941900
0.318557 0.381250 0.431135 0.029088 0.999511 -0.011482
0.929952 0.352713 0.420835 0.807872 0.213305 -0.549403
0.865314 0.361458 0.220366 0.065128 -0.996673 -0.049014
0.876042 0.353753 0.115752 -0.897227 0.218760 0.383572
0.898546 0.334015 0.104169 -0.076703 0.271154 -0.959475
0.427503 0.381250 0.116003 0.011031 0.999263 0.036762
0.123958 0.205982 0.484971 0.965036 0.060745 0.254982
0.896110 0.148216 0.104169 0.946403 -0.145238 -0.288492
0.082215 0.308423 0.064584 0.569179 0.121636 -0.813166
0.619696 0.361458 0.293136 0.023747 -0.999683 0.008401
0.912491 0.296040 0.420835 0.875173 0.165803 -0.454513
0.066572 0.358920 0.420834 -0.508557 0.499168 -0.701571
0.897913 0.381250 0.278934 -0.022501 0.999713 0.008255
0.102424 0.074658 0.044793 0.659527 -0.164902 -0.733370
0.104167 0.349636 0.442838 -0.264510 0.291805 0.919176
0.857219 0.361458 0.369053 0.069651 -0.996942 0.035441
0.123958 0.369845 0.066676 0.428718 -0.554777 -0.713039
0.968254 0.360882 0.420835 0.284649 0.201071 0.937307
0.410174 0.361458 0.047363 -0.050118 -0.985732 -0.160690
0.927107 0.345980 0.440627 0.972534 0.160084 -0.168968
0.362838 0.361458 0.123006 -0.031999 -0.996951 -0.071161
0.936654 0.055071 0.123960 0.047954 -0.201689 0.978275
0.915625 0.188153 0.463446 0.943188 -0.003435 0.332242
0.572269 0.381250 0.080889 -0.043063 0.999056 0.005787
0.314590 0.361458 0.325509 -0.023292 -0.999114 0.035040
0.947346 0.105578 0.420835 0.510464 -0.128920 -0.850180
0.912279 0.099371 0.420835 -0.126951 -0.174789 0.976387
0.076665 0.353431 0.440627 -0.260415 0.188622 0.946893
0.419955 0.381250 0.256078 0.011679 0.999926 -0.003458
0.609230 0.361458 0.283718 0.021471 -0.999762 0.003772
0.881279 0.057054 0.401044 -0.824640 -0.139766 -0.548119
0.238022 0.381250 0.103101 0.030511 0.999528 -0.003483
0.918277 0.350140 0.104169 0.332922 0.772719 -0.540433
0.104167 0.102823 0.470092 0.841477 -0.131465 0.524055
0.410607 0.381250 0.484638 0.085447 0.994650 0.058049
0.042698 0.041208 0.104169 -0.314964 -0.247580 -0.916243
0.958996 0.361458 0.342701 0.185977 -0.982226 -0.025398
0.912545 0.262869 0.420835 0.885578 0.127816 -0.446559
0.895833 0.249232 0.491787 0.936796 0.084832 0.339436
0.123958 0.211461 0.072805 0.998247 0.059010 -0.004574
0.082700 0.097366 0.104169 -0.827105 -0.542021 -0.148698
0.876042 0.167729 0.428294 -0.952185 -0.001547 -0.305518
0.102107 0.234372 0.044792 0.775642 0.055093 -0.628763
0.678137 0.361458 0.206097 0.030754 -0.998527 -0.044698
0.103422 0.361458 0.209386 -0.086003 -0.996289 0.003311
0.139588 0.361458 0.334637 -0.050681 -0.997696 0.045108
0.291697 0.361458 0.339661 -0.025668 -0.998767 0.042490
0.641016 0.381250 0.471722 0.007082 0.997945 0.063690
0.975000 0.372407 0.352049 0.996947 0.043476 -0.064856
0.930627 0.170506 0.064585 0.372125 -0.051417 -0.926758
0.282850 0.381250 0.288676 0.024427 0.999464 -0.021812
0.062836 0.191820 0.104168 -0.665815 -0.004605 0.746103
0.468751 0.381250 0.203930 0.009502 0.999731 0.021164
0.400962 0.361458 0.170061 -0.020863 -0.998695 -0.046620
0.630253 0.381250 0.067030 -0.064528 0.997895 -0.006381
0.104167 0.343600 0.477298 -0.876574 0.213147 0.431492
0.941042 0.361458 0.137629 0.118917 -0.989349 -0.083953
0.408235 0.381250 0.446685 0.029353 0.999467 0.014320
0.224820 0.381250 0.195791 0.043514 0.999044 0.004118
0.195680 0.381250 0.169895 0.050420 0.998672 0.010579
0.081023 0.381250 0.213579 0.014295 0.998686 0.049206
0.123958 0.245565 0.074732 0.991235 0.110115 0.072995
0.744124 0.381250 0.120844 -0.030552 0.996758 0.074436
0.108861 0.134804 0.123960 0.671718 -0.051487 0.739016
0.549696 0.381250 0.393745 -0.022039 0.998984 -0.039301
0.891526 0.133475 0.500002 0.815822 -0.130193 0.563457
0.709580 0.381250 0.143933 -0.021481 0.997264 0.070731
0.546070 0.361458 0.086433 -0.025437 -0.993606 -0.110005
0.123958 0.307748 0.401651 0.831029 0.169303 -0.529837
0.935417 0.077253 0.069048 0.740981 -0.162066 -0.651676
0.096879 0.230051 0.420835 -0.836127 0.091281 0.540887
0.781222 0.361458 0.303202 0.053354 -0.998570 0.003353
0.293088 0.381250 0.365225 0.013316 0.998882 -0.045369
0.071088 0.324880 0.104167 -0.801937 0.181060 0.569310
0.629661 0.361458 0.078343 -0.016200 -0.992467 -0.121436
0.876042 0.094439 0.076376 -0.915516 -0.117299 0.384801
0.194380 0.361458 0.163292 -0.057764 -0.997616 -0.037759
0.099423 0.227264 0.123960 0.442331 0.063908 0.894572
0.922299 0.307298 0.440627 0.986473 0.137091 -0.089872
0.886666 0.198177 0.500002 0.119082 -0.019527 0.992692
0.557312 0.361458 0.117404 -0.000934 -0.996104 -0.088186
0.915625 0.228679 0.451538 -0.368377 0.013615 0.929577
0.286020 0.381250 0.293235 0.023449 0.999459 -0.023066
0.953690 0.025956 0.433148 0.381876 -0.892931 -0.238421
0.925362 0.282918 0.123960 -0.233662 0.160604 0.958962
0.939992 0.068354 0.401044 -0.255177 -0.156186 -0.954196
0.895833 0.197566 0.054860 -0.789123 -0.005317 -0.614212
0.930919 0.088178 0.084377 0.944386 -0.122783 0.305057
0.742688 0.361458 0.462764 0.042791 -0.991646 0.121688
0.123958 0.371164 0.057213 0.951097 0.306608 -0.037495
0.284948 0.381250 0.459264 0.079766 0.996656 0.017748
0.223452 0.361458 0.032365 -0.067648 -0.979649 -0.188977
0.921351 0.381250 0.090042 0.042173 0.993440 -0.106295
0.417174 0.361458 0.182602 -0.017422 -0.999023 -0.040621
0.088161 0.043899 0.420835 -0.891975 -0.240629 -0.382724
0.128986 0.361458 0.367816 -0.049269 -0.996915 0.061107
0.084375 0.355350 0.467962 -0.793927 0.177019 0.581674
0.075496 0.177828 0.104168 -0.035528 -0.066034 -0.997185
0.073910 0.361458 0.237972 -0.110871 -0.993082 0.038675
0.104167 0.054502 0.071931 -0.486899 -0.292697 -0.822957
0.048047 0.151272 0.084376 -0.596491 -0.084008 -0.798211
0.895833 0.240526 0.086201 -0.443093 0.095784 -0.891344
0.621361 0.381250 0.298210 -0.019146 0.999809 -0.003983
0.876042 0.136895 0.075425 -0.950818 -0.059033 0.304074
0.581983 0.381250 0.143302 -0.002864 0.998292 0.058347
0.060097 0.381250 0.355731 -0.058527 0.998279 -0.003694
0.872542 0.361458 0.444864 0.066504 -0.992878 0.098844
0.084375 0.186362 0.443448 -0.803365 -0.028544 0.594803
0.895833 0.319327 0.080467 0.486135 0.248749 -0.837733
0.274550 0.361458 0.496142 0.019109 -0.976272 0.215703
0.915232 0.323648 0.104169 -0.098847 0.201721 -0.974442
0.172924 0.361458 0.156050 -0.061881 -0.997263 -0.040459
0.084375 0.085058 0.055049 -0.884857 -0.125754 -0.448570
0.196159 0.381250 0.352750 0.026881 0.998528 -0.047109
0.911675 0.381250 0.267630 -0.003583 0.999993 0.001161
0.935417 0.107830 0.078472 0.992431 -0.093783 0.079276
0.270720 0.381250 0.072694 0.009225 0.998497 -0.054020
0.104167 0.355232 0.424327 0.273320 0.245459 0.930078
0.798255 0.381250 0.100972 -0.057100 0.996895 0.054230
0.413867 0.361458 0.030904 -0.050483 -0.981484 -0.184769
0.550904 0.361458 0.240107 0.009131 -0.999814 -0.017015
0.489135 0.361458 0.160070 -0.005329 -0.998295 -0.058130
0.631850 0.361458 0.288568 0.025761 -0.999656 0.005011
0.823336 0.381250 0.118032 -0.044697 0.995900 0.078649
0.274436 0.381250 0.401279 0.012668 0.998500 -0.053274
0.117573 0.055038 0.500002 0.768807 -0.361182 0.527715
0.104167 0.185837 0.047168 -0.985618 0.001160 -0.168984
0.123958 0.154649 0.441966 0.932199 -0.033014 -0.360438
0.735710 0.361458 0.286724 0.044469 -0.999006 -0.002935
0.900250 0.193063 0.420835 0.532644 -0.031885 0.845738
0.915625 0.144485 0.045312 0.764816 -0.091668 -0.637694
0.877111 0.379845 0.056528 -0.502342 0.715273 -0.485835
0.525526 0.381250 0.229933 -0.000541 0.999877 0.015689
0.902377 0.092841 0.123960 -0.287332 -0.102751 0.952304
0.862692 0.381250 0.071430 -0.094173 0.995303 0.022455
0.777756 0.361458 0.198340 0.048426 -0.997274 -0.055666
0.932362 0.140240 0.064585 0.437807 -0.084428 -0.895096
0.955454 0.027892 0.420835 0.305629 -0.266166 0.914192
0.968382 0.361458 0.331580 0.196707 -0.979841 -0.034902
0.910948 0.221378 0.401044 -0.340769 0.052732 -0.938667
0.083746 0.217239 0.084376 -0.787560 0.023057 -0.615807
0.268006 0.361458 0.301084 -0.033104 -0.999139 0.025016
0.572748 0.361458 0.436414 0.019414 -0.994782 0.100159
0.116047 0.381250 0.047045 0.078876 0.996852 -0.008006
0.923030 0.228765 0.420835 0.789375 0.064585 -0.610505
0.779056 0.361458 0.209262 0.049116 -0.997561 -0.049590
0.104167 0.304907 0.037117 -0.926658 0.162679 -0.338882
0.263537 0.361458 0.367268 -0.027631 -0.998023 0.056455
0.924781 0.137645 0.084377 0.707901 -0.088116 -0.700794
0.068356 0.079997 0.104169 -0.060051 -0.203582 -0.977215
0.591309 0.381250 0.119548 -0.009524 0.998293 0.057627
0.550175 0.361458 0.271110 0.010268 -0.999947 0.000569
0.104167 0.249285 0.422826 -0.249273 0.133001 0.959257
0.593566 0.361458 0.340500 0.023240 -0.999189 0.032885
0.899761 0.381250 0.341596 -0.026367 0.999358 -0.024247
0.876042 0.074111 0.491180 -0.917294 -0.189053 0.350471
0.573911 0.381250 0.186904 -0.004659 0.999232 0.038913
0.895833 0.302323 0.450681 0.985010 0.171971 -0.013465
0.082016 0.371206 0.401043 0.126201 -0.972707 -0.194715
0.047351 0.213230 0.104168 -0.179901 -0.009478 -0.983639
0.859493 0.365128 0.500002 0.000942 -0.380658 0.924715
0.552569 0.361458 0.272805 0.010771 -0.999941 0.001368
0.737078 0.361458 0.314663 0.045841 -0.998867 0.012762
0.727251 0.361458 0.496414 0.048436 -0.984741 0.167147
0.092996 0.091190 0.044793 -0.246663 -0.193394 -0.949608
0.075522 0.346173 0.123959 -0.009977 0.256043 0.966614
0.219804 0.381250 0.070532 0.018728 0.997591 -0.066786
0.876042 0.096315 0.416446 -0.925924 -0.092417 -0.366229
0.123958 0.257605 0.068275 0.991949 0.125877 -0.013836
0.675537 0.361458 0.487574 0.040021 -0.986514 0.158711
0.064583 0.042344 0.453565 -0.802232 -0.215897 0.556607
0.552044 0.361458 0.394675 0.021542 -0.997975 0.059856
0.085410 0.197105 0.401043 0.250554 0.038444 -0.967339
0.722485 0.361458 0.299772 0.042605 -0.999078 0.005319
0.225276 0.361458 0.385805 -0.032065 -0.997275 0.066445
0.958120 0.381250 0.162279 0.064747 0.997884 0.005969
0.030488 0.381250 0.339419 -0.098848 0.994849 0.022471
0.141002 0.361458 0.188191 -0.064072 -0.997651 -0.024213
0.916353 0.361458 0.156299 0.099338 -0.991997 -0.077938
0.904905 0.250465 0.123960 -0.469506 0.114262 0.875504
0.923607 0.231392 0.440627 0.975740 0.055153 -0.211874
0.499099 0.361458 0.483657 0.026399 -0.984801 0.171667
0.728277 0.361458 0.172162 0.038400 -0.997003 -0.067158
0.063769 0.381250 0.226934 -0.002528 0.997796 0.066315
0.157510 0.381250 0.348664 0.032172 0.998325 -0.048079
0.465285 0.361458 0.272722 -0.003833 -0.999980 0.005036
0.115315 0.244943 0.401044 0.694558 0.099907 -0.712466
0.079189 0.381250 0.088999 -0.140199 0.987957 -0.065465
0.894853 0.361458 0.213447 0.083978 -0.995231 -0.049629
0.923042 0.361458 0.214469 0.107366 -0.993248 -0.043954
0.782955 0.361458 0.204337 0.049614 -0.997381 -0.052626
0.244544 0.381250 0.289872 0.029001 0.999281 -0.024437
0.870421 0.381250 0.381785 -0.061000 0.998026 -0.014928
0.084375 0.068193 0.059845 -0.791478 -0.159125 -0.590120
0.104167 0.242424 0.434924 0.321749 0.106688 0.940795
0.102090 0.381250 0.273361 0.024792 0.999684 0.004044
0.051058 0.357248 0.104167 -0.700533 0.192038 0.687295
0.127960 0.361458 0.187618 -0.066223 -0.997515 -0.024049
0.043695 0.381250 0.330001 -0.074439 0.997022 0.020163
0.876042 0.034925 0.120602 -0.509700 -0.159682 0.845404
0.104167 0.287742 0.466160 -0.935999 0.123413 0.329660
0.066122 0.079322 0.084377 -0.741343 -0.128728 0.658665
0.614475 0.381250 0.121224 -0.011327 0.998007 0.062081
0.492761 0.361458 0.166374 -0.004415 -0.998487 -0.054816
0.877687 0.361458 0.329438 0.074463 -0.997142 0.012775
0.032502 0.266568 0.123959 -0.373428 0.142977 0.916575
0.146611 0.361458 0.088720 -0.072144 -0.991499 -0.108279
0.043203 0.120137 0.420835 -0.161008 -0.089519 0.982885
0.489409 0.381250 0.374892 -0.012175 0.999245 -0.036899
0.917592 0.207708 0.064585 -0.444221 -0.004498 -0.895906
0.678661 0.381250 0.116229 -0.025362 0.997752 0.062028
0.083372 0.206936 0.440627 -0.767644 0.002437 0.640872
0.457965 0.361458 0.268843 -0.005379 -0.999980 0.003440
0.895833 0.264799 0.421079 0.955486 0.162408 0.246313
0.682879 0.381250 0.263345 -0.025740 0.999523 0.017048
0.228844 0.363388 0.499458 -0.073290 -0.480053 0.874173
0.044792 0.237524 0.424604 -0.725089 0.066442 -0.685442
0.910253 0.381250 0.153492 0.002320 0.998683 0.051249
0.933550 0.031366 0.084377 0.941227 -0.166731 0.293755
0.104167 0.360325 0.442549 0.437992 0.235556 0.867569
0.123958 0.093785 0.056609 0.977198 -0.147460 -0.152773
0.729052 0.381250 0.324446 -0.036602 0.999320 -0.004492
0.072815 0.035504 0.064585 -0.470479 -0.227500 -0.852581
0.895833 0.303685 0.055604 0.921082 0.149852 -0.359378
0.578973 0.381250 0.064139 -0.058687 0.998139 -0.016540
0.299313 0.361458 0.157288 -0.039733 -0.998102 -0.047044
0.121986 0.361458 0.179305 -0.071396 -0.997144 -0.024645
0.163598 0.381250 0.174679 0.053759 0.998528 0.007184
0.490275 0.381250 0.348847 -0.008938 0.999550 -0.028631
0.379437 0.361458 0.482195 0.017835 -0.983076 0.182327
0.975000 0.189514 0.115190 0.960930 -0.050758 0.272098
0.434070 0.381250 0.126374 0.019768 0.998515 0.050763
0.239368 0.361458 0.257465 -0.041800 -0.999112 0.005303
0.483617 0.361458 0.148941 -0.006781 -0.997925 -0.064036
0.593566 0.361458 0.359702 0.025019 -0.998806 0.041966
0.897930 0.103348 0.420835 0.009178 -0.207953 0.978096
0.353056 0.381250 0.062327 -0.012808 0.998177 -0.058974
0.104167 0.095929 0.492599 -0.909582 -0.159530 0.383679
0.895833 0.156161 0.062655 -0.771731 -0.053776 -0.633672
0.394121 0.361458 0.366429 -0.006610 -0.998638 0.051760
0.525116 0.361458 0.470625 0.020544 -0.988768 0.148037
0.899789 0.037584 0.401044 -0.717267 -0.181794 -0.672665
0.221469 0.361458 0.273303 -0.043214 -0.998976 0.013398
0.079201 0.381250 0.298234 -0.005904 0.999830 0.017492
0.381147 0.381250 0.345766 0.004943 0.999407 -0.034068
0.975000 0.371843 0.271580 0.779823 -0.006775 0.625964
0.899613 0.361458 0.186406 0.086776 -0.994169 -0.064016
0.883439 0.381250 0.410277 0.038761 0.993221 -0.109589
0.962354 0.107068 0.104169 0.202757 -0.107998 -0.973255
0.674101 0.381250 0.420964 -0.027035 0.999630 -0.002873
0.065616 0.288600 0.420835 -0.057669 0.152934 0.986552
0.076330 0.118401 0.420834 -0.816945 -0.141119 -0.559183
0.374763 0.361458 0.048637 -0.053273 -0.985678 -0.160003
0.094598 0.147884 0.480210 0.127399 -0.114490 0.985222
0.502656 0.361458 0.219718 -0.000439 -0.999679 -0.025337
0.123958 0.361493 0.086378 0.836654 0.298804 0.459049
0.414346 0.361458 0.416506 -0.003118 -0.996392 0.084808
0.312994 0.361458 0.047861 -0.058905 -0.984829 -0.163223
0.123958 0.048252 0.405746 0.540869 -0.146595 -0.828234
0.444057 0.381250 0.453290 0.030041 0.999234 0.025087
0.876042 0.169219 0.076089 -0.965704 -0.016176 0.259140
0.106364 0.161285 0.025001 -0.889739 -0.052468 -0.453444
0.876042 0.289147 0.415036 -0.722259 0.162562 -0.672247
0.535833 0.381250 0.132895 0.004566 0.998294 0.058204
0.078944 0.107486 0.084377 -0.292237 -0.127407 -0.947821
0.895833 0.045475 0.457493 -0.561286 -0.217418 0.798553
0.948889 0.381250 0.424002 0.117985 0.992491 -0.032265
0.945564 0.198006 0.104169 0.617217 -0.008077 0.786752
0.877303 0.026213 0.457065 -0.622904 -0.750383 0.221169
0.876042 0.304499 0.413743 -0.686430 0.181220 -0.704253
0.123958 0.215202 0.483960 0.962014 0.075715 0.262291
0.895833 0.211439 0.043287 0.974341 -0.009747 -0.224866
0.920035 0.381250 0.357277 -0.010397 0.997627 -0.068067
0.640993 0.381250 0.415537 -0.025610 0.999597 -0.012257
0.068051 0.115710 0.123960 0.273472 -0.090356 0.957627
0.919878 0.350215 0.420835 0.904472 0.295413 0.307670
0.034186 0.146190 0.420835 -0.259163 -0.054967 0.964268
0.140067 0.361458 0.127572 -0.069562 -0.996162 -0.053129
0.104167 0.040940 0.440091 -0.964768 -0.254309 -0.067446
0.935202 0.328225 0.123960 -0.160939 0.226240 0.960684
0.123958 0.295301 0.063340 0.982323 0.182506 -0.041625
0.972792 0.229440 0.401044 0.367847 0.088722 -0.925644
0.466356 0.361458 0.100002 -0.029996 -0.995042 -0.094824
0.587888 0.361458 0.133153 0.011418 -0.996742 -0.079839
0.222654 0.361820 0.497890 0.017983 -0.936135 0.351179
0.075645 0.381250 0.110969 -0.089965 0.995819 -0.015869
0.934966 0.230298 0.123960 -0.031636 0.078028 0.996449
0.252866 0.381250 0.343257 0.021107 0.998944 -0.040798
0.931644 0.370328 0.440627 0.813649 0.211497 0.541520
0.145585 0.381250 0.195633 0.053297 0.998579 -0.000486
0.232846 0.361458 0.148783 -0.052050 -0.997519 -0.047397
0.454773 0.361458 0.483941 0.023704 -0.983938 0.176932
0.084375 0.063797 0.467928 -0.816037 -0.187217 0.546839
0.198371 0.381250 0.489561 0.146780 0.988162 0.044626
0.032038 0.157190 0.104168 -0.347805 -0.084013 -0.933795
0.918534 0.361458 0.320161 0.119058 -0.992887 -0.000332
0.915208 0.381250 0.377898 -0.019172 0.997022 -0.074692
0.715531 0.381250 0.028439 -0.103858 0.992855 -0.058753
0.073947 0.250582 0.084376 -0.960022 0.069477 0.271165
0.085173 0.236066 0.104168 -0.880996 0.086288 0.465188
0.568917 0.381250 0.401445 -0.023622 0.999081 -0.035768
0.957949 0.155464 0.123960 0.210976 -0.063357 0.975436
0.876042 0.068418 0.435938 -0.973309 -0.154995 -0.169252
0.930473 0.315038 0.084377 0.335030 0.147973 -0.930515
0.160429 0.381250 0.323151 0.035095 0.998589 -0.039866
0.772694 0.381250 0.319181 -0.042598 0.999090 0.002097
0.919590 0.214002 0.440627 0.655321 0.011092 0.755269
0.104167 0.182256 0.083931 0.475962 -0.063964 -0.877137
0.198918 0.361458 0.467527 -0.002307 -0.983930 0.178537
0.078717 0.230984 0.460419 0.182572 0.016078 0.983061
0.840027 0.381250 0.043461 -0.116942 0.993011 -0.015939
0.049592 0.108183 0.420835 -0.654574 -0.117200 -0.746859
0.699091 0.381250 0.393670 -0.040466 0.998716 -0.030491
0.822515 0.361458 0.359120 0.063015 -0.997494 0.032158
0.102295 0.088821 0.044793 0.665258 -0.147573 -0.731884
0.917063 0.282360 0.123960 -0.352963 0.162019 0.921502
0.913294 0.361458 0.241735 0.100432 -0.994482 -0.030323
0.123958 0.215931 0.088682 0.964326 0.067047 0.256086
0.906433 0.231263 0.104169 0.946795 0.093171 -0.308056
0.793603 0.361458 0.046886 -0.009386 -0.987865 -0.155030
0.915625 0.243882 0.452008 0.937767 0.060504 0.341955
0.169094 0.381250 0.319289 0.034524 0.998676 -0.038141
0.094318 0.086870 0.480210 0.152016 -0.239991 0.958799
0.895833 0.130333 0.430613 -0.259880 -0.160851 0.952150
0.931936 0.145611 0.084377 0.539867 -0.067155 -0.839067
0.084375 0.298228 0.074768 -0.964156 0.123510 -0.234837
0.876042 0.340330 0.477811 -0.945305 0.235025 0.226191
0.216771 0.381250 0.264433 0.035698 0.999200 -0.018032
0.112636 0.334015 0.401044 0.770837 0.214989 -0.599659
0.921035 0.278318 0.104169 -0.073256 0.138520 -0.987647
0.582940 0.381250 0.451856 -0.000518 0.999417 0.034151
0.050744 0.032513 0.104169 -0.397850 -0.265270 0.878264
0.655449 0.361458 0.184911 0.025774 -0.998145 -0.055157
0.773675 0.361458 0.407872 0.056244 -0.996369 0.063917
0.768886 0.381250 0.161199 -0.031286 0.997109 0.069238
0.064583 0.281427 0.082429 -0.934830 0.071855 0.347749
0.556217 0.361458 0.302263 0.013643 -0.999779 0.016019
0.115798 0.306279 0.401044 0.768697 0.177277 -0.614555
0.092025 0.361458 0.346737 -0.091551 -0.993259 0.071097
0.915625 0.296641 0.082244 0.199453 0.134220 -0.970672
0.955208 0.330209 0.424623 0.824984 0.181043 -0.535374
0.595390 0.361458 0.350599 0.024471 -0.998993 0.037602
0.964822 0.298571 0.401044 0.396675 0.190630 -0.897947
0.904584 0.202895 0.104169 0.499347 0.012595 -0.866311
0.033118 0.317858 0.123959 -0.446028 0.217150 0.868277
0.084375 0.049978 0.074420 0.115608 -0.173669 -0.977995
0.813144 0.381250 0.435393 -0.037112 0.998996 0.025085
0.386597 0.381250 0.113874 0.015002 0.999439 0.029940
0.086030 0.025819 0.074557 -0.190021 -0.844265 -0.501107
0.759606 0.381250 0.421027 -0.037566 0.999292 0.002243
0.895833 0.255461 0.089745 0.686161 0.124020 -0.716800
0.076680 0.198027 0.104168 -0.787455 0.015763 0.616170
0.602504 0.361458 0.183333 0.016134 -0.998489 -0.052537
0.104167 0.067293 0.429303 -0.960769 -0.218862 -0.170358
0.876042 0.255482 0.440622 -0.959744 0.127702 -0.250167
0.447500 0.381250 0.054629 -0.036075 0.997729 -0.056873
0.093485 0.233311 0.104168 -0.985569 0.094968 0.140126
0.057695 0.351566 0.104167 -0.737454 0.194980 0.646640
0.071334 0.361458 0.315509 -0.118452 -0.990611 0.068256
0.109709 0.144485 0.123960 0.666267 -0.038587 0.744714
0.898897 0.076781 0.420835 -0.105487 -0.228578 0.967794
0.031683 0.208780 0.401043 -0.282472 0.008416 -0.959239
0.233622 0.361458 0.431908 -0.020688 -0.992839 0.117658
0.082227 0.344350 0.123959 0.074875 0.246827 0.966163
0.047858 0.211504 0.420834 -0.557572 0.016635 -0.829962
0.915625 0.168265 0.068626 0.960967 -0.056273 -0.270879
0.744534 0.381250 0.109854 -0.040939 0.997337 0.060353
0.844428 0.381250 0.144215 -0.041086 0.995625 0.083924
0.932252 0.025000 0.089001 0.137159 -0.986537 -0.089063
0.944109 0.311618 0.104169 0.517187 0.141092 0.844163
0.104167 0.271778 0.056281 0.819351 0.089302 -0.566293
0.891689 0.025000 0.048832 0.038508 -0.998648 -0.034927
0.936020 0.272089 0.401044 0.019230 0.141021 -0.989820
0.098532 0.275134 0.104168 -0.980362 0.172519 0.095538
0.576944 0.381250 0.399787 -0.025425 0.998971 -0.037559
0.104167 0.140476 0.467990 0.812683 -0.080108 0.577173
0.916071 0.213090 0.440627 0.724631 0.013209 0.689011
0.025681 0.292470 0.104167 -0.323478 0.103153 -0.940596
0.314863 0.381250 0.199827 0.031886 0.999458 0.008136
0.715075 0.381250 0.470698 -0.007568 0.997675 0.067727
0.084375 0.133271 0.068991 -0.801657 -0.083520 -0.591921
0.895833 0.196773 0.086423 0.958865 -0.031954 -0.282057
0.111004 0.025000 0.111979 0.043089 -0.993340 -0.106858
0.263104 0.361458 0.418421 -0.026558 -0.995337 0.092735
0.916295 0.303106 0.084377 0.431044 0.142930 -0.890939
0.794173 0.361458 0.053077 -0.004798 -0.988584 -0.150596
0.082838 0.319863 0.420835 0.083660 0.196798 0.976868
0.104167 0.099317 0.071433 -0.747569 -0.203814 -0.632140
0.907971 0.304542 0.104169 -0.100487 0.184816 -0.977622
0.061229 0.361458 0.384334 -0.138881 -0.985691 0.095525
0.334883 0.381250 0.103470 0.012801 0.999854 0.011347
0.102826 0.139361 0.420835 -0.946455 -0.162387 0.279023
0.088865 0.278447 0.123960 0.254858 0.129555 0.958260
0.468979 0.381250 0.314646 -0.001911 0.999816 -0.019082
0.895833 0.143628 0.420854 0.272171 -0.154175 0.949817
0.909531 0.100550 0.044794 0.294622 -0.183393 -0.937851
0.929253 0.366479 0.440627 0.840089 0.207992 0.500989
0.388330 0.361458 0.166324 -0.023298 -0.998581 -0.047887
0.032983 0.361458 0.335100 -0.174755 -0.980559 0.089244
0.104167 0.215460 0.427077 -0.249193 0.051722 0.967072
0.927202 0.177721 0.401044 -0.231494 -0.007644 -0.972806
0.548738 0.381250 0.253005 -0.005494 0.999952 0.008128
0.925358 0.320002 0.064585 0.237989 0.144213 -0.960502
0.876042 0.272261 0.052466 -0.956681 0.166930 -0.238526
0.123958 0.212125 0.438227 0.950648 0.042185 -0.307390
0.123958 0.153555 0.441026 0.927294 -0.034167 -0.372770
0.945723 0.381250 0.347003 0.016059 0.994610 -0.102437
0.080166 0.177271 0.420834 -0.818626 -0.068113 -0.570273
0.220557 0.361458 0.175933 -0.052384 -0.998093 -0.032663
0.839845 0.361458 0.086548 0.027703 -0.991221 -0.129279
0.426636 0.381250 0.202941 0.015702 0.999725 0.017394
0.072640 0.356873 0.420834 -0.033264 0.249748 0.967739
0.895833 0.181613 0.431968 -0.113910 -0.074010 0.990731
0.104167 0.208652 0.075216 -0.993716 0.036217 -0.105910
0.446724 0.381250 0.034149 -0.045693 0.994450 -0.094769
0.110573 0.223972 0.500002 -0.611227 0.073076 0.788075
0.025000 0.068311 0.119827 -0.321659 -0.242223 0.915349
0.082487 0.156482 0.401043 0.171309 -0.020245 -0.985009
0.083589 0.358513 0.401043 0.484526 0.279703 -0.828855
0.083834 0.065759 0.104169 -0.369186 -0.680779 -0.632646
0.313450 0.381250 0.171365 0.034318 0.999218 0.019630
0.918695 0.287549 0.460419 -0.496627 0.103057 0.861824
0.104167 0.057804 0.478425 0.888192 -0.189628 0.418517
0.945092 0.381250 0.256734 0.033859 0.998700 -0.038114
0.894687 0.278833 0.500002 0.868460 0.129771 0.478473
0.945572 0.226578 0.104169 0.124803 0.062171 -0.990232
0.104167 0.081294 0.069609 0.579006 -0.178852 -0.795465
0.895833 0.067400 0.440238 0.276618 -0.276934 0.920212
0.123958 0.180680 0.496517 0.938135 0.027143 0.345205
0.074158 0.262108 0.460419 -0.176903 0.059685 0.982417
0.052884 0.147948 0.104168 -0.553590 -0.073520 0.829538
0.876042 0.173325 0.418240 -0.886614 0.005141 -0.462481
0.064583 0.059370 0.071574 -0.978512 -0.189938 -0.080241
0.251498 0.361458 0.297081 -0.036145 -0.999066 0.023666
0.183687 0.381250 0.355325 0.028088 0.998421 -0.048649
0.490777 0.381250 0.331472 -0.006767 0.999710 -0.023116
0.895833 0.269162 0.076206 0.840278 0.126004 -0.527310
0.295528 0.365528 0.500002 -0.190225 -0.234140 0.953411
0.247759 0.381250 0.094554 0.024432 0.999547 -0.017577
0.104167 0.377886 0.489466 -0.878282 0.244442 0.410937
0.314909 0.361458 0.188565 -0.035652 -0.998901 -0.030435
0.231410 0.361458 0.131550 -0.052995 -0.996966 -0.057003
0.897705 0.047877 0.401044 -0.722508 -0.166990 -0.670892
0.449369 0.361458 0.469230 0.014852 -0.987951 0.154056
0.162527 0.361458 0.407428 -0.039379 -0.995518 0.085989
0.198279 0.361458 0.333266 -0.041349 -0.998239 0.042538
0.065766 0.218001 0.420835 -0.012647 0.051842 0.998575
0.975000 0.377639 0.313133 0.883921 0.395139 -0.250097
0.891620 0.133507 0.500002 0.820810 -0.128458 0.556569
0.922666 0.380946 0.442797 0.274825 0.949068 -0.154084
0.893105 0.033532 0.500002 0.890211 -0.270640 0.366441
0.336844 0.381250 0.195251 0.029290 0.999502 0.011747
0.638508 0.381250 0.201214 -0.015046 0.999117 0.039217
0.445447 0.361458 0.139133 -0.014080 -0.997652 -0.067021
0.085046 0.161854 0.420835 -0.544543 -0.080742 0.834837
0.076504 0.179329 0.123960 0.269568 -0.004604 0.962970
0.953311 0.214945 0.440627 0.555128 -0.007525 0.831731
0.123958 0.292116 0.031578 0.907708 0.136784 -0.396681
0.066396 0.381250 0.205747 0.002656 0.997551 0.069893
0.876042 0.216007 0.057999 -0.997286 0.062300 -0.039225
0.747704 0.361458 0.091522 0.014686 -0.992710 -0.119631
0.084375 0.158230 0.458241 -0.949303 -0.069218 0.306649
0.066516 0.091866 0.104169 -0.620700 -0.239657 0.746522
0.089816 0.262912 0.401043 0.417898 0.133034 -0.898701
0.893933 0.246101 0.123960 -0.598871 0.105330 0.793889
0.060301 0.197341 0.420835 -0.051148 0.021535 0.998459
0.078139 0.371357 0.460419 -0.047931 0.207035 0.977159
0.915625 0.027485 0.475476 0.840280 -0.195855 0.505539
0.134321 0.381250 0.435387 0.082575 0.996319 -0.023028
0.199648 0.361458 0.187685 -0.054673 -0.998155 -0.026410
0.077299 0.361458 0.284281 -0.107161 -0.992701 0.055338
0.045304 0.342989 0.123959 -0.361343 0.257436 0.896191
0.637436 0.361458 0.347385 0.030971 -0.998918 0.034681
0.952985 0.368666 0.420835 0.683968 0.199561 -0.701686
0.703081 0.361458 0.089133 0.004895 -0.992949 -0.118438
0.081442 0.178815 0.440627 -0.718205 -0.034856 0.694958
0.094205 0.242027 0.044792 0.067327 0.082970 -0.994275
0.682811 0.361458 0.151574 0.029329 -0.996695 -0.075750
0.091401 0.168951 0.044793 -0.337600 -0.040611 -0.940413
0.140865 0.381250 0.128062 0.062289 0.997838 0.020951
0.590989 0.381250 0.368082 -0.023848 0.999301 -0.028780
0.061999 0.381250 0.289704 -0.029825 0.999036 0.032208
0.360877 0.381250 0.089801 -0.001248 0.999976 -0.006827
0.084375 0.094482 0.056242 -0.887914 -0.115256 -0.445337
0.104167 0.371314 0.427264 0.125338 0.280763 0.951558
0.706365 0.361458 0.307205 0.039991 -0.999144 0.010590
0.344300 0.361458 0.276442 -0.023069 -0.999675 0.010816
0.697313 0.361458 0.114127 0.021978 -0.994763 -0.099822
0.895893 0.257326 0.123960 -0.592715 0.121586 0.796182
0.950252 0.269452 0.440627 0.454645 0.058066 0.888778
0.295368 0.381250 0.405456 0.012147 0.998851 -0.046354
0.912838 0.381250 0.215383 0.001512 0.999745 0.022522
0.926600 0.245275 0.084377 0.936533 0.039214 0.348379
0.076702 0.306236 0.440627 -0.945576 0.197955 0.258262
0.104167 0.094578 0.428297 -0.940840 -0.309443 0.138077
0.903498 0.190747 0.420835 0.928098 -0.028842 0.371218
0.084375 0.252137 0.057672 -0.887234 0.077830 -0.454706
0.051964 0.300479 0.084375 -0.388681 0.094459 -0.916517
0.347105 0.361458 0.056505 -0.055436 -0.987235 -0.149314
0.888819 0.361458 0.247565 0.080395 -0.996267 -0.031456
0.104167 0.336577 0.075454 0.320549 0.636890 -0.701155
0.100871 0.058651 0.480210 0.782508 -0.233003 0.577399
0.049731 0.301926 0.104167 -0.658414 0.123177 0.742508
0.873747 0.361637 0.081881 0.041989 -0.978907 -0.199946
0.876042 0.347642 0.082437 -0.961693 0.274062 0.005982
0.305104 0.381250 0.310560 0.018864 0.999446 -0.027417
0.950016 0.131491 0.420835 0.203438 -0.126443 0.970889
0.563650 0.361458 0.318956 0.016399 -0.999585 0.023681
0.959371 0.065502 0.401044 -0.050174 -0.154273 -0.986753
0.075634 0.236334 0.460419 -0.029826 0.020431 0.999346
0.608797 0.381250 0.111029 -0.020068 0.998627 0.048396
0.895833 0.082667 0.473894 0.911758 -0.179544 0.369407
0.082135 0.327411 0.084375 -0.981189 0.165512 -0.099364
0.873386 0.361458 0.121409 0.058944 -0.992618 -0.105992
0.135347 0.361458 0.406072 -0.041915 -0.995347 0.086763
0.061796 0.089293 0.401044 -0.050855 -0.149605 -0.987437
0.974964 0.299064 0.401044 0.493619 0.188517 -0.849001
0.939701 0.361458 0.314148 0.149106 -0.988666 -0.017515
0.167338 0.361458 0.182660 -0.060341 -0.997793 -0.027706
0.266638 0.361458 0.215000 -0.041340 -0.999021 -0.015717
0.756460 0.381250 0.116202 -0.036706 0.996893 0.069697
0.241716 0.361458 0.348448 -0.032917 -0.998291 0.048286
0.069849 0.081927 0.104169 -0.044943 -0.200974 -0.978565
0.079379 0.362845 0.399956 -0.519098 -0.730224 0.444197
0.682530 0.377572 0.500002 -0.682959 0.278594 0.675242
0.915625 0.365685 0.070393 0.511392 0.207015 -0.834040
0.305378 0.361458 0.345475 -0.022914 -0.998734 0.044787
0.198348 0.381250 0.173873 0.049582 0.998725 0.009481
0.077600 0.380532 0.422591 0.136581 0.958982 0.248394
0.893507 0.343010 0.123960 -0.727811 0.234493 0.644441
0.797434 0.381250 0.163309 -0.035578 0.996830 0.071161
0.924486 0.050600 0.064585 -0.215863 -0.201975 -0.955306
0.895833 0.331860 0.043673 0.930812 0.175286 -0.320724
0.273433 0.361458 0.172420 -0.043788 -0.998364 -0.036781
0.030345 0.108784 0.401044 -0.324965 -0.142525 -0.934925
0.201426 0.381250 0.172063 0.049434 0.998725 0.010233
0.915625 0.215674 0.071874 -0.374464 0.025546 -0.926889
0.847620 0.381250 0.363763 -0.056486 0.998358 -0.009503
0.925560 0.252898 0.420835 0.396069 0.083224 0.914441
0.149667 0.361458 0.423054 -0.031229 -0.993155 0.112549
0.104167 0.162186 0.457436 0.736540 -0.040456 0.675183
0.907479 0.064687 0.044794 0.052151 -0.277472 -0.959317
0.123958 0.216907 0.470230 0.994211 0.067017 0.083986
0.678547 0.361458 0.354245 0.038247 -0.998599 0.036555
0.895833 0.141912 0.479405 -0.795674 -0.069494 0.601726
0.876042 0.303138 0.062970 -0.962825 0.214190 -0.164589
0.078008 0.348135 0.123959 0.017022 0.257284 0.966186
0.460246 0.361458 0.463501 0.012237 -0.989545 0.143701
0.121074 0.025000 0.485650 0.292346 -0.951787 -0.092924
0.296827 0.361458 0.183167 -0.039134 -0.998713 -0.032277
0.911699 0.375206 0.104169 -0.119962 0.499131 -0.858182
0.123958 0.299696 0.074935 0.967088 0.197951 0.159865
0.929108 0.205811 0.084377 0.907047 -0.007009 0.420971
0.894989 0.026630 0.447020 -0.077922 -0.598288 0.797484
0.113602 0.321010 0.401044 0.765884 0.197909 -0.611763
0.876042 0.263362 0.416618 -0.773932 0.128919 -0.620008
0.895833 0.225741 0.486086 0.960346 0.054646 0.273402
0.697427 0.361458 0.483424 0.039035 -0.987959 0.149709
0.084375 0.062061 0.065613 0.353020 -0.135828 -0.925704
0.073478 0.341434 0.064584 0.047446 0.185294 -0.981537
0.444672 0.381250 0.296881 0.003378 0.999883 -0.014899
0.828033 0.381250 0.348033 -0.052586 0.998605 -0.004732
0.104167 0.233053 0.041954 -0.966025 0.065719 -0.249955
0.123958 0.031966 0.059597 0.964129 -0.239731 -0.113952
0.123958 0.197191 0.047368 0.966933 0.009285 -0.254863
0.876042 0.216189 0.038656 -0.952117 0.078986 -0.295356
0.363659 0.381250 0.125105 0.028832 0.998696 0.042122
0.084375 0.353281 0.452776 -0.509609 0.193486 0.838369
0.084375 0.175030 0.047749 -0.851405 -0.011994 -0.524371
0.122112 0.025628 0.428556 0.269729 -0.881336 -0.387934
0.537885 0.361458 0.207443 0.005434 -0.999386 -0.034622
0.931439 0.316014 0.440627 0.940068 0.118684 -0.319666
0.295733 0.381250 0.468765 0.091189 0.995394 0.029603
0.118112 0.381250 0.376586 0.025046 0.998501 -0.048664
0.173973 0.361458 0.448434 -0.014983 -0.988465 0.150709
0.274642 0.361458 0.392748 -0.023451 -0.997403 0.068101
0.706980 0.381250 0.480151 0.002767 0.996859 0.079150
0.462571 0.361458 0.438513 0.001277 -0.994370 0.105960
0.911637 0.225045 0.480210 0.557417 0.054764 0.828425
0.306176 0.381250 0.275105 0.023291 0.999598 -0.016155
0.893257 0.350204 0.500002 0.771699 0.257167 0.581675
0.046466 0.196719 0.420834 -0.561081 -0.000913 -0.827760
0.104167 0.311468 0.476185 -0.942825 0.147421 0.298912
0.876042 0.076148 0.069234 -0.931861 -0.144311 0.332880
0.941794 0.361458 0.199354 0.122220 -0.991289 -0.049078
0.897109 0.381250 0.149049 -0.014704 0.997809 0.064509
0.135872 0.361458 0.391369 -0.045942 -0.996348 0.071971
0.235218 0.361458 0.203880 -0.047442 -0.998675 -0.019935
0.895833 0.082710 0.033825 0.908456 -0.177789 -0.378285
0.065092 0.245468 0.104168 -0.722297 0.071307 0.687897
0.876042 0.241148 0.059591 -0.991873 0.104744 -0.072223
0.064461 0.033242 0.420835 -0.793777 -0.315825 0.519782
0.845682 0.381250 0.451110 -0.033382 0.998263 0.048539
0.105448 0.377833 0.401044 0.753850 0.279173 -0.594787
0.084375 0.129368 0.080342 -0.569070 -0.102742 -0.815845
0.389743 0.381250 0.271144 0.013476 0.999859 -0.009994
0.246527 0.361458 0.312354 -0.035520 -0.998886 0.031060
0.025000 0.376064 0.413310 -0.790644 0.501089 0.351840
0.895833 0.095361 0.091325 0.975471 -0.186441 0.117029
0.846936 0.361458 0.390663 0.068721 -0.996475 0.048110
0.895833 0.264241 0.467827 -0.814101 0.077719 0.575499
0.642338 0.381250 0.140669 -0.011473 0.997789 0.065461
0.895833 0.068890 0.470575 -0.681539 -0.172104 0.711256
0.961223 0.276549 0.401044 0.323199 0.157921 -0.933061
0.895833 0.296694 0.456985 -0.733376 0.186539 0.653730
0.123958 0.370596 0.029367 0.878747 0.246187 -0.408895
0.936222 0.381250 0.387574 -0.001227 0.993315 -0.115428
0.895833 0.269698 0.070095 0.901722 0.111226 -0.417763
0.104167 0.321707 0.461749 -0.789321 0.214381 0.575337
0.394167 0.381250 0.169953 0.022675 0.999343 0.028270
0.093190 0.381250 0.158051 0.031925 0.998159 0.051575
0.898790 0.240880 0.104169 0.357209 0.108098 -0.927748
0.393141 0.361458 0.268195 -0.015935 -0.999859 0.005286
0.084375 0.215535 0.443898 -0.738308 0.014055 0.674317
0.355632 0.361458 0.308110 -0.018280 -0.999509 0.025446
0.915625 0.238950 0.449878 0.914949 0.054364 0.399892
0.769588 0.377696 0.500002 -0.791348 0.243361 0.560842
0.447978 0.361458 0.068654 -0.045734 -0.990732 -0.127904
0.046037 0.373930 0.104167 -0.679077 0.203801 0.705209
0.362245 0.361458 0.337029 -0.014509 -0.999137 0.038917
0.928100 0.320388 0.104169 0.017912 0.198536 -0.979930
0.099662 0.071463 0.401044 0.297557 -0.133317 -0.945350
0.800056 0.361458 0.480093 0.049349 -0.989259 0.137588
0.876069 0.162937 0.123960 -0.668922 -0.006574 0.743303
0.915625 0.352734 0.470835 0.776437 0.200997 0.597282
0.927073 0.124941 0.104169 0.521472 -0.145298 -0.840806
0.830382 0.361458 0.188590 0.057502 -0.996251 -0.064627
0.826779 0.381250 0.099752 -0.062388 0.996509 0.055480
0.064583 0.171052 0.453052 -0.954289 -0.027841 0.297585
0.251574 0.364980 0.500002 -0.162810 -0.245328 0.955671
0.123958 0.162400 0.026747 0.904545 -0.062411 -0.421785
0.632807 0.381250 0.102086 -0.031971 0.998718 0.039245
0.629296 0.361458 0.396245 0.034164 -0.997730 0.058024
0.975000 0.091641 0.412900 0.882087 -0.312287 0.352701
0.104167 0.271939 0.498289 -0.939239 0.076458 0.334642
0.954325 0.080844 0.123960 0.203264 -0.175373 0.963290
0.894853 0.381250 0.364419 -0.035649 0.998843 -0.032285
0.025000 0.079729 0.118877 -0.432727 -0.251112 0.865846
0.895833 0.069801 0.470297 0.843965 -0.219851 0.489274
0.935417 0.149267 0.075703 0.997352 -0.047716 -0.054877
0.123958 0.113608 0.498087 0.972394 -0.078272 0.219825
0.935417 0.279058 0.460191 0.610284 0.091132 0.786923
0.915625 0.119805 0.457467 -0.384478 -0.086603 0.919063
0.885691 0.361458 0.293019 0.079648 -0.996803 -0.006340
0.064583 0.164866 0.447253 -0.994186 -0.025936 -0.104506
0.922475 0.218676 0.420835 0.789418 0.051079 -0.611727
0.051996 0.361515 0.420833 -0.418484 0.240271 -0.875866
0.092779 0.061385 0.401044 0.233268 -0.158286 -0.959443
0.365141 0.361458 0.149007 -0.028188 -0.998027 -0.056105
0.123958 0.197234 0.473743 0.995460 0.036534 0.087893
0.108678 0.152859 0.500002 -0.720363 -0.074808 0.689551
0.881847 0.165392 0.123960 -0.614259 -0.003555 0.789096
0.667215 0.361458 0.357634 0.036730 -0.998582 0.038534
0.403584 0.381250 0.141649 0.023229 0.998876 0.041306
0.653465 0.381250 0.495209 0.038924 0.995025 0.091704
0.368470 0.381250 0.096696 0.001549 0.999981 0.005932
0.927089 0.381250 0.277854 0.012477 0.999639 -0.023792
0.876042 0.331571 0.070707 -0.958188 0.259177 -0.121253
0.044792 0.081059 0.095938 -0.899288 -0.250864 0.358259
0.800603 0.381250 0.244542 -0.041596 0.998457 0.036788
0.076238 0.075559 0.440627 -0.857040 -0.171152 0.485993
0.334906 0.361458 0.361687 -0.016626 -0.998536 0.051474
0.123958 0.264102 0.408123 0.835127 0.117071 -0.537455
0.076704 0.313698 0.104167 -0.761869 0.233855 -0.604043
0.975000 0.372418 0.118959 0.511874 0.381861 0.769524
0.636859 0.362386 0.498456 0.057698 -0.855736 0.514186
0.675811 0.381250 0.389700 -0.037087 0.998843 -0.030609
0.104167 0.200246 0.466718 0.767488 0.002136 0.641059
0.884374 0.361458 0.161532 0.073075 -0.994053 -0.080742
0.922542 0.263705 0.460419 -0.220877 0.085756 0.971524
0.966733 0.380327 0.125511 0.178701 0.879532 0.441009
0.044792 0.134504 0.421500 -0.636550 -0.080340 -0.767039
0.399844 0.361458 0.069606 -0.050059 -0.990494 -0.128123
0.904896 0.315843 0.123960 -0.570818 0.209352 0.793939
0.915625 0.250272 0.462498 0.921823 0.072240 0.380819
0.123958 0.318909 0.433845 0.962701 0.204331 -0.177359
0.758466 0.361458 0.218995 0.045804 -0.998036 -0.042733
0.496226 0.381250 0.071442 -0.038081 0.999124 -0.017357
0.483594 0.381250 0.177079 0.009169 0.999375 0.034127
0.895833 0.055328 0.476099 -0.706356 -0.179891 0.684617
0.093639 0.307330 0.480210 -0.154227 0.180117 0.971479
0.298788 0.381250 0.121801 0.035189 0.998887 0.031408
0.496614 0.361458 0.134191 -0.005034 -0.997304 -0.073204
0.876042 0.331881 0.109382 -0.914932 0.193277 0.354320
0.494516 0.361458 0.261127 -0.000180 -0.999999 -0.001432
0.055926 0.056668 0.104169 -0.189067 -0.233408 -0.953821
0.652508 0.361458 0.201895 0.025946 -0.998633 -0.045373
0.104167 0.033724 0.077558 -0.247153 -0.317342 -0.915538
0.895833 0.040050 0.477227 -0.700226 -0.195866 0.686528
0.975000 0.339150 0.107202 0.586448 0.258542 -0.767616
0.047197 0.121006 0.084376 -0.633540 -0.119943 -0.764356
0.213123 0.361458 0.139083 -0.055985 -0.997100 -0.051541
0.073680 0.316732 0.440627 -0.968542 0.197042 -0.151991
0.287319 0.381250 0.355018 0.015341 0.998979 -0.042489
0.090630 0.381250 0.440239 -0.037183 0.986473 0.159652
0.079005 0.174162 0.064584 0.200069 -0.017622 -0.979623
0.798506 0.361458 0.170360 0.050989 -0.996043 -0.072794
0.123958 0.359735 0.492570 0.715227 0.301622 0.630455
0.067902 0.177828 0.440627 -0.439272 -0.022006 0.898085
0.939705 0.254003 0.123960 0.004469 0.109631 0.993962
0.083265 0.054759 0.064585 0.304292 -0.139497 -0.942309
0.870467 0.381250 0.084138 -0.083390 0.995728 0.039653
0.083005 0.361290 0.440627 -0.189708 0.192307 0.962823
0.928825 0.271564 0.420835 0.778189 0.114599 -0.617487
0.046020 0.361458 0.311140 -0.154195 -0.985094 0.076253
0.717766 0.361458 0.190093 0.037251 -0.997716 -0.056356
0.658026 0.381250 0.365848 -0.031838 0.999202 -0.024133
0.084375 0.203988 0.467744 -0.912588 -0.017695 0.408497
0.814307 0.381250 0.423787 -0.042961 0.999034 0.009241
0.311694 0.381250 0.079529 0.004014 0.999403 -0.034309
0.104167 0.324923 0.093769 -0.966736 0.205158 0.152748
0.760267 0.361458 0.110295 0.030558 -0.993816 -0.106752
0.308137 0.381250 0.276957 0.022811 0.999602 -0.016625
0.080056 0.163333 0.123960 0.333527 -0.024209 0.942430
0.923928 0.172832 0.401044 -0.274625 -0.012896 -0.961465
0.104167 0.052615 0.083377 0.434320 -0.227519 -0.871551
0.552523 0.381250 0.398827 -0.022880 0.998925 -0.040305
0.927612 0.301219 0.123960 -0.229901 0.188101 0.954863
0.071830 0.350376 0.420834 -0.036910 0.240707 0.969896
0.084375 0.248846 0.453038 0.325832 0.061393 0.943432
0.737078 0.361458 0.308608 0.045598 -0.998916 0.009342
0.716899 0.381250 0.297155 -0.032988 0.999438 0.005968
0.760290 0.361458 0.329438 0.050622 -0.998526 0.019560
0.876042 0.110038 0.412901 -0.896757 -0.075774 -0.435987
0.485076 0.361458 0.085506 -0.037125 -0.993608 -0.106611
0.791825 0.381250 0.049326 -0.104534 0.994434 -0.013171
0.195931 0.361458 0.271933 -0.047463 -0.998780 0.013594
0.084375 0.239229 0.065054 0.585188 0.042309 -0.809793
0.736622 0.361458 0.299207 0.045138 -0.998973 0.004060
0.945726 0.377736 0.440627 0.587680 0.201594 0.783576
0.941275 0.330273 0.104169 0.511560 0.210618 0.833035
0.051052 0.047265 0.104169 -0.238400 -0.244206 -0.939962
0.306518 0.361458 0.482742 0.013444 -0.981481 0.191088
0.940996 0.337875 0.440627 0.572711 0.156906 0.804601
0.935417 0.100175 0.069588 0.800064 -0.131259 -0.585380
0.915625 0.093152 0.455970 0.694416 -0.142803 0.705261
0.895833 0.051833 0.034497 0.895955 -0.217910 -0.387014
0.046336 0.327475 0.104167 -0.331277 0.176944 -0.926794
0.179673 0.381250 0.319862 0.033146 0.998739 -0.037703
0.486741 0.361458 0.269698 -0.000640 -0.999996 0.002890
0.909374 0.361458 0.181589 0.094656 -0.993388 -0.064969
0.800261 0.381250 0.435695 -0.035373 0.999068 0.024744
0.453610 0.381250 0.175534 0.013641 0.999401 0.031802
0.895833 0.138364 0.499833 0.939236 -0.068587 0.336351
0.107999 0.210742 0.025001 -0.802102 0.029229 -0.596471
0.264677 0.381250 0.474929 0.108298 0.993541 0.033880
0.059912 0.136209 0.123960 0.153776 -0.063518 0.986062
0.123958 0.358577 0.073035 0.927530 0.299678 0.223341
0.876042 0.064505 0.409458 -0.902201 -0.128297 -0.411793
0.545022 0.381250 0.429477 -0.006873 0.999976 0.001204
0.118009 0.348660 0.123960 0.440617 0.208818 0.873070
0.084375 0.318008 0.445285 -0.450945 0.154080 0.879152
0.664364 0.361458 0.121164 0.021129 -0.995487 -0.092511
0.385981 0.361458 0.126700 -0.025324 -0.997222 -0.070056
0.895833 0.116117 0.096773 0.983842 -0.178897 -0.007164
0.044792 0.065341 0.430277 -0.967291 -0.249347 0.046633
0.104167 0.077992 0.432059 -0.912261 -0.392486 0.117196
0.920445 0.361458 0.288867 0.112980 -0.993558 -0.008883
0.092641 0.381250 0.463448 -0.087035 0.983360 0.159464
0.895833 0.350193 0.047730 0.856958 0.227460 -0.462477
0.838545 0.381250 0.036790 -0.122895 0.992113 -0.024685
0.104167 0.264927 0.095924 -0.983486 0.145269 -0.107942
0.044792 0.193138 0.425647 -0.825174 -0.003577 -0.564867
0.151035 0.361458 0.484484 0.004416 -0.977561 0.210608
0.937587 0.361458 0.396045 0.169251 -0.985569 0.002711
0.975000 0.291570 0.404018 0.680517 0.210280 -0.701911
0.603655 0.380395 0.026621 -0.294120 0.882929 -0.365964
0.935417 0.183757 0.081994 0.916108 -0.010671 0.400789
0.123958 0.167343 0.065168 0.996615 -0.021192 -0.079429
0.084375 0.349968 0.047556 -0.709207 0.194031 -0.677773
0.945932 0.025000 0.120652 0.051528 -0.996225 0.069857
0.165172 0.381250 0.137704 0.058117 0.998124 0.019254
0.083465 0.367948 0.440627 -0.179652 0.198794 0.963434
0.025000 0.118979 0.107650 -0.623633 -0.154979 -0.766200
0.895833 0.190329 0.102272 0.712059 -0.035659 -0.701213
0.157328 0.381250 0.392682 0.026528 0.997727 -0.061947
0.936817 0.381250 0.230589 0.031291 0.999490 -0.006403
0.592107 0.361458 0.073804 -0.026276 -0.992153 -0.122237
0.358118 0.381250 0.488740 0.104968 0.992781 0.058035
0.123958 0.220606 0.440558 0.961950 0.051419 -0.268344
0.123958 0.156836 0.028417 0.910163 -0.069555 -0.408369
0.928251 0.279798 0.064585 0.390812 0.091626 -0.915899
0.044792 0.323476 0.094857 -0.976945 0.213216 -0.010801
0.167019 0.381250 0.467781 0.122536 0.992319 0.016963
0.926711 0.245490 0.440627 0.953228 0.061821 -0.295863
0.935417 0.179437 0.075736 0.999920 -0.008011 -0.009805
0.920062 0.361458 0.219867 0.105126 -0.993595 -0.041447
0.922318 0.359285 0.104169 -0.012370 0.252753 -0.967452
0.765922 0.361458 0.080390 0.009903 -0.991604 -0.128932
0.728254 0.361458 0.267448 0.042338 -0.999014 -0.013340
0.672117 0.381250 0.182120 -0.018639 0.998539 0.050718
0.051647 0.315735 0.084375 -0.377087 0.111608 -0.919429
0.104167 0.184454 0.079682 0.572265 -0.056098 -0.818148
0.585061 0.381250 0.069887 -0.055259 0.998446 -0.007189
0.569123 0.361458 0.452970 0.016266 -0.992956 0.117366
0.446154 0.361458 0.291425 -0.005186 -0.999881 0.014538
0.944020 0.111614 0.401044 -0.146748 -0.095908 -0.984513
0.064991 0.031130 0.104169 -0.118722 -0.270909 -0.955256
0.975000 0.067143 0.409317 0.750910 -0.433227 -0.498445
0.888379 0.161489 0.025002 0.462421 -0.044403 -0.885548
0.304261 0.361458 0.445384 -0.008327 -0.991264 0.131631
0.035371 0.381250 0.281365 -0.068665 0.996274 0.052190
0.684703 0.381250 0.405024 -0.036164 0.999056 -0.024068
0.731407 0.361840 0.027094 -0.024027 -0.951815 -0.305731
0.037609 0.177946 0.123959 -0.165344 0.006068 0.986217
0.935417 0.255868 0.446021 0.985153 0.042749 -0.166273
0.965701 0.217540 0.401044 0.271974 0.068496 -0.959864
0.058444 0.313023 0.104167 -0.721532 0.149450 0.676060
0.733977 0.361458 0.268660 0.043422 -0.998972 -0.013034
0.072421 0.250046 0.123960 0.118074 0.098525 0.988105
0.250084 0.381250 0.134075 0.046056 0.998510 0.029255
0.895833 0.075569 0.427828 -0.310270 -0.216680 0.925626
0.118745 0.269463 0.500002 0.377647 0.211837 0.901392
0.860731 0.361458 0.162661 0.061859 -0.994777 -0.081197
0.919588 0.172243 0.123960 -0.157662 0.002588 0.987490
0.935510 0.298882 0.123960 -0.112498 0.179310 0.977339
0.084375 0.150993 0.443851 -0.878465 -0.078038 0.471391
0.066964 0.081048 0.104169 -0.611785 -0.296686 0.733278
