0.739503 0.215521 0.195305 0.004237 -0.999820 0.018507
0.230363 0.099988 0.252510 0.282001 -0.000033 0.959414
0.229099 0.183141 0.202585 0.183578 0.000024 -0.983005
0.604620 0.243968 0.336683 0.023021 -0.998918 0.040407
0.212843 0.243975 0.085022 -0.034363 -0.998735 -0.036701
0.971637 0.263798 0.245756 0.028192 0.999523 0.012643
0.375707 0.224143 0.176835 -0.001984 0.998651 -0.051879
0.279224 0.079605 0.193907 0.566440 -0.815386 -0.119546
0.715662 0.224144 0.138394 0.000906 0.999950 -0.009963
0.511554 0.243971 0.241686 0.005205 -0.999923 0.011302
0.703276 0.029311 0.300994 -0.059021 0.998236 0.006376
0.045962 0.263797 0.310803 -0.044432 0.998484 0.032498
0.220166 0.169149 0.324998 -0.694859 -0.000020 0.719146
0.091219 0.243971 0.232778 -0.025330 -0.999642 0.008606
0.224386 0.029311 0.310049 -0.046761 0.998716 0.019512
0.136390 0.243975 0.114731 -0.036197 -0.998964 -0.027594
0.652660 0.263799 0.229706 0.007735 0.999940 0.007695
0.229078 0.154094 0.193461 0.098551 0.000024 -0.995132
0.214374 0.146175 0.197770 -0.239280 -0.000023 0.970951
0.265030 0.243973 0.179273 -0.019509 -0.999779 -0.007819
0.715431 0.197187 0.115865 -0.986246 -0.000005 0.165284
0.753485 0.053396 0.278444 -0.123269 0.000027 -0.992373
0.398757 0.224144 0.134043 -0.002736 0.996796 -0.079940
0.025000 0.249962 0.186371 -0.121475 -0.992494 -0.014124
0.877672 0.263800 0.199931 0.027059 0.999633 -0.001418
0.341222 0.260412 0.384483 -0.038159 0.995783 0.083425
0.659938 0.263796 0.327544 -0.003392 0.999284 0.037678
0.862625 0.243973 0.154040 0.019394 -0.999690 -0.015604
0.947486 0.263799 0.229881 0.028389 0.999567 0.007773
0.194607 0.263801 0.136135 -0.013249 0.999691 -0.021034
0.458961 0.243974 0.137836 -0.010837 -0.999730 -0.020540
0.766820 0.197570 0.156968 -0.068794 0.000024 -0.997631
0.660729 0.087475 0.200999 0.054832 0.503881 0.862031
0.785431 0.109356 0.081752 0.242965 -0.731366 -0.637238
0.265109 0.146367 0.084481 0.306646 0.000026 -0.951824
0.724443 0.025001 0.307195 -0.028120 -0.998767 0.040899
0.235338 0.110452 0.202583 0.124931 0.000024 -0.992165
0.294074 0.082350 0.207895 -0.049251 -0.151350 -0.987252
0.641466 0.213624 0.196758 -0.967507 0.000006 -0.252843
0.747842 0.129902 0.084480 -0.020205 0.000027 -0.999796
0.628771 0.263801 0.155082 0.014939 0.999773 -0.015193
0.284569 0.164726 0.293789 0.974981 0.000006 -0.222287
0.284569 0.074470 0.091632 0.644883 0.000021 -0.764282
0.236551 0.214257 0.252514 0.102181 -0.000032 0.994766
0.248098 0.243968 0.338581 -0.001740 -0.999157 0.041007
0.403063 0.263797 0.300665 -0.018206 0.999401 0.029431
0.776725 0.165584 0.156967 0.079321 0.000024 -0.996849
0.785354 0.168850 0.170401 0.208310 -0.000033 0.978063
0.353080 0.243971 0.229903 -0.007309 -0.999944 0.007702
0.537599 0.215520 0.254991 -0.001192 -0.998982 0.045094
0.834183 0.243968 0.359404 0.041792 -0.998005 0.047330
0.284569 0.029396 0.105350 0.898668 0.000012 -0.438629
0.254795 0.243969 0.321038 -0.003357 -0.999359 0.035636
0.900808 0.243975 0.096355 0.015201 -0.999331 -0.033279
0.753347 0.114494 0.278445 0.045612 0.000027 -0.998959
0.357748 0.243973 0.164144 -0.014806 -0.999813 -0.012466
0.728015 0.108825 0.133674 0.047855 -0.977267 0.206543
0.227494 0.122583 0.243389 0.146430 -0.000024 0.989221
0.766105 0.181550 0.229955 -0.131618 0.000024 -0.991301
0.279932 0.263803 0.082729 -0.000915 0.999300 -0.037386
0.783182 0.215522 0.163961 0.074835 -0.997196 0.000235
0.220854 0.094066 0.278445 -0.699297 0.000020 -0.714832
0.243142 0.029310 0.338695 -0.057326 0.996086 0.067286
0.427252 0.224139 0.297227 0.001297 0.989403 0.145189
0.641466 0.094742 0.196436 -0.985685 -0.000004 0.168600
0.162860 0.243968 0.362267 -0.004895 -0.998823 0.048254
0.796207 0.085511 0.147560 0.943714 0.320857 -0.080338
0.462515 0.215520 0.259274 -0.002337 -0.999056 0.043375
0.743345 0.031756 0.324994 0.200638 -0.000027 0.979665
0.810380 0.243973 0.159273 0.016354 -0.999768 -0.013995
0.047498 0.243972 0.194961 -0.032896 -0.999454 -0.002989
0.643412 0.263795 0.365492 -0.009059 0.998743 0.049290
0.786535 0.120849 0.250456 0.998835 -0.000018 0.048257
0.339309 0.243972 0.212108 -0.010392 -0.999943 0.002246
0.534197 0.263803 0.079043 0.017344 0.999108 -0.038502
0.733542 0.224142 0.202197 -0.015350 0.999758 0.015746
0.727264 0.090953 0.169622 -0.334832 0.931672 -0.140977
0.284507 0.172056 0.324998 0.525980 -0.000023 0.850497
0.720776 0.087340 0.251933 -0.564460 0.825284 0.017036
0.214681 0.093740 0.098316 -0.335834 0.883232 -0.327286
0.257607 0.263797 0.312437 -0.029800 0.999010 0.033024
0.755709 0.215520 0.258464 -0.014080 -0.996870 0.077797
0.402831 0.243974 0.134775 -0.015137 -0.999655 -0.021475
0.546896 0.243973 0.184528 0.000883 -0.999980 -0.006229
0.375616 0.139218 0.216517 -0.070658 -0.000024 0.997501
0.645528 0.243972 0.193776 0.008900 -0.999955 -0.003401
0.064807 0.263796 0.331483 -0.045560 0.998207 0.038830
0.366518 0.215523 0.136073 -0.002639 -0.998618 -0.052490
0.252413 0.135108 0.324997 0.011534 -0.000027 0.999933
0.429224 0.215523 0.115690 -0.012655 -0.955854 -0.293570
0.102410 0.252145 0.384483 -0.130040 -0.945970 0.297036
0.589520 0.215523 0.132937 0.002633 -0.998867 -0.047509
0.565538 0.243974 0.115685 -0.005998 -0.999608 -0.027336
0.804118 0.263800 0.180776 0.024180 0.999681 -0.007299
0.781153 0.210152 0.211710 0.315942 0.000033 -0.948778
0.711544 0.243968 0.363540 0.033695 -0.998249 0.048611
0.708725 0.224139 0.300231 0.018525 0.809969 0.586180
0.284569 0.049813 0.313297 0.968846 -0.000007 0.247663
0.392906 0.215523 0.110126 -0.022719 -0.919127 -0.393305
0.742840 0.128800 0.324997 -0.090776 -0.000027 0.995871
0.480966 0.224140 0.271303 0.000299 0.997023 0.077105
0.781121 0.097384 0.105777 0.984007 0.000005 -0.178132
0.290697 0.220101 0.303232 -0.007280 0.363352 0.931623
0.203793 0.080712 0.126137 -0.943972 -0.325055 -0.057058
0.311794 0.088172 0.207895 -0.061357 0.564074 -0.823442
0.590471 0.215521 0.205540 0.001880 -0.999867 0.016223
0.597082 0.263796 0.361181 -0.011794 0.998779 0.047969
0.726070 0.263796 0.355443 -0.002074 0.998929 0.046219
0.199680 0.263798 0.282563 -0.030314 0.999255 0.023865
0.266020 0.025007 0.069740 -0.024001 -0.998165 -0.055587
0.432752 0.243974 0.140008 -0.012417 -0.999725 -0.019873
0.930902 0.243972 0.196969 0.029293 -0.999568 -0.002446
0.293065 0.263800 0.171692 -0.010578 0.999893 -0.010126
0.791303 0.247723 0.025000 0.011400 -0.996027 -0.088323
0.644601 0.263802 0.098867 0.022730 0.999216 -0.032423
0.892023 0.263804 0.040754 0.046941 0.997637 -0.050170
0.959489 0.263803 0.071769 0.047998 0.998019 -0.040679
0.781121 0.187674 0.292174 0.973211 0.000006 -0.229912
0.777512 0.091660 0.156965 -0.113401 0.000024 -0.993549
0.774326 0.121995 0.193460 -0.103312 0.000024 -0.994649
0.284569 0.027119 0.322478 0.881712 -0.000013 0.471789
0.737737 0.215523 0.139181 0.009410 -0.999703 -0.022503
0.631177 0.243972 0.216420 0.010588 -0.999938 0.003545
0.787801 0.088029 0.302152 0.346530 0.810227 0.472703
0.651781 0.086586 0.184620 0.022441 0.416066 -0.909057
0.795362 0.243976 0.058044 0.003256 -0.998982 -0.044995
0.966070 0.263801 0.126656 0.041960 0.998834 -0.023876
0.974826 0.243975 0.080502 0.018500 -0.999101 -0.038137
0.906867 0.243975 0.097353 0.015745 -0.999332 -0.032974
0.112732 0.243973 0.160501 -0.032420 -0.999382 -0.013562
0.239810 0.029310 0.338758 -0.061832 0.995770 0.067960
0.704763 0.029317 0.100557 -0.056240 0.998360 -0.010656
0.786535 0.184187 0.158781 0.952888 0.000007 -0.303321
0.347195 0.263799 0.205350 -0.010788 0.999942 0.000200
0.729861 0.075865 0.229425 -0.252457 -0.967004 0.034192
0.243778 0.263795 0.369936 -0.037580 0.998011 0.050612
0.365238 0.081755 0.224274 -0.043223 -0.230621 0.972083
0.756795 0.084434 0.084479 0.035753 0.000027 -0.999361
0.210583 0.090952 0.204040 -0.455204 0.890032 -0.025156
0.607693 0.263799 0.236211 0.003807 0.999946 0.009685
0.711789 0.224139 0.297963 0.017450 0.839610 0.542910
0.383599 0.119909 0.207896 0.101992 0.000024 -0.994785
0.812787 0.243972 0.216672 0.023355 -0.999721 0.003607
0.881557 0.243977 0.038220 0.006935 -0.998672 -0.051057
0.781121 0.107458 0.280045 0.594463 0.000022 -0.804123
0.975000 0.246413 0.271527 0.061652 -0.997730 0.027077
0.669592 0.263798 0.246798 0.006888 0.999893 0.012937
0.248197 0.032213 0.278443 -0.393919 0.000025 -0.919145
0.715431 0.108979 0.324844 0.176600 -0.899212 -0.400287
0.593472 0.224143 0.151748 0.001530 0.997685 -0.067982
0.113949 0.263796 0.351812 -0.044525 0.997992 0.045054
0.218879 0.115963 0.316468 -0.789026 -0.000017 0.614360
0.391421 0.090952 0.198644 -0.001576 0.836079 0.548607
0.475400 0.263800 0.168916 0.002537 0.999937 -0.010962
0.605407 0.215522 0.164308 0.014164 -0.999516 -0.027710
0.579657 0.243971 0.227204 0.008258 -0.999942 0.006856
0.528900 0.215520 0.227507 0.000040 -0.999642 0.026774
0.578932 0.243972 0.210090 0.006171 -0.999980 0.001607
0.388132 0.263797 0.322037 -0.021791 0.999115 0.035976
0.650176 0.110417 0.192378 -0.279078 0.000023 -0.960268
0.442957 0.263797 0.293260 -0.014529 0.999525 0.027164
0.423474 0.243968 0.343232 0.011103 -0.999038 0.042425
0.397442 0.224140 0.269521 -0.001368 0.997123 0.075794
0.568379 0.243972 0.200106 0.004243 -0.999990 -0.001453
0.035437 0.243974 0.143376 -0.039871 -0.999028 -0.018805
0.702035 0.243971 0.234171 0.017670 -0.999803 0.008983
0.785460 0.090953 0.170285 0.141051 0.989884 -0.015299
0.218879 0.078785 0.111991 0.018925 -0.985879 -0.166387
0.959460 0.243969 0.327511 0.046789 -0.998198 0.037558
0.025000 0.252004 0.334094 -0.178788 -0.963093 0.201211
0.081883 0.263797 0.322629 -0.043318 0.998408 0.036123
0.359545 0.263796 0.336815 -0.025548 0.998853 0.040497
0.315071 0.263802 0.113546 -0.002117 0.999607 -0.027945
0.588288 0.215522 0.176265 0.018047 -0.999748 -0.013325
0.060748 0.263798 0.246425 -0.035760 0.999279 0.012773
0.530399 0.263802 0.099086 0.014697 0.999368 -0.032364
0.428432 0.263798 0.268192 -0.012567 0.999731 0.019479
0.772427 0.174641 0.147844 0.000862 0.000033 -1.000000
0.858769 0.243968 0.342750 0.041544 -0.998244 0.042235
0.765541 0.198405 0.166091 -0.097007 0.000023 -0.995284
0.784876 0.025006 0.095642 0.040077 -0.999037 -0.017849
0.218879 0.225724 0.302317 -0.970686 0.000007 -0.240351
0.901156 0.243970 0.267116 0.035548 -0.999186 0.019068
0.783128 0.089429 0.116070 -0.109898 -0.947570 -0.300055
0.553419 0.263803 0.073974 0.019294 0.999011 -0.040052
0.330894 0.224139 0.292910 -0.002004 0.995851 0.090979
0.535865 0.224140 0.262027 0.001103 0.997467 0.071125
0.782649 0.100729 0.252510 0.338230 -0.000033 0.941063
0.770059 0.102400 0.193459 -0.264948 0.000023 -0.964263
0.716672 0.215519 0.278214 -0.000653 -0.997445 0.071439
0.297721 0.025000 0.335103 0.046770 -0.998832 0.012162
0.498246 0.243974 0.121906 -0.009977 -0.999627 -0.025426
0.770312 0.263795 0.379930 -0.001885 0.998555 0.053707
0.889037 0.243969 0.314774 0.040351 -0.998618 0.033670
0.265638 0.243971 0.240995 -0.012121 -0.999865 0.011111
0.211190 0.243969 0.301192 -0.008773 -0.999525 0.029561
0.667505 0.263800 0.173206 0.015499 0.999833 -0.009632
0.700345 0.026946 0.264898 -0.322697 -0.890473 -0.320820
0.424257 0.243975 0.112734 -0.016255 -0.999469 -0.028232
0.227139 0.207615 0.278448 -0.274853 0.000026 -0.961486
0.508092 0.075865 0.218840 -0.009333 -0.955202 0.295807
0.236549 0.096311 0.278445 -0.426868 0.000025 -0.904314
0.656053 0.263801 0.136892 0.019015 0.999604 -0.020768
0.781121 0.215594 0.288171 0.949378 0.000009 -0.314136
0.778430 0.243968 0.330956 0.034521 -0.998657 0.038637
0.077245 0.263796 0.326787 -0.044134 0.998325 0.037395
0.414457 0.263802 0.120359 0.004040 0.999658 -0.025852
0.390712 0.263796 0.327873 -0.022303 0.999038 0.037763
0.244217 0.104575 0.084479 -0.239737 0.000027 -0.970838
0.218879 0.028828 0.101932 -0.999444 -0.000001 0.033354
0.162396 0.263797 0.290144 -0.033827 0.999085 0.026185
0.533240 0.263797 0.318943 -0.011251 0.999323 0.035038
0.241395 0.029310 0.336107 -0.056449 0.996416 0.062991
0.492534 0.252307 0.384483 0.017089 -0.944412 0.328320
0.025261 0.243977 0.032350 -0.053715 -0.997161 -0.052773
0.614883 0.263800 0.169947 0.012196 0.999869 -0.010635
0.220743 0.169244 0.278447 -0.503135 0.000024 -0.864208
0.025000 0.263801 0.162004 -0.028222 0.999516 -0.013119
0.751525 0.243977 0.036114 -0.002421 -0.998660 -0.051701
0.639034 0.090952 0.219601 0.045877 0.929117 0.366928
0.345542 0.263796 0.338065 -0.026678 0.998808 0.040879
0.547069 0.263796 0.356979 -0.014799 0.998800 0.046682
0.700704 0.224139 0.291894 0.013178 0.920525 0.390461
0.363083 0.263796 0.342947 -0.026027 0.998763 0.042374
0.781121 0.191039 0.119456 0.774385 -0.000017 0.632715
0.561740 0.243974 0.120513 -0.005690 -0.999649 -0.025857
0.944384 0.243971 0.255279 0.037171 -0.999190 0.015435
0.585227 0.224142 0.190103 0.000057 0.999712 0.023979
0.723413 0.029312 0.277029 -0.002404 0.999210 -0.039679
0.304054 0.243977 0.039482 -0.033367 -0.998159 -0.050641
0.341251 0.243968 0.360106 0.007345 -0.998840 0.047591
0.262299 0.090950 0.262006 0.281006 0.945901 0.162193
0.083565 0.263798 0.261390 -0.035938 0.999203 0.017364
0.745457 0.029311 0.301908 -0.003983 0.999992 0.000836
0.345484 0.263799 0.207698 -0.011187 0.999937 0.000920
0.509785 0.243972 0.217122 0.002159 -0.999991 0.003769
0.715431 0.154653 0.116463 -0.959921 -0.000008 0.280270
0.218879 0.114171 0.103234 -0.992802 0.000003 -0.119767
0.063444 0.263804 0.038834 -0.010858 0.998649 -0.050815
0.292291 0.215521 0.187387 0.013336 -0.999616 -0.024306
0.345136 0.243974 0.115510 -0.021472 -0.999395 -0.027375
0.409964 0.263797 0.319568 -0.019967 0.999180 0.035222
0.796207 0.078100 0.233656 0.800738 -0.599003 -0.003598
0.602619 0.263797 0.297056 -0.003785 0.999591 0.028337
0.148566 0.263802 0.099426 -0.012107 0.999406 -0.032281
0.226468 0.129115 0.220830 -0.035301 0.000033 -0.999377
0.229021 0.263800 0.199525 -0.018383 0.999830 -0.001596
0.780730 0.208825 0.220833 0.302248 0.000033 -0.953229
0.054109 0.243972 0.190485 -0.032965 -0.999447 -0.004362
0.967027 0.263800 0.178329 0.035892 0.999323 -0.008035
0.066894 0.263795 0.384055 -0.051620 0.997157 0.054894
0.218879 0.134438 0.112890 -0.979994 -0.000005 0.199029
0.214693 0.090953 0.155932 -0.235590 0.970587 -0.049587
0.363859 0.215519 0.287310 -0.003224 -0.984306 0.176440
0.644195 0.263798 0.263452 0.003126 0.999832 0.018039
0.524078 0.263796 0.346304 -0.015143 0.998942 0.043414
0.347461 0.215520 0.237207 0.032478 -0.999448 0.007008
0.286258 0.090952 0.191568 -0.057465 0.988885 -0.137131
0.946906 0.263800 0.201467 0.031730 0.999496 -0.000941
0.283140 0.113135 0.133380 -0.021822 0.998900 -0.041499
0.218879 0.051578 0.301311 -0.975593 -0.000006 0.219585
0.254995 0.127064 0.278446 0.043502 0.000027 -0.999053
0.794297 0.224140 0.262697 0.455676 0.880499 0.130695
0.453511 0.224143 0.141057 -0.001480 0.997164 -0.075246
0.418603 0.243975 0.087556 -0.019642 -0.999161 -0.035945
0.781121 0.076135 0.323190 0.800692 -0.000016 0.599076
0.562030 0.263801 0.145416 0.011408 0.999770 -0.018162
0.220259 0.099772 0.225140 0.034580 -0.000023 0.999402
0.227305 0.222715 0.131034 -0.023844 0.993046 -0.115289
0.223404 0.055925 0.131030 -0.329662 -0.000026 0.944099
0.446001 0.263804 0.037211 0.016129 0.998553 -0.051306
0.587978 0.215523 0.140383 0.005214 -0.999055 -0.043141
0.817483 0.243976 0.049761 0.003820 -0.998863 -0.047529
0.287644 0.243970 0.266722 -0.007515 -0.999791 0.018994
0.215076 0.156572 0.225142 -0.252347 -0.000021 0.967637
0.397990 0.243971 0.226766 -0.004533 -0.999967 0.006736
0.227310 0.263801 0.157353 -0.013482 0.999804 -0.014528
0.966592 0.263798 0.280095 0.023748 0.999449 0.023168
0.663475 0.263803 0.064122 0.028175 0.998675 -0.043057
0.769252 0.110463 0.211707 -0.261034 0.000033 -0.965329
0.223696 0.164895 0.193461 -0.001008 0.000024 -1.000000
0.534019 0.075866 0.187859 0.025815 -0.873521 -0.486101
0.278928 0.083800 0.324996 0.673601 -0.000020 0.739095
0.305561 0.263800 0.167786 -0.009237 0.999893 -0.011322
0.578836 0.224140 0.276691 0.002342 0.996728 0.080801
0.786287 0.243974 0.130189 0.011202 -0.999675 -0.022907
0.339520 0.224139 0.298946 -0.001669 0.995482 0.094935
0.549343 0.224140 0.261049 0.001337 0.997510 0.070508
0.240787 0.114414 0.278445 -0.281356 0.000026 -0.959603
0.713922 0.257470 0.025000 0.062178 0.986601 -0.150839
0.616942 0.263801 0.143453 0.015492 0.999704 -0.018760
0.127953 0.243970 0.274127 -0.017830 -0.999615 0.021279
0.153408 0.262153 0.025000 -0.007758 0.997789 -0.066002
0.791390 0.243971 0.223617 0.022681 -0.999726 0.005739
0.750719 0.076841 0.278445 -0.162302 -0.974249 0.156516
0.415820 0.263803 0.052581 0.012190 0.998839 -0.046608
0.418458 0.243973 0.185142 -0.008050 -0.999949 -0.006031
0.155612 0.263804 0.032186 -0.003615 0.998596 -0.052849
0.777346 0.202019 0.257327 0.200967 0.000021 -0.979598
0.227165 0.263796 0.347840 -0.036129 0.998384 0.043856
0.289776 0.224141 0.233898 -0.002047 0.999893 -0.014471
0.231804 0.263801 0.127095 -0.009565 0.999671 -0.023800
0.404212 0.215519 0.270957 -0.003632 -0.998867 0.047449
0.714078 0.090063 0.274134 -0.473980 -0.801522 -0.364563
0.334554 0.243971 0.250945 -0.006104 -0.999881 0.014155
0.888283 0.243968 0.358087 0.045422 -0.997865 0.046919
0.597111 0.263801 0.128807 0.015843 0.999604 -0.023252
0.132041 0.243970 0.290748 -0.015564 -0.999531 0.026370
0.137433 0.263796 0.359820 -0.043827 0.997909 0.047506
0.300111 0.224142 0.221390 -0.002198 0.999740 -0.022688
0.785431 0.093706 0.303303 0.335954 0.910334 0.241717
0.588007 0.263797 0.289256 -0.003882 0.999656 0.025946
0.274220 0.255145 0.025000 -0.094535 0.912883 -0.397125
0.154829 0.263798 0.271757 -0.032175 0.999271 0.020549
0.455312 0.224140 0.258283 -0.000560 0.997649 0.068531
0.213465 0.144454 0.150721 -0.749666 -0.000006 0.661816
0.231920 0.090951 0.243223 0.155452 0.986992 0.040999
0.772747 0.029316 0.121638 0.019892 0.999594 0.020383
0.257032 0.025007 0.078994 -0.026371 -0.998767 -0.042057
0.233370 0.263804 0.030003 0.002089 0.998565 -0.053517
0.372577 0.224143 0.147125 -0.002877 0.997443 -0.071407
0.632221 0.243967 0.368103 0.028680 -0.998337 0.050015
0.764862 0.153034 0.156966 -0.243625 0.000023 -0.969870
0.214749 0.090951 0.220462 -0.228775 0.973318 0.017696
0.769065 0.141182 0.216018 -0.106560 -0.000023 0.994306
0.218879 0.099751 0.316317 -0.754052 -0.000018 0.656815
0.301966 0.243972 0.211319 -0.013105 -0.999912 0.002007
0.794231 0.243968 0.359996 0.039065 -0.998106 0.047517
0.375179 0.114222 0.207896 -0.340251 0.000023 -0.940335
0.388700 0.177603 0.216518 0.381366 -0.000022 0.924424
0.649166 0.215520 0.230954 0.001371 -0.999344 0.036203
0.143377 0.243975 0.080162 -0.039804 -0.998478 -0.038179
0.208900 0.243976 0.061555 -0.037418 -0.998336 -0.043880
0.170543 0.263797 0.315366 -0.036248 0.998767 0.033911
0.561677 0.224144 0.112078 -0.002014 0.986382 -0.164460
0.725421 0.224143 0.159917 -0.008325 0.999954 -0.004692
0.421995 0.243973 0.168203 -0.009817 -0.999889 -0.011226
0.138448 0.243970 0.270112 -0.017573 -0.999645 0.020047
0.214388 0.108031 0.156965 -0.384954 0.000022 -0.922936
0.779326 0.187896 0.206895 0.008939 -0.000024 0.999960
0.715431 0.221859 0.108121 -0.971362 0.000006 -0.237605
0.715431 0.187818 0.118135 -0.966807 -0.000007 0.255506
0.715431 0.029197 0.317635 -0.511211 -0.000024 0.859455
0.226210 0.165278 0.225142 -0.007267 -0.000023 0.999974
0.590703 0.263796 0.349157 -0.010813 0.998960 0.044291
0.785431 0.091644 0.092479 0.893962 0.056317 -0.444589
0.953922 0.243968 0.355597 0.049720 -0.997696 0.046147
0.247440 0.029316 0.107343 -0.005890 0.999982 -0.000594
0.898054 0.263801 0.163112 0.032866 0.999379 -0.012708
0.412038 0.224142 0.209103 -0.000375 0.999533 -0.030572
0.141666 0.263796 0.347237 -0.042044 0.998161 0.043660
0.575511 0.243970 0.263090 0.012236 -0.999766 0.017862
0.558058 0.263802 0.093327 0.017321 0.999267 -0.034126
0.232026 0.159172 0.243390 0.150812 -0.000024 0.988562
0.517758 0.243968 0.364439 0.020227 -0.998599 0.048906
0.159700 0.263800 0.188455 -0.021927 0.999747 -0.004997
0.367375 0.215520 0.237598 0.033253 -0.999381 0.011522
0.705746 0.263798 0.270627 0.006587 0.999773 0.020243
0.458990 0.263797 0.297243 -0.013878 0.999501 0.028386
0.137027 0.243975 0.089893 -0.039096 -0.998615 -0.035200
0.694642 0.243975 0.104956 0.001776 -0.999529 -0.030630
0.728012 0.243973 0.161412 0.010833 -0.999852 -0.013332
0.274126 0.215520 0.234287 0.029357 -0.999564 0.003023
0.680858 0.215520 0.241364 0.001258 -0.998993 0.044842
0.223773 0.243968 0.362717 -0.000575 -0.998828 0.048392
0.214894 0.224142 0.218392 -0.110028 0.993919 -0.004272
0.665595 0.224142 0.196849 0.001801 0.999590 0.028561
0.720776 0.081596 0.268988 -0.751535 -0.637600 0.169296
0.274191 0.263799 0.244549 -0.020572 0.999714 0.012217
0.691742 0.263803 0.063991 0.030171 0.998615 -0.043095
0.796207 0.216863 0.297588 0.647203 -0.755267 0.103438
0.796207 0.026897 0.109277 0.680839 -0.732314 0.013214
0.167035 0.263800 0.198263 -0.022580 0.999743 -0.001988
0.235610 0.187082 0.229955 0.349363 0.000023 -0.936988
0.203915 0.075868 0.115714 -0.736340 -0.676189 -0.023914
0.232925 0.194034 0.156967 0.306953 0.000023 -0.951725
0.764659 0.243975 0.096047 0.005623 -0.999428 -0.033360
0.293508 0.215522 0.163795 0.005047 -0.999254 -0.038286
0.445821 0.215519 0.278412 -0.003477 -0.998494 0.054758
0.260903 0.025005 0.141688 0.054121 -0.997306 0.049516
0.913362 0.243973 0.176431 0.025618 -0.999634 -0.008743
0.446160 0.224144 0.136247 -0.001757 0.996919 -0.078413
0.593863 0.243969 0.304407 0.018435 -0.999364 0.030524
0.940093 0.263803 0.081665 0.045470 0.998256 -0.037655
0.676260 0.243971 0.244835 0.017131 -0.999778 0.012256
0.236741 0.148996 0.204199 0.853897 0.000012 -0.520442
0.159323 0.255074 0.025000 -0.159716 0.896748 -0.412716
0.222468 0.243972 0.205504 -0.019373 -0.999812 0.000230
0.218879 0.169899 0.288745 -0.793197 0.000017 -0.608965
0.942905 0.243971 0.252042 0.036683 -0.999223 0.014443
0.723855 0.025006 0.091924 -0.055271 -0.998205 -0.023063
0.362450 0.215522 0.150307 0.002262 -0.999021 -0.044175
0.777924 0.123381 0.257325 -0.011331 0.000023 -0.999936
0.744712 0.263804 0.031890 0.037680 0.997889 -0.052901
0.796207 0.223774 0.209786 0.530998 0.844248 0.072710
0.288784 0.025001 0.276280 0.046533 -0.994028 -0.098705
0.405963 0.243972 0.207215 -0.006300 -0.999980 0.000740
0.322261 0.243974 0.128905 -0.021485 -0.999498 -0.023268
0.219319 0.184487 0.161278 -0.231047 -0.000023 0.972943
0.698968 0.224139 0.301573 0.018748 0.798364 0.601883
0.268770 0.263802 0.092789 -0.002893 0.999407 -0.034305
0.794840 0.263800 0.185866 0.022923 0.999721 -0.005739
0.396714 0.263796 0.352207 -0.024769 0.998670 0.045210
0.908607 0.243972 0.221543 0.030654 -0.999517 0.005093
0.135143 0.263796 0.330451 -0.040514 0.998436 0.038524
0.742802 0.093739 0.131157 0.072987 0.907968 -0.412635
0.709293 0.215520 0.245480 0.001411 -0.998788 0.049208
0.514511 0.243967 0.373227 0.021041 -0.998447 0.051592
0.289238 0.263800 0.165197 -0.010073 0.999876 -0.012118
0.433544 0.215519 0.275335 -0.003480 -0.998639 0.052034
0.039699 0.263802 0.098154 -0.019585 0.999274 -0.032681
0.504499 0.215522 0.153204 0.007348 -0.999247 -0.038095
0.889559 0.263796 0.353677 0.009587 0.998910 0.045679
0.509930 0.263801 0.151593 0.007019 0.999843 -0.016272
0.499090 0.085893 0.200999 0.011545 0.336351 0.941666
0.570785 0.263798 0.267983 -0.002560 0.999808 0.019424
0.298458 0.243972 0.201906 -0.014471 -0.999895 -0.000880
0.715431 0.083398 0.094638 -0.935334 0.000010 -0.353765
0.328755 0.243975 0.091527 -0.025469 -0.999072 -0.034721
0.560261 0.243969 0.326469 0.018700 -0.999130 0.037284
0.569500 0.089568 0.200999 0.037152 0.662802 0.747873
0.641466 0.113477 0.195300 -0.963882 0.000006 -0.266330
0.568060 0.243972 0.196563 0.003799 -0.999990 -0.002540
0.232610 0.029311 0.306087 -0.030876 0.999462 0.011052
0.750530 0.034115 0.084477 -0.254967 0.000026 -0.966950
0.780292 0.162875 0.257326 0.158702 0.000022 -0.987326
0.655746 0.224143 0.173148 0.000950 0.999915 0.012963
0.260444 0.029316 0.133460 -0.017648 0.999137 0.037605
0.478417 0.215522 0.177003 0.014997 -0.999581 -0.024760
0.367215 0.215520 0.231975 0.031200 -0.999503 0.004505
0.065329 0.243974 0.125822 -0.039860 -0.998912 -0.024187
0.289114 0.025001 0.291830 0.044335 -0.996773 -0.066920
0.958300 0.263795 0.373523 0.012039 0.998588 0.051748
0.723358 0.110135 0.135342 -0.341408 -0.330539 0.879878
0.461338 0.243974 0.146799 -0.009604 -0.999796 -0.017792
0.672035 0.075865 0.224262 0.005548 -0.736031 0.676925
0.699628 0.243974 0.142037 0.006537 -0.999793 -0.019268
0.262146 0.112271 0.278445 -0.200939 0.764646 0.612324
0.106643 0.243971 0.251099 -0.022067 -0.999655 0.014222
0.606185 0.263799 0.236870 0.003623 0.999945 0.009887
0.706091 0.029312 0.275460 -0.023479 0.998942 -0.039531
0.268108 0.212699 0.324999 0.116704 -0.000027 0.993167
0.307067 0.216511 0.303232 -0.000851 -0.878462 0.477812
0.715431 0.218993 0.089891 -0.524589 0.000023 -0.851356
0.771082 0.166131 0.175214 -0.055290 0.000023 -0.998470
0.429566 0.224141 0.243146 -0.001277 0.998603 0.052833
0.263974 0.112463 0.278445 0.180728 0.000027 -0.983533
0.758773 0.243968 0.363309 0.036975 -0.998137 0.048535
0.229427 0.263798 0.254083 -0.024845 0.999577 0.015137
0.339124 0.215520 0.224637 0.027813 -0.999613 -0.000719
0.858247 0.263796 0.352821 0.007496 0.998940 0.045417
0.214467 0.132401 0.166089 -0.316187 0.000020 -0.948697
0.269291 0.243970 0.266184 -0.008866 -0.999783 0.018831
0.499580 0.263803 0.051670 0.018167 0.998735 -0.046881
0.239708 0.090951 0.225934 0.181518 0.983012 0.027176
0.794956 0.215518 0.289687 0.470405 -0.880098 0.064398
0.810554 0.263796 0.338680 0.005837 0.999138 0.041090
0.407818 0.243970 0.277517 0.002193 -0.999749 0.022295
0.651642 0.171144 0.201001 -0.086139 -0.000024 0.996283
0.347079 0.263801 0.148554 -0.004037 0.999844 -0.017213
0.681073 0.243975 0.096991 -0.000122 -0.999453 -0.033069
0.715431 0.035437 0.102513 -0.999162 -0.000001 0.040934
0.932207 0.263802 0.109662 0.041603 0.998711 -0.029086
0.680203 0.263803 0.045318 0.031574 0.998309 -0.048806
0.473339 0.079577 0.207895 0.010637 -0.482750 -0.875693
0.068953 0.263803 0.073283 -0.014573 0.999082 -0.040288
0.784604 0.135910 0.193460 0.185301 0.000024 -0.982682
0.781121 0.225014 0.089532 0.904400 0.000012 -0.426685
0.533984 0.224142 0.175406 0.001042 0.998619 -0.052534
0.025000 0.244647 0.366173 -0.016687 -0.998451 0.053076
0.767920 0.160811 0.278447 0.477265 0.000024 -0.878759
0.487432 0.243976 0.058560 -0.018260 -0.998828 -0.044825
0.736216 0.086705 0.131031 -0.108337 -0.000027 0.994114
0.681585 0.224142 0.201683 0.002246 0.999493 0.031768
0.942818 0.263799 0.220062 0.029230 0.999561 0.004762
0.591892 0.243968 0.335421 0.021979 -0.998957 0.040022
0.268026 0.083791 0.131031 0.488789 -0.000024 0.872402
0.889588 0.263797 0.304560 0.015436 0.999411 0.030655
0.222353 0.259746 0.025000 -0.011524 0.995605 -0.092939
0.858508 0.263803 0.050935 0.043393 0.997949 -0.047065
0.601778 0.243972 0.196256 0.006127 -0.999978 -0.002637
0.715431 0.039948 0.104124 -0.994610 -0.000003 0.103686
0.104991 0.263795 0.365460 -0.046763 0.997692 0.049223
0.248997 0.243968 0.330792 -0.002603 -0.999250 0.038622
0.538459 0.263796 0.355180 -0.015189 0.998820 0.046131
0.933135 0.263797 0.307380 0.018152 0.999338 0.031522
0.386335 0.243976 0.071824 -0.023771 -0.998886 -0.040758
0.218668 0.210657 0.243391 -0.321554 -0.000023 0.946891
0.724412 0.218468 0.278448 0.011489 -0.973162 0.229833
0.338439 0.263801 0.126184 -0.001982 0.999708 -0.024071
0.375317 0.254435 0.025000 -0.096600 0.703587 -0.704012
0.252733 0.215523 0.132199 0.016508 -0.997854 -0.063366
0.214003 0.263798 0.254511 -0.025977 0.999546 0.015267
0.346105 0.200090 0.207898 0.107124 0.000024 -0.994246
0.485605 0.263799 0.236716 -0.004813 0.999940 0.009831
0.796207 0.084227 0.245120 0.986710 0.120282 0.109252
0.284569 0.126308 0.292635 0.924399 0.000010 -0.381427
0.220036 0.076448 0.084479 -0.749222 0.000018 -0.662319
0.270038 0.072404 0.131030 0.561375 -0.000023 0.827562
0.679305 0.243974 0.118746 0.002341 -0.999649 -0.026404
0.247062 0.224142 0.189137 0.020055 0.999594 -0.020236
0.818121 0.263799 0.238120 0.018337 0.999779 0.010289
0.776111 0.243971 0.239316 0.023477 -0.999669 0.010555
0.180719 0.263800 0.193173 -0.021014 0.999773 -0.003548
0.704470 0.243969 0.322146 0.028294 -0.998953 0.035948
0.781121 0.070360 0.091941 0.641334 0.000021 -0.767262
0.665620 0.243968 0.357868 0.029807 -0.998456 0.046882
0.784204 0.114205 0.188647 0.336377 -0.000033 0.941727
0.785300 0.075864 0.278948 0.155222 -0.976750 0.147868
0.383319 0.243972 0.209695 -0.007593 -0.999970 0.001502
0.849897 0.243974 0.116618 0.014046 -0.999535 -0.027070
0.886950 0.243975 0.082411 0.012570 -0.999216 -0.037544
0.329219 0.243975 0.104407 -0.023907 -0.999240 -0.030776
0.490799 0.215523 0.149218 0.005550 -0.999149 -0.040881
0.810409 0.243975 0.107589 0.010203 -0.999503 -0.029831
0.233190 0.177468 0.193461 0.265988 0.000023 -0.963976
0.436811 0.243967 0.378109 0.016177 -0.998459 0.053090
0.768254 0.249950 0.384483 0.068116 -0.988148 0.137565
0.280345 0.110049 0.084480 -0.355266 -0.590902 0.724307
0.744225 0.059477 0.278444 -0.311803 0.000026 -0.950147
0.786392 0.116140 0.175213 0.171556 0.000023 -0.985174
0.159613 0.243975 0.106064 -0.035598 -0.998908 -0.030251
0.543793 0.263800 0.177188 0.006349 0.999944 -0.008420
0.258076 0.075865 0.245005 0.242442 -0.969318 0.040543
0.763093 0.243968 0.340435 0.034570 -0.998539 0.041539
0.408514 0.263796 0.329332 -0.021228 0.999044 0.038211
0.736876 0.202900 0.131034 -0.447869 -0.000025 0.894099
0.664888 0.215521 0.207564 0.002709 -0.999755 0.021988
0.278595 0.054663 0.084478 0.298980 0.000026 -0.954259
0.230970 0.144680 0.211708 0.117505 0.000033 -0.993072
0.152075 0.243975 0.098143 -0.037065 -0.998778 -0.032676
0.534980 0.253602 0.384483 0.049295 -0.453399 0.889943
0.753315 0.131304 0.131032 0.107731 -0.000027 0.994180
0.045382 0.243973 0.178592 -0.034991 -0.999356 -0.008008
0.772081 0.243971 0.245339 0.023911 -0.999637 0.012403
0.105976 0.263801 0.163902 -0.022770 0.999662 -0.012530
0.616877 0.224142 0.210646 0.001242 0.999294 0.037542
0.135549 0.263801 0.152175 -0.019300 0.999684 -0.016123
0.323914 0.263800 0.199053 -0.011671 0.999930 -0.001733
0.189156 0.243975 0.106689 -0.033453 -0.998988 -0.030063
0.220586 0.029311 0.326568 -0.072309 0.996150 0.049561
0.555221 0.215522 0.175825 0.016777 -0.999592 -0.023101
0.226556 0.243973 0.164001 -0.024024 -0.999633 -0.012499
0.777875 0.215534 0.278448 0.773535 0.000017 -0.633754
0.497434 0.243975 0.102268 -0.012368 -0.999429 -0.031444
0.768666 0.078621 0.278445 -0.143864 -0.959987 0.240268
0.930583 0.263797 0.287577 0.020332 0.999469 0.025457
0.284344 0.219223 0.278448 0.811541 0.000016 -0.584296
0.744393 0.263803 0.048971 0.035637 0.998227 -0.047681
0.223427 0.207327 0.229956 0.114665 0.000024 -0.993404
0.245803 0.230962 0.325000 -0.426442 -0.000025 0.904515
0.211575 0.215523 0.122316 -0.427295 -0.901548 -0.068044
0.640223 0.263803 0.054567 0.027678 0.998559 -0.045983
0.601141 0.263798 0.275696 -0.001349 0.999762 0.021790
0.375346 0.243967 0.373260 0.011296 -0.998603 0.051611
0.613448 0.215521 0.206147 0.002136 -0.999836 0.017991
0.478918 0.090952 0.199984 0.019803 0.778102 0.627826
0.338178 0.243975 0.081588 -0.025988 -0.998949 -0.037765
0.299523 0.029316 0.110117 0.068384 0.997652 0.003658
0.613028 0.263799 0.221894 0.005885 0.999969 0.005296
0.497592 0.215520 0.253502 -0.001618 -0.999127 0.041737
0.794864 0.029312 0.278567 0.090714 0.994666 -0.049092
0.609856 0.215519 0.280632 -0.001116 -0.995421 0.095584
0.280481 0.048836 0.084478 0.317694 0.000026 -0.948193
0.819281 0.263797 0.291340 0.012081 0.999573 0.026600
0.886341 0.243969 0.323957 0.041250 -0.998483 0.036481
0.491679 0.081675 0.207895 0.006304 -0.241930 -0.970273
0.242299 0.243970 0.277221 -0.009445 -0.999709 0.022216
0.540894 0.243969 0.315059 0.015987 -0.999301 0.033792
0.088668 0.263803 0.046141 -0.009961 0.998770 -0.048582
0.879238 0.243973 0.153732 0.020523 -0.999666 -0.015700
0.778846 0.109240 0.324996 0.658085 -0.000021 0.752944
0.254017 0.090950 0.256270 0.246972 0.960552 0.127847
0.773002 0.164738 0.084481 0.580118 0.000022 -0.814533
0.254831 0.090953 0.142926 0.231420 0.969274 -0.083387
0.911129 0.243975 0.079690 0.013940 -0.999166 -0.038379
0.187185 0.243969 0.313271 -0.009018 -0.999406 0.033261
0.770769 0.100727 0.184336 -0.252751 0.000021 -0.967531
0.226248 0.112226 0.248201 -0.089492 0.000023 -0.995988
0.772884 0.170431 0.161278 -0.097866 -0.000024 0.995200
0.254423 0.090953 0.164417 0.230412 0.971915 -0.047875
0.419792 0.263800 0.194445 -0.004399 0.999985 -0.003138
0.341425 0.263795 0.379777 -0.031907 0.998051 0.053632
0.127547 0.263800 0.180271 -0.023207 0.999702 -0.007509
0.347154 0.090952 0.190849 -0.045010 0.975707 -0.214406
0.635260 0.224140 0.271259 0.003283 0.996999 0.077344
0.961171 0.243971 0.230046 0.035349 -0.999345 0.007696
0.781121 0.110943 0.118731 0.934499 -0.000010 0.355965
0.816701 0.263798 0.269091 0.014549 0.999698 0.019783
0.740450 0.263780 0.025000 0.038235 0.997746 -0.055136
0.796207 0.218001 0.293996 0.801187 -0.580919 0.143640
0.549360 0.263798 0.257682 -0.002836 0.999864 0.016264
0.538169 0.243977 0.036421 -0.017332 -0.998518 -0.051599
0.231327 0.165532 0.131033 -0.505826 -0.000024 0.862636
0.261058 0.025006 0.129625 0.039988 -0.998691 0.031904
0.627031 0.243976 0.067808 -0.007378 -0.999090 -0.042003
0.945515 0.263800 0.178505 0.034363 0.999378 -0.007983
0.787621 0.090950 0.277507 0.279915 0.941677 0.186792
0.236741 0.136212 0.251605 0.596691 -0.000032 0.802471
0.272514 0.050192 0.131030 0.665712 -0.000020 0.746209
0.322928 0.263797 0.301335 -0.023904 0.999275 0.029629
0.223994 0.109577 0.234264 0.098126 -0.000024 0.995174
0.616101 0.243973 0.185822 0.005890 -0.999966 -0.005838
0.250960 0.090954 0.136268 0.218378 0.970491 -0.102265
0.375172 0.263804 0.037057 0.011185 0.998618 -0.051356
0.218879 0.071730 0.101925 -0.996822 0.000002 -0.079660
0.396097 0.090117 0.224275 0.004263 0.694572 0.719411
0.613103 0.107489 0.192378 -0.603965 0.000019 -0.797011
0.554434 0.090951 0.220635 0.029268 0.889943 0.455133
0.231746 0.247137 0.025000 -0.048835 -0.995545 -0.080660
0.467186 0.224142 0.192763 0.000235 0.999150 -0.041231
0.230170 0.156822 0.243390 0.112379 -0.000024 0.993665
0.294050 0.224144 0.142370 -0.004529 0.997198 -0.074663
0.246767 0.090950 0.273654 0.222379 0.964455 0.142740
0.735685 0.216460 0.084482 -0.032804 0.000027 -0.999462
0.719118 0.025002 0.264221 -0.026951 -0.998771 -0.041605
0.197303 0.263799 0.227896 -0.023983 0.999687 0.007103
0.236741 0.166116 0.188248 0.330239 -0.000033 0.943897
0.561653 0.243968 0.339557 0.020351 -0.998940 0.041291
0.211161 0.244766 0.384483 -0.000646 -0.998207 0.059860
0.254449 0.215523 0.146842 0.003546 -0.998632 -0.052175
0.786564 0.029316 0.125780 0.035529 0.999018 0.026483
0.065213 0.243974 0.149498 -0.037058 -0.999170 -0.016931
0.218879 0.028135 0.298476 -0.986662 -0.000004 0.162784
0.775296 0.102577 0.257324 -0.136249 0.000022 -0.990675
0.757272 0.060223 0.084478 -0.020392 0.000027 -0.999792
0.218879 0.035272 0.318836 -0.498538 -0.000024 0.866868
0.337384 0.088756 0.200999 -0.013200 0.609832 0.792421
0.053935 0.243975 0.103135 -0.043347 -0.998575 -0.031135
0.284569 0.074691 0.324088 0.785022 -0.000017 0.619467
0.748408 0.075866 0.194766 -0.173621 -0.984727 -0.013013
0.567607 0.224141 0.243956 0.001215 0.998238 0.059331
0.576439 0.243973 0.169980 0.001224 -0.999942 -0.010692
0.713782 0.029311 0.301811 -0.046046 0.998921 0.006048
0.783656 0.090954 0.122438 -0.048285 0.968511 -0.244243
0.373433 0.243971 0.251724 -0.003285 -0.999891 0.014390
0.935483 0.243969 0.318559 0.044052 -0.998422 0.034822
0.218879 0.142707 0.299559 -0.994658 0.000003 -0.103223
0.777668 0.149291 0.257325 0.055494 0.000023 -0.998459
0.071243 0.243976 0.077068 -0.045220 -0.998211 -0.039116
0.748846 0.075867 0.162739 -0.244474 -0.967765 -0.060518
0.731430 0.075866 0.204731 -0.296533 -0.955021 -0.001627
0.261949 0.090952 0.191109 0.260720 0.965248 0.017918
0.824818 0.243971 0.240896 0.027081 -0.999572 0.011036
0.715391 0.093474 0.080169 -0.190756 0.760710 -0.620429
0.135114 0.263801 0.161697 -0.020465 0.999703 -0.013204
0.393728 0.263802 0.110299 0.003783 0.999574 -0.028936
0.462092 0.243969 0.307511 0.009565 -0.999458 0.031484
0.816527 0.263796 0.362453 0.003429 0.998824 0.048364
0.219013 0.194742 0.084482 -0.461477 0.000024 -0.887152
0.180719 0.243974 0.115576 -0.032990 -0.999082 -0.027340
0.708522 0.215519 0.273445 0.000036 -0.997737 0.067243
0.780503 0.194558 0.193461 0.255881 0.000023 -0.966708
0.091335 0.243968 0.331428 -0.013573 -0.999154 0.038826
0.645557 0.243973 0.168587 0.005905 -0.999921 -0.011125
0.781121 0.085767 0.281924 -0.132927 0.873252 0.468788
0.733594 0.075867 0.137167 -0.430166 -0.897112 -0.100729
0.236741 0.140187 0.187271 0.788270 -0.000030 0.615330
0.740466 0.238054 0.278449 0.136579 0.000027 -0.990629
0.769399 0.095168 0.225140 0.031786 -0.000023 0.999495
0.513467 0.243968 0.353205 0.018593 -0.998793 0.045470
0.487606 0.263803 0.060721 0.016254 0.998894 -0.044113
0.727171 0.243973 0.155850 0.010112 -0.999836 -0.015037
0.462150 0.243972 0.200841 -0.003118 -0.999994 -0.001219
0.255420 0.129386 0.131032 0.086046 -0.000027 0.996291
0.027928 0.250400 0.384483 -0.071728 -0.985387 0.154493
0.385937 0.075865 0.216034 -0.027934 -0.999590 -0.006220
0.209202 0.224140 0.273203 -0.280555 0.959292 0.032369
0.587920 0.263800 0.169541 0.010354 0.999888 -0.010762
0.676873 0.081458 0.207895 0.055066 -0.269078 -0.961543
0.035524 0.243976 0.058911 -0.049865 -0.997757 -0.044662
0.677478 0.263804 0.043881 0.031554 0.998288 -0.049246
0.484083 0.215522 0.158859 0.008758 -0.999336 -0.035364
0.283759 0.243968 0.356101 0.002841 -0.998920 0.046367
0.046715 0.243973 0.174522 -0.035381 -0.999331 -0.009257
0.655021 0.215520 0.246938 0.000663 -0.998899 0.046905
0.623030 0.243973 0.166744 0.004106 -0.999923 -0.011688
0.722879 0.050848 0.084478 -0.728918 0.000019 -0.684601
0.231641 0.077378 0.324995 -0.234164 -0.000027 0.972197
0.927742 0.243975 0.088730 0.016181 -0.999235 -0.035615
0.512365 0.243969 0.318800 0.014431 -0.999285 0.034939
0.763745 0.025001 0.275245 0.022099 -0.997002 -0.074150
0.707620 0.224139 0.292250 0.013792 0.912762 0.408258
0.416168 0.243971 0.236683 -0.002078 -0.999950 0.009775
0.228809 0.138538 0.278446 -0.446884 0.000024 -0.894592
0.720864 0.111578 0.084480 -0.603858 0.000022 -0.797092
0.284569 0.056280 0.113584 0.999079 -0.000001 0.042903
0.205015 0.263802 0.102641 -0.008533 0.999474 -0.031291
0.640426 0.243970 0.275443 0.018258 -0.999599 0.021644
0.784359 0.191253 0.211709 0.337064 0.000033 -0.941482
0.087218 0.263801 0.156684 -0.023226 0.999622 -0.014745
0.218879 0.050867 0.114351 -0.841990 -0.000015 0.539492
0.770146 0.029311 0.304298 0.025903 0.999664 0.000903
0.052340 0.263797 0.298219 -0.042495 0.998686 0.028646
0.227235 0.143179 0.131032 -0.513816 -0.000024 0.857901
0.521585 0.243973 0.157539 -0.004102 -0.999886 -0.014503
0.651124 0.243969 0.314730 0.023675 -0.999152 0.033682
0.280251 0.224142 0.209571 0.001518 0.999645 -0.026592
0.751940 0.075867 0.169829 -0.201088 -0.978337 -0.049202
0.043555 0.243974 0.144221 -0.039202 -0.999059 -0.018547
0.686634 0.215519 0.284063 0.005761 -0.987253 0.159057
0.506393 0.243974 0.120973 -0.009516 -0.999624 -0.025712
0.786535 0.186843 0.224036 0.487515 -0.000014 0.873115
0.729114 0.263799 0.215948 0.014734 0.999885 0.003482
0.715431 0.171188 0.288402 -0.781562 0.000017 -0.623827
0.649384 0.263800 0.198801 0.011183 0.999936 -0.001783
0.737948 0.060210 0.084478 -0.445053 0.000025 -0.895504
0.410687 0.215521 0.215212 0.026535 -0.999639 -0.004126
0.737286 0.025006 0.130456 0.010684 -0.999392 0.033176
0.728963 0.079678 0.278444 -0.557520 0.000023 -0.830164
0.764365 0.208161 0.161279 -0.406898 -0.000022 0.913474
0.428867 0.243973 0.185702 -0.007254 -0.999957 -0.005860
0.573362 0.215521 0.207137 0.001588 -0.999867 0.016234
0.246510 0.215521 0.196214 -0.029798 -0.999412 -0.016978
0.337845 0.140347 0.210096 -0.864269 0.000012 -0.503030
0.952444 0.243972 0.196036 0.030692 -0.999525 -0.002734
0.888979 0.263797 0.302607 0.015626 0.999426 0.030057
0.926322 0.263801 0.162542 0.034915 0.999307 -0.012880
0.069359 0.243968 0.354511 -0.012365 -0.998870 0.045885
0.486156 0.263796 0.326096 -0.015401 0.999188 0.037226
0.504214 0.224142 0.213801 -0.000695 0.999388 0.034986
0.342219 0.173197 0.207897 -0.197098 0.000024 -0.980384
0.775697 0.169155 0.147844 0.064511 0.000033 -0.997917
0.390289 0.215518 0.291427 -0.002269 -0.971590 0.236660
0.513442 0.080660 0.224274 -0.009517 -0.367694 0.929898
0.516395 0.243974 0.136903 -0.006920 -0.999759 -0.020830
0.223591 0.122241 0.206894 0.051440 -0.000024 0.998676
0.025000 0.256162 0.355257 -0.175579 0.965094 0.194332
0.778669 0.118595 0.220830 -0.006862 0.000033 -0.999976
0.715431 0.240891 0.084678 -0.338478 0.000026 -0.940974
0.780874 0.095727 0.202583 -0.018476 0.000024 -0.999829
0.604149 0.224142 0.196721 0.000608 0.999597 0.028365
0.256858 0.215522 0.156670 -0.006121 -0.998995 -0.044400
0.549969 0.263799 0.231670 0.000301 0.999966 0.008288
0.781121 0.066139 0.303816 0.995631 0.000003 -0.093380
0.717053 0.154841 0.084481 -0.547453 0.000023 -0.836836
0.218609 0.224140 0.259941 0.045310 0.997508 0.054090
0.301908 0.243974 0.119306 -0.024052 -0.999367 -0.026208
0.466673 0.224139 0.290089 0.000545 0.995999 0.089367
0.814236 0.243969 0.311417 0.034713 -0.998864 0.032651
0.432317 0.263804 0.033645 0.015593 0.998505 -0.052396
0.950646 0.243974 0.116409 0.021083 -0.999409 -0.027143
0.217640 0.090950 0.290403 -0.073010 0.991725 0.105600
0.754079 0.025001 0.273891 0.011292 -0.997824 -0.064967
0.876773 0.263801 0.136541 0.034531 0.999186 -0.020856
0.116472 0.243976 0.053941 -0.044789 -0.997928 -0.046195
0.234672 0.136950 0.234265 0.278465 -0.000023 0.960446
0.796207 0.216954 0.213627 0.619932 -0.784196 -0.026851
0.534976 0.081067 0.224274 -0.002285 -0.319235 0.947673
0.965751 0.243975 0.101039 0.020311 -0.999286 -0.031851
0.178864 0.243973 0.156179 -0.028298 -0.999489 -0.014894
0.589080 0.263798 0.269486 -0.001456 0.999801 0.019886
0.560029 0.243973 0.171582 0.000264 -0.999948 -0.010199
0.558455 0.224141 0.219171 0.000348 0.999073 0.043039
0.381446 0.105470 0.207895 -0.062324 0.000024 -0.998056
0.208987 0.263797 0.319261 -0.034016 0.998804 0.035108
0.931772 0.243970 0.284856 0.039798 -0.998907 0.024501
0.651579 0.075866 0.196220 0.021324 -0.933331 0.358383
0.565741 0.263800 0.193612 0.005934 0.999977 -0.003382
0.119777 0.263800 0.183387 -0.024123 0.999688 -0.006554
0.213093 0.028009 0.146116 -0.188288 0.972142 0.139600
0.575337 0.243974 0.127775 -0.003873 -0.999713 -0.023631
0.932352 0.243968 0.342552 0.046670 -0.998020 0.042163
0.756744 0.263803 0.054062 0.035899 0.998290 -0.046124
0.246851 0.243967 0.378010 0.002859 -0.998587 0.053067
0.781121 0.041785 0.124281 0.923488 -0.000011 0.383627
0.101048 0.263802 0.087775 -0.014050 0.999258 -0.035852
0.581427 0.224141 0.225048 0.000957 0.998897 0.046941
0.731329 0.075866 0.190209 -0.330885 -0.943389 -0.023090
0.426344 0.215522 0.157564 0.006649 -0.999259 -0.037907
0.406484 0.263799 0.233535 -0.009983 0.999911 0.008849
0.774090 0.044518 0.131030 0.748567 -0.000018 0.663059
0.389785 0.263801 0.128357 0.001359 0.999725 -0.023402
0.920755 0.243970 0.279755 0.038421 -0.998998 0.022940
0.814381 0.263800 0.203891 0.022149 0.999755 -0.000208
0.853289 0.263798 0.279228 0.015908 0.999611 0.022893
0.344469 0.263799 0.236354 -0.014668 0.999845 0.009709
0.962243 0.263802 0.107424 0.043972 0.998589 -0.029767
0.356270 0.201219 0.207898 0.596918 0.000019 -0.802302
0.860131 0.243972 0.207292 0.025559 -0.999673 0.000726
0.233775 0.121080 0.147842 0.117662 0.000033 -0.993054
0.791405 0.215518 0.295375 0.343888 -0.933332 0.103117
0.093915 0.243973 0.164835 -0.033224 -0.999373 -0.012232
0.038626 0.263803 0.061039 -0.015240 0.998914 -0.044034
0.729546 0.132996 0.084480 -0.382743 0.000025 -0.923855
0.216610 0.029317 0.086861 -0.027381 0.999157 -0.030600
0.227271 0.090578 0.324996 0.255251 -0.730952 -0.632895
0.711747 0.243976 0.060359 -0.002327 -0.999016 -0.044285
0.284569 0.102496 0.111258 0.998276 -0.000002 0.058702
0.236741 0.179549 0.148733 0.619742 0.000032 -0.784806
0.266324 0.025000 0.325468 0.012668 -0.999436 0.031114
0.247112 0.263803 0.063749 -0.000958 0.999066 -0.043196
0.924495 0.263803 0.074698 0.045203 0.998185 -0.039789
0.284569 0.205369 0.295780 0.997856 0.000002 -0.065449
0.660401 0.263797 0.302410 -0.000371 0.999550 0.029980
0.500283 0.224139 0.293563 0.002959 0.987821 0.155564
0.217501 0.122774 0.188647 -0.096633 -0.000033 0.995320
0.085855 0.243972 0.203628 -0.029176 -0.999574 -0.000334
0.544663 0.243976 0.054073 -0.014782 -0.998823 -0.046201
0.355805 0.243969 0.304933 0.001808 -0.999527 0.030700
0.339367 0.263798 0.280271 -0.020248 0.999526 0.023175
0.614506 0.243975 0.079832 -0.006827 -0.999242 -0.038322
0.537372 0.215520 0.226702 0.000185 -0.999642 0.026759
0.486214 0.263799 0.218066 -0.002552 0.999988 0.004111
0.720776 0.084494 0.161853 -0.903407 0.350589 -0.246867
0.783897 0.091747 0.193459 0.043364 0.000024 -0.999059
0.345106 0.121981 0.207896 -0.295944 0.000023 -0.955205
0.714328 0.243971 0.230002 0.018036 -0.999808 0.007704
0.581629 0.263797 0.319810 -0.007962 0.999345 0.035306
0.694961 0.263796 0.356639 -0.004396 0.998905 0.046584
0.255454 0.091832 0.324996 0.198676 -0.000027 0.980065
0.213465 0.132445 0.215397 -0.362884 -0.000019 0.931834
0.121574 0.263803 0.075455 -0.011145 0.999153 -0.039618
0.235169 0.151236 0.156966 0.238014 0.000023 -0.971262
0.285902 0.027863 0.146116 0.107639 0.979907 0.167915
0.236741 0.131279 0.184759 0.305408 0.000020 -0.952222
0.477342 0.263804 0.043563 0.017571 0.998626 -0.049362
0.027696 0.263800 0.169070 -0.028874 0.999523 -0.010952
0.810931 0.243974 0.147314 0.014969 -0.999732 -0.017661
0.674703 0.090952 0.185690 0.009926 0.780593 -0.624960
0.162599 0.263798 0.270068 -0.031430 0.999305 0.020032
0.793390 0.263797 0.317286 0.007179 0.999378 0.034540
0.685654 0.263797 0.314928 -0.000090 0.999428 0.033815
0.333037 0.224143 0.148320 -0.003608 0.997492 -0.070692
0.312288 0.263798 0.275312 -0.021558 0.999533 0.021653
0.694729 0.263796 0.350364 -0.003666 0.998995 0.044664
0.586151 0.243973 0.167720 0.001636 -0.999934 -0.011385
0.864944 0.263798 0.268850 0.017961 0.999644 0.019714
0.483750 0.263800 0.194544 0.000074 0.999995 -0.003102
0.213665 0.184923 0.239079 -0.185731 0.000024 -0.982601
0.735405 0.243974 0.121950 0.006654 -0.999655 -0.025425
0.081043 0.243975 0.101259 -0.041671 -0.998628 -0.031713
0.311099 0.263798 0.244758 -0.018008 0.999762 0.012284
0.638405 0.215521 0.202075 0.002646 -0.999855 0.016846
0.439467 0.224141 0.214728 0.000314 0.999640 -0.026816
0.719575 0.029312 0.277392 -0.007953 0.999232 -0.038371
0.738189 0.243975 0.102433 0.004528 -0.999497 -0.031404
0.722412 0.058381 0.278444 -0.717315 0.000019 -0.696749
0.782632 0.202856 0.220833 0.329736 0.000033 -0.944073
0.449158 0.215523 0.111318 -0.016167 -0.931751 -0.362737
0.725503 0.224141 0.247298 -0.005978 0.998592 0.052707
0.236492 0.025000 0.336068 -0.023142 -0.995662 0.090123
0.290050 0.243967 0.367610 0.004649 -0.998744 0.049887
0.763653 0.130628 0.239078 -0.335099 0.000023 -0.942183
0.220112 0.206929 0.188650 -0.276833 -0.000033 0.960918
0.539444 0.243970 0.273622 0.010960 -0.999717 0.021093
0.025232 0.257239 0.384483 -0.117605 0.980100 0.159916
0.222613 0.263801 0.135685 -0.011232 0.999713 -0.021169
0.385320 0.263804 0.037584 0.011833 0.998619 -0.051195
