0.088041 0.816667 0.866840 -0.328869 0.830126 -0.450263
0.120849 0.975000 0.597227 -0.149101 0.980954 0.124490
0.062053 0.876551 0.975000 -0.647780 -0.497147 0.577258
0.915478 0.816667 0.782025 0.101457 -0.992163 0.072927
0.863738 0.334689 0.826085 -0.395632 -0.028915 -0.917954
0.315042 0.816667 0.588326 -0.121624 -0.989579 0.077078
0.898952 0.975000 0.856043 0.148480 0.988692 0.021041
0.703687 0.975000 0.767442 0.078804 0.996595 0.024260
0.179110 0.417294 0.117164 0.984566 -0.001188 0.175008
0.144304 0.935406 0.975000 -0.330313 0.773254 0.541269
0.589051 0.975000 0.715777 0.035843 0.998789 0.033698
0.793825 0.816667 0.369374 0.198260 -0.969615 -0.143320
0.168649 0.502460 0.850639 0.804016 0.026983 -0.593995
0.970138 0.071896 0.880869 0.988911 -0.118217 -0.089886
0.025000 0.929723 0.135317 -0.347868 0.909850 -0.226190
0.495144 0.816667 0.456960 0.005105 -0.999816 0.018518
0.345774 0.816667 0.899358 -0.206283 -0.963509 0.170581
0.025000 0.894338 0.514772 -0.992990 0.060779 0.101377
0.903475 0.975000 0.403991 0.156452 0.982762 -0.098498
0.025000 0.911405 0.523035 -0.747123 0.648237 0.146957
0.819163 0.513235 0.888152 -0.996835 0.030960 -0.073220
0.177177 0.504344 0.914779 0.973296 0.028142 0.227824
0.082679 0.613018 0.820541 -0.330238 0.063650 -0.941749
0.025000 0.921499 0.292167 -0.520021 0.843084 -0.137071
0.525760 0.816667 0.761151 -0.079255 -0.989410 0.121602
0.949660 0.816667 0.910115 0.069862 -0.988073 0.137225
0.155815 0.975000 0.154307 -0.105179 0.985502 -0.133126
0.054746 0.845399 0.025000 -0.113498 -0.979858 -0.164307
0.178170 0.469795 0.911724 0.980141 0.016481 0.197618
0.692786 0.975000 0.767355 0.074489 0.996833 0.027841
0.028910 0.217076 0.907867 -0.992938 -0.068780 0.096658
0.945660 0.963012 0.025000 0.217814 0.945044 -0.243822
0.143870 0.975000 0.704557 -0.145781 0.973348 0.177036
0.691974 0.816667 0.518976 0.084724 -0.996337 -0.011619
0.817547 0.177767 0.101457 -0.990562 -0.079901 -0.111370
0.975000 0.847269 0.365924 0.482589 -0.801113 -0.354013
0.879875 0.816667 0.055094 0.351887 -0.863950 -0.360229
0.197825 0.946273 0.025000 -0.070807 0.951546 -0.299243
0.432839 0.816667 0.103280 0.106730 -0.977765 -0.180511
0.975000 0.921944 0.533878 0.532771 0.796848 -0.284936
0.833784 0.068320 0.943818 -0.847541 -0.115721 0.517960
0.555071 0.816667 0.365315 0.071169 -0.995705 -0.059214
0.182499 0.082405 0.893265 0.991179 -0.111277 0.071989
0.082782 0.332394 0.971125 -0.298518 -0.029351 0.953953
0.139769 0.604755 0.036967 0.417922 0.062144 -0.906355
0.820779 0.254428 0.883178 -0.973998 -0.055189 -0.219731
0.177220 0.240632 0.122982 0.951029 -0.060536 0.303114
0.595487 0.816667 0.108470 0.191323 -0.952737 -0.235982
0.302053 0.975000 0.756570 -0.084212 0.984528 0.153662
0.970028 0.326402 0.119470 0.971915 -0.031471 0.233217
0.940626 0.619614 0.835311 0.543512 0.067214 -0.836706
0.878136 0.816667 0.388277 0.236252 -0.958135 -0.161745
0.127866 0.975000 0.535617 -0.142545 0.985928 0.087337
0.483489 0.975000 0.644253 -0.002857 0.999577 0.028949
0.025000 0.962780 0.233312 -0.205947 0.976041 -0.070213
0.823583 0.177791 0.125453 -0.974269 -0.082498 0.209746
0.182774 0.602847 0.102447 0.995031 0.059949 -0.079500
0.158888 0.816667 0.710675 -0.232420 -0.965173 0.120088
0.472761 0.975000 0.932845 -0.024455 0.980526 0.194862
0.612593 0.949380 0.025000 0.129098 0.944400 -0.302394
0.975000 0.912309 0.189098 0.607755 0.586538 -0.535357
0.946550 0.309973 0.047948 0.692778 -0.037433 -0.720179
0.870340 0.129494 0.029622 -0.235461 -0.095599 -0.967170
0.227861 0.975000 0.045353 -0.078420 0.983166 -0.165029
0.934961 0.975000 0.505987 0.166120 0.983417 -0.072765
0.025000 0.925423 0.257607 -0.455438 0.876913 -0.153621
0.935516 0.720098 0.831598 0.442770 0.101677 -0.890852
0.067242 0.816667 0.374129 -0.167266 -0.985686 0.021094
0.063053 0.292167 0.832638 -0.512445 -0.043463 -0.857619
0.025000 0.973845 0.073418 -0.155506 0.978171 -0.137838
0.909535 0.816667 0.700411 0.130490 -0.991135 0.024959
0.439652 0.975000 0.772516 -0.028548 0.992812 0.116228
0.154655 0.816667 0.725374 -0.238925 -0.963003 0.124657
0.440551 0.816667 0.271205 0.046555 -0.995927 -0.077214
0.033259 0.468828 0.129587 -0.936533 0.016104 0.350208
0.847272 0.289268 0.046383 -0.610014 -0.043963 -0.791170
0.025000 0.954932 0.684581 -0.275834 0.931415 0.237449
0.850071 0.829525 0.975000 0.018434 -0.976123 0.216436
0.177815 0.314225 0.912818 0.965284 -0.035444 0.258788
0.063597 0.667911 0.167758 -0.471054 0.083891 0.878106
0.954937 0.816667 0.224875 0.334123 -0.897468 -0.287948
0.267378 0.816667 0.747901 -0.194610 -0.972544 0.127612
0.780199 0.975000 0.716154 0.109072 0.993974 -0.010923
0.970881 0.731960 0.908510 0.991928 0.105094 0.070953
0.924698 0.816667 0.350355 0.275028 -0.939965 -0.202053
0.052891 0.975000 0.368185 -0.162479 0.986550 0.017853
0.914454 0.639619 0.820541 0.170341 0.072207 -0.982736
0.612709 0.975000 0.930844 0.032814 0.988670 0.146474
0.706761 0.816667 0.369084 0.151316 -0.982139 -0.111836
0.975000 0.928926 0.489577 0.455199 0.852341 -0.257505
0.698875 0.816667 0.873613 -0.035066 -0.988281 0.148563
0.032424 0.284774 0.918681 -0.963554 -0.045869 0.263554
0.116182 0.879267 0.025000 -0.230455 -0.788890 -0.569686
0.835885 0.255080 0.945344 -0.800930 -0.055216 0.596207
0.819901 0.124880 0.094212 -0.970264 -0.098381 -0.221155
0.043651 0.504682 0.944931 -0.758212 0.027825 0.651414
0.968085 0.573419 0.082884 0.943605 0.051350 -0.327067
0.135306 0.025000 0.103850 0.507838 -0.859521 0.057661
0.051064 0.816667 0.583977 -0.241536 -0.966622 0.085450
0.174683 0.229953 0.077545 0.952883 -0.064291 -0.296448
0.204551 0.816667 0.073650 -0.002109 -0.993279 -0.115726
0.895012 0.445248 0.028875 -0.017884 0.008162 -0.999807
0.894256 0.816667 0.938179 0.033625 -0.986712 0.158961
0.060574 0.884133 0.975000 -0.687823 -0.329020 0.647028
0.144589 0.667718 0.832135 0.469008 0.083822 -0.879207
0.650602 0.975000 0.192809 0.069867 0.987021 -0.144599
0.827472 0.249137 0.929088 -0.920951 -0.056920 0.385500
0.094112 0.064140 0.179459 -0.239195 -0.120602 0.963453
0.931772 0.975000 0.401237 0.166292 0.980966 -0.100265
0.581339 0.816667 0.257810 0.126878 -0.982422 -0.136923
0.047511 0.664987 0.156071 -0.679434 0.080500 0.729307
0.288021 0.816667 0.600300 -0.137995 -0.987050 0.081794
0.668867 0.975000 0.808032 0.062689 0.996312 0.058579
0.250765 0.975000 0.787215 -0.106919 0.976361 0.187849
0.970361 0.975000 0.563421 0.177589 0.982337 -0.058963
0.211538 0.975000 0.577164 -0.110730 0.990400 0.082744
0.770602 0.955643 0.975000 0.104692 0.979153 0.174067
0.462179 0.975000 0.928496 -0.028530 0.980190 0.195995
0.602880 0.975000 0.237081 0.052363 0.989997 -0.131013
0.222526 0.816667 0.831371 -0.241143 -0.958153 0.154251
0.473225 0.816667 0.673593 -0.075614 -0.992418 0.096893
0.038920 0.351239 0.147009 -0.848355 -0.023089 0.528923
0.107908 0.138071 0.179459 -0.037913 -0.095774 0.994681
0.079482 0.473491 0.970964 -0.296515 0.017362 0.954870
0.873033 0.816667 0.379985 0.236681 -0.957447 -0.165157
0.025000 0.882596 0.572438 -0.900329 -0.405598 0.157789
0.916543 0.731550 0.028875 0.168025 0.101733 -0.980519
0.429418 0.975000 0.883789 -0.039338 0.982485 0.182141
0.687510 0.816667 0.232964 0.193438 -0.962297 -0.191224
0.195186 0.975000 0.418690 -0.107312 0.994224 -0.001355
0.027773 0.333046 0.904368 -0.995843 -0.029450 0.086195
0.867751 0.679170 0.176830 -0.283893 0.085725 0.955016
0.170369 0.816667 0.740421 -0.236503 -0.963074 0.128668
0.055971 0.816667 0.111861 -0.778590 0.585739 0.225185
0.203942 0.816667 0.580469 -0.170522 -0.982189 0.078912
0.160569 0.975000 0.892719 -0.148399 0.950145 0.274232
0.503986 0.975000 0.828443 -0.005468 0.992023 0.125939
0.716328 0.816667 0.520686 0.097104 -0.995090 -0.019168
0.656488 0.816667 0.594327 0.037085 -0.998211 0.046893
0.940499 0.975000 0.206204 0.171323 0.973476 -0.151634
0.892342 0.975000 0.804698 0.147012 0.989104 0.007819
0.473486 0.975000 0.310722 0.005250 0.994342 -0.106097
0.914869 0.816667 0.228441 0.313148 -0.909679 -0.272806
0.634975 0.975000 0.806321 0.049168 0.996401 0.069053
0.040011 0.660131 0.150365 -0.763294 0.078494 0.641265
0.025000 0.855063 0.069678 -0.200628 -0.965729 -0.164667
0.051697 0.638580 0.840888 -0.734787 0.073648 -0.674288
0.899996 0.816667 0.416690 0.237102 -0.959582 -0.151605
0.097858 0.816667 0.190316 -0.094063 -0.994937 -0.035384
0.025000 0.918518 0.389669 -0.602711 0.796612 -0.046360
0.975000 0.838948 0.565045 0.326988 -0.934560 -0.140272
0.875274 0.084072 0.820541 -0.158237 -0.110123 -0.981241
0.926907 0.490766 0.966322 0.425802 0.023319 0.904516
0.878368 0.816667 0.476386 0.202343 -0.973586 -0.105768
0.154295 0.399125 0.047521 0.665785 -0.007294 -0.746108
0.032567 0.635367 0.919123 -0.926100 0.072647 0.370218
0.122770 0.698715 0.820541 0.151841 0.091311 -0.984178
0.975000 0.940059 0.701948 0.356486 0.928161 -0.106932
0.787157 0.816667 0.603895 0.102577 -0.994694 0.007804
0.933947 0.816667 0.547765 0.204464 -0.975573 -0.080325
0.817057 0.258052 0.105367 -0.997936 -0.053700 -0.035201
0.960963 0.143942 0.060964 0.875116 -0.090870 -0.475304
0.047097 0.025000 0.900740 -0.896112 -0.442555 -0.033591
0.834096 0.816667 0.883586 0.023476 -0.989124 0.145200
0.178554 0.532129 0.881123 0.972387 0.037051 -0.230413
0.040221 0.975000 0.339888 -0.165742 0.986150 0.006178
0.174765 0.668926 0.869461 0.904308 0.084244 -0.418486
0.158316 0.236453 0.050442 0.746317 -0.062197 -0.662678
0.975000 0.849264 0.786954 0.264145 -0.963089 0.051832
0.827032 0.431380 0.072267 -0.909827 0.003538 -0.414972
0.289847 0.871637 0.975000 -0.446734 -0.690320 0.569111
0.250243 0.816667 0.890690 -0.246909 -0.953825 0.171040
0.506045 0.975000 0.706732 0.002639 0.998396 0.056561
0.089827 0.975000 0.927365 -0.177314 0.932787 0.313795
0.591370 0.816667 0.453742 0.056428 -0.998266 -0.016784
0.108458 0.025000 0.850047 0.166592 -0.632134 -0.756739
0.454119 0.816667 0.227803 0.070338 -0.991493 -0.109516
0.629640 0.975000 0.210669 0.062206 0.988328 -0.139062
0.331539 0.816667 0.296574 -0.019338 -0.999552 -0.022838
0.922689 0.660276 0.177721 0.412273 0.078735 0.907652
0.059240 0.816667 0.268944 -0.137066 -0.990507 -0.010443
0.550056 0.816667 0.896749 -0.111246 -0.980476 0.162145
0.739290 0.890608 0.975000 0.089582 -0.403262 0.910689
0.086232 0.816667 0.685625 -0.257404 -0.959445 0.114931
0.847983 0.975000 0.264102 0.138682 0.981327 -0.133287
0.090590 0.427780 0.971125 -0.172278 0.002328 0.985046
0.958366 0.091079 0.848199 0.848380 -0.108183 -0.518216
0.025000 0.891231 0.696613 -0.908310 -0.105515 0.404770
0.148740 0.975000 0.647587 -0.140650 0.979596 0.143558
0.145076 0.434472 0.959177 0.547507 0.004562 0.836789
0.053655 0.463900 0.952200 -0.655225 0.014407 0.755296
0.924350 0.975000 0.288050 0.164962 0.977732 -0.129722
0.453742 0.975000 0.102062 0.000849 0.987056 -0.160375
0.975000 0.874502 0.262159 0.714727 -0.368495 -0.594455
0.104529 0.523697 0.028875 -0.026544 0.034561 -0.999050
0.544141 0.816667 0.709196 -0.054177 -0.993011 0.104853
0.971563 0.524397 0.093590 0.984256 0.034521 -0.173344
0.822105 0.676947 0.087431 -0.985770 0.086899 -0.143897
0.418371 0.975000 0.385088 -0.015374 0.996351 -0.083950
0.032297 0.784848 0.126623 -0.907691 0.123947 0.400917
0.039973 0.179700 0.941914 -0.851406 -0.079051 0.518515
0.235689 0.816667 0.936411 -0.267326 -0.945695 0.184928
0.414776 0.816667 0.136998 0.084210 -0.984693 -0.152605
0.848592 0.975000 0.541851 0.135569 0.988954 -0.059931
0.071063 0.796952 0.826818 -0.530809 0.125928 -0.838084
0.897957 0.273080 0.971125 -0.017496 -0.049703 0.998611
0.129731 0.816667 0.177703 0.437661 0.139466 0.888258
0.975000 0.913744 0.595690 0.642139 0.698531 -0.315773
0.866423 0.816667 0.479256 0.194741 -0.975785 -0.099597
0.959286 0.816667 0.450843 0.255733 -0.954844 -0.151241
0.913214 0.025000 0.915524 0.240913 -0.904384 0.352208
0.942528 0.975000 0.882775 0.163121 0.986258 0.026208
0.175645 0.975000 0.494187 -0.120304 0.991585 0.047816
0.142623 0.975000 0.380855 -0.126452 0.991960 -0.005036
0.025000 0.958957 0.531848 -0.246782 0.960807 0.126288
0.336757 0.975000 0.334148 -0.043787 0.994615 -0.093929
0.421387 0.975000 0.417125 -0.014705 0.997034 -0.075550
0.881854 0.120772 0.971125 -0.271189 -0.100870 0.957226
0.739986 0.816667 0.633989 0.065738 -0.996926 0.042635
0.189881 0.816667 0.680029 -0.208669 -0.971808 0.109753
0.456062 0.975000 0.354240 -0.001527 0.995592 -0.093782
0.367083 0.975000 0.119255 -0.030211 0.987907 -0.152074
0.049880 0.524832 0.949458 -0.685499 0.034670 0.727247
0.975000 0.912507 0.939165 0.529020 0.801999 0.277372
0.831973 0.317439 0.150836 -0.825509 -0.034060 0.563361
0.110305 0.025000 0.905095 0.070300 -0.987485 0.141178
0.820229 0.498401 0.093204 -0.992157 0.026090 -0.122248
0.082523 0.196225 0.971125 -0.341404 -0.074280 0.936977
0.190983 0.836338 0.975000 -0.352442 -0.894410 0.275345
0.859226 0.352592 0.037697 -0.466045 -0.022991 -0.884462
0.458004 0.816667 0.228818 0.072015 -0.991287 -0.110289
0.136042 0.975000 0.761180 -0.151881 0.965636 0.210899
0.964622 0.286054 0.136108 0.888720 -0.045535 0.456183
0.070373 0.816667 0.338033 -0.154202 -0.987988 0.010025
0.527934 0.975000 0.682755 0.012985 0.999279 0.035675
0.250678 0.975000 0.287615 -0.075680 0.992859 -0.092218
0.727229 0.816667 0.133635 0.250968 -0.930586 -0.266505
0.842513 0.700938 0.049840 -0.755751 0.094633 -0.647985
0.906310 0.775473 0.179459 0.243889 0.119832 0.962371
0.624161 0.927588 0.025000 0.246945 0.842751 -0.478319
0.613144 0.816667 0.708877 -0.022319 -0.994557 0.101772
0.975000 0.881277 0.845925 0.678314 -0.711532 0.183333
0.945746 0.975000 0.663185 0.167701 0.985329 -0.031679
0.357110 0.907327 0.975000 -0.386328 0.332704 0.860267
0.871400 0.043434 0.028875 -0.193492 -0.122593 -0.973413
0.975000 0.935111 0.053790 0.388003 0.833086 -0.394236
0.179157 0.374095 0.908685 0.982360 -0.015642 0.186343
0.077969 0.975000 0.463281 -0.158445 0.985347 0.063134
0.116878 0.816667 0.605084 -0.218312 -0.971760 0.089566
0.121428 0.153123 0.028875 0.301750 -0.089430 -0.949183
0.133055 0.320483 0.032089 0.402864 -0.033327 -0.914653
0.842273 0.685596 0.050015 -0.755432 0.089419 -0.649096
0.278221 0.816667 0.278772 -0.039671 -0.999094 -0.015434
0.905756 0.411254 0.820541 0.130637 -0.003217 -0.991425
0.168797 0.510215 0.940571 0.837973 0.029540 0.544912
0.973579 0.975000 0.620015 0.177920 0.983053 -0.044166
0.836387 0.816667 0.902772 -0.893199 0.393263 0.218035
0.903330 0.839711 0.975000 0.064262 -0.969301 0.237330
0.364793 0.975000 0.071214 -0.030388 0.985898 -0.164566
0.073463 0.612728 0.033408 -0.453950 0.063511 -0.888761
0.049396 0.368538 0.050894 -0.702978 -0.017489 -0.710996
0.828068 0.223986 0.139258 -0.913815 -0.065141 0.400872
0.176689 0.383107 0.875385 0.965120 -0.012657 -0.261501
0.093408 0.550781 0.820541 -0.178757 0.043852 -0.982916
0.845152 0.816667 0.146272 -0.652980 0.301296 0.694866
0.409500 0.816667 0.043265 0.117143 -0.970722 -0.209703
0.906403 0.159598 0.179459 0.056562 -0.087321 0.994573
0.598444 0.816667 0.599981 0.005213 -0.997598 0.069078
0.453800 0.975000 0.251287 -0.001025 0.992649 -0.121024
0.897851 0.921842 0.975000 0.294463 0.900060 0.321223
0.185358 0.975000 0.262739 -0.100719 0.991310 -0.084617
0.932758 0.816667 0.972217 0.040369 -0.985057 0.167431
0.478009 0.975000 0.872221 -0.018730 0.987048 0.159325
0.718764 0.975000 0.455366 0.090901 0.992821 -0.077744
0.726736 0.816667 0.117080 0.256592 -0.926190 -0.276284
0.178370 0.120821 0.880557 0.988724 -0.101706 -0.109911
0.245460 0.975000 0.058805 -0.072421 0.984072 -0.162348
0.817646 0.546142 0.107180 -0.996005 0.041450 0.079096
0.149043 0.324687 0.164629 0.571779 -0.032270 0.819773
0.169859 0.297675 0.062696 0.865960 -0.040853 -0.498442
0.975000 0.929955 0.294283 0.439480 0.832479 -0.337397
0.054109 0.889255 0.025000 -0.521620 -0.475692 -0.708258
0.885931 0.347978 0.820541 -0.104803 -0.024337 -0.994195
0.876628 0.816667 0.623291 0.143282 -0.989613 -0.011678
0.398569 0.975000 0.071620 -0.018394 0.985962 -0.165955
0.134070 0.975000 0.135810 -0.112600 0.984225 -0.136465
0.831102 0.057327 0.148595 -0.877415 -0.118484 0.464870
0.172650 0.291756 0.071285 0.918466 -0.042929 -0.393163
0.829055 0.136694 0.066039 -0.818025 -0.095228 -0.567245
0.110968 0.291804 0.179459 0.048009 -0.042973 0.997922
0.156742 0.816667 0.887037 -0.287429 -0.942120 0.172614
0.033696 0.449210 0.130931 -0.932262 0.009519 0.361659
0.878687 0.816667 0.473892 0.203491 -0.973160 -0.107476
0.025000 0.848211 0.619029 -0.443201 -0.887190 0.128323
0.082174 0.816667 0.942234 -0.263691 0.542844 0.797363
0.958822 0.975000 0.347890 0.176218 0.977581 -0.115252
0.925277 0.071098 0.175841 0.275594 -0.116146 0.954232
0.819547 0.045464 0.095303 -0.965348 -0.125245 -0.228946
0.667998 0.975000 0.863234 0.059177 0.994199 0.089812
0.025000 0.950062 0.925394 -0.308423 0.855919 0.415063
0.230123 0.816667 0.102990 0.000158 -0.994296 -0.106658
0.220439 0.975000 0.092698 -0.081695 0.984949 -0.152318
0.846619 0.630414 0.046857 -0.696518 0.071056 -0.714012
0.375810 0.825998 0.975000 -0.230192 -0.946752 0.225103
0.818553 0.233964 0.109972 -0.997890 -0.062376 0.018040
0.043787 0.875570 0.975000 -0.652752 -0.506853 0.563041
0.079506 0.975000 0.433535 -0.155905 0.986710 0.045802
0.962278 0.428649 0.143324 0.864116 0.002612 0.503286
0.025000 0.948095 0.086928 -0.229030 0.954733 -0.189815
0.196259 0.816667 0.543735 -0.162296 -0.984398 0.067975
0.038262 0.138385 0.063351 -0.797491 -0.094031 -0.595958
0.124560 0.387818 0.971125 0.249745 -0.010967 0.968250
0.497289 0.816667 0.733521 -0.083622 -0.989920 0.114305
0.955543 0.669191 0.153852 0.812554 0.082637 0.576998
0.445682 0.975000 0.482706 -0.008603 0.998779 -0.048649
0.113514 0.816667 0.543213 -0.200205 -0.977188 0.070869
0.975000 0.849834 0.334670 0.515905 -0.759421 -0.396385
0.100882 0.816667 0.951385 0.057076 0.455732 0.888285
0.033669 0.816667 0.202985 -0.127581 -0.991395 -0.029312
0.636251 0.975000 0.289644 0.063617 0.990920 -0.118447
0.973720 0.216351 0.899772 0.990972 -0.067458 0.115860
0.480821 0.975000 0.283875 0.008211 0.993500 -0.113538
0.866280 0.512704 0.032572 -0.410080 0.030550 -0.911538
0.025000 0.912598 0.054659 -0.479402 0.753956 -0.449138
0.089125 0.216665 0.971125 -0.255607 -0.068588 0.964345
0.896662 0.816667 0.644224 0.145846 -0.989291 -0.005629
0.043817 0.209248 0.153387 -0.812367 -0.070333 0.578890
0.485721 0.816667 0.250011 0.078632 -0.991148 -0.106969
0.644485 0.864751 0.975000 -0.085983 -0.870599 0.484421
0.858479 0.343000 0.829906 -0.473939 -0.026239 -0.880167
0.174162 0.659141 0.867605 0.894886 0.080882 -0.438905
0.624625 0.975000 0.786345 0.046145 0.997050 0.061333
0.124655 0.424542 0.971125 0.262099 0.001233 0.965040
0.035413 0.285281 0.136213 -0.923512 -0.045037 0.380916
0.799943 0.975000 0.563914 0.118180 0.991622 -0.052140
0.843896 0.816667 0.168368 0.298142 -0.911004 -0.284926
0.939543 0.816667 0.851281 0.570470 0.342831 -0.746345
0.078433 0.975000 0.403730 -0.154387 0.987575 0.029332
0.842778 0.672936 0.950352 -0.635628 0.084141 0.767396
0.873704 0.438265 0.028875 -0.286235 0.005776 -0.958142
0.916837 0.816667 0.913849 0.374797 0.893142 0.248646
0.025000 0.829511 0.222150 -0.170997 -0.984636 -0.035378
0.025000 0.873835 0.359313 -0.630156 -0.775771 -0.032895
0.922746 0.168707 0.969346 0.268502 -0.083343 0.959667
0.206465 0.975000 0.243343 -0.090726 0.990641 -0.101974
0.911912 0.816667 0.739000 0.116486 -0.992034 0.047956
0.240995 0.816667 0.426605 -0.103949 -0.994114 0.030521
0.045411 0.975000 0.793159 -0.189130 0.947763 0.256857
0.974181 0.312703 0.898354 0.997099 -0.035762 0.067192
0.849262 0.596758 0.044936 -0.657848 0.059551 -0.750792
0.975000 0.916638 0.520889 0.597488 0.729074 -0.333855
0.050890 0.816667 0.240531 -0.131755 -0.991106 -0.018684
0.544373 0.975000 0.682088 0.019705 0.999362 0.029779
0.975000 0.857720 0.335858 0.587307 -0.670559 -0.453234
0.165280 0.416545 0.152832 0.780482 -0.001424 0.625176
0.100190 0.586224 0.028875 -0.102138 0.055978 -0.993194
0.038887 0.816667 0.694990 -0.281403 -0.952155 0.119217
0.892004 0.816667 0.029068 -0.171657 0.137359 -0.975534
0.395438 0.975000 0.523643 -0.031581 0.999458 -0.009318
0.975000 0.903683 0.797131 0.823870 0.566387 -0.021089
0.203855 0.975000 0.510394 -0.109707 0.992828 0.047496
0.856161 0.560590 0.168410 -0.489221 0.047258 0.870879
0.280889 0.816667 0.934120 -0.246422 -0.951735 0.182965
0.498884 0.816667 0.758454 -0.090854 -0.988376 0.121898
0.541155 0.816667 0.950240 -0.132360 -0.974945 0.178780
0.963287 0.510336 0.068117 0.869383 0.030100 -0.493221
0.085973 0.152157 0.179459 -0.313267 -0.089547 0.945434
0.972045 0.137709 0.886739 0.994976 -0.095036 -0.031482
0.127315 0.816667 0.092089 -0.047987 -0.995909 -0.076567
0.900431 0.025000 0.864542 0.140300 -0.849433 -0.508703
0.403324 0.816667 0.660604 -0.103864 -0.989972 0.095753
0.722707 0.975000 0.210669 0.095223 0.985177 -0.142687
0.167087 0.816667 0.124470 0.945019 0.272572 0.180674
0.950807 0.369480 0.948958 0.705488 -0.017173 0.708513
0.557565 0.816667 0.253201 0.115878 -0.984565 -0.131167
0.818005 0.816667 0.612506 0.115803 -0.993269 0.002326
0.057662 0.690984 0.836554 -0.677449 0.091798 -0.729819
0.828587 0.686925 0.859146 -0.911824 0.088179 -0.401000
0.271582 0.975000 0.481488 -0.079890 0.996768 0.008396
0.113106 0.025000 0.050686 0.248452 -0.489091 -0.836099
0.113212 0.442735 0.820541 0.109572 0.007341 -0.993952
0.930407 0.488350 0.963780 0.474886 0.022564 0.879758
0.672926 0.975000 0.198057 0.077733 0.986507 -0.144091
0.939517 0.436743 0.834505 0.576514 0.005314 -0.817070
0.573018 0.816667 0.926814 -0.110166 -0.979203 0.170369
0.071944 0.347470 0.826178 -0.401267 -0.024623 -0.915630
0.906954 0.861475 0.975000 0.137494 -0.932491 0.334001
0.026102 0.975000 0.862538 -0.199268 0.933145 0.299221
0.850619 0.070712 0.835617 -0.506539 -0.119157 -0.853944
0.632482 0.975000 0.634366 0.057763 0.997992 -0.026001
0.031262 0.975000 0.774023 -0.193815 0.948387 0.250996
0.916928 0.975000 0.869554 0.154491 0.987707 0.023827
0.038134 0.975000 0.565161 -0.180745 0.974377 0.133864
0.926380 0.366557 0.175040 0.382336 -0.018160 0.923845
0.145622 0.179796 0.167114 0.485408 -0.081830 0.870450
0.937544 0.444499 0.041405 0.548614 0.007932 -0.836038
0.158204 0.184218 0.949638 0.651076 -0.078620 0.754930
0.911838 0.181053 0.028875 0.278186 -0.080372 -0.957159
0.975000 0.844355 0.826152 0.209525 -0.973696 0.089525
0.844032 0.269915 0.159597 -0.713782 -0.051008 0.698508
0.843113 0.975000 0.859465 0.128403 0.991298 0.028996
0.975000 0.934942 0.164599 0.392965 0.848787 -0.353751
0.168960 0.348412 0.059929 0.838823 -0.023967 -0.543876
0.282744 0.897445 0.975000 -0.528504 -0.000364 0.848931
0.857174 0.816667 0.068547 0.337161 -0.875507 -0.346135
0.710994 0.816667 0.417937 0.134492 -0.987496 -0.082243
0.383957 0.817228 0.975000 -0.213127 -0.957638 0.193667
0.941495 0.816667 0.890616 0.747488 0.639269 -0.180549
0.975000 0.948501 0.931598 0.247327 0.966938 0.062121
0.180432 0.461290 0.886903 0.991179 0.013522 -0.131836
0.738247 0.845563 0.025000 0.406507 -0.760408 -0.506490
0.836763 0.816667 0.850709 0.034883 -0.990235 0.134975
0.188808 0.975000 0.250794 -0.098470 0.990856 -0.092241
0.888283 0.975000 0.959634 0.140580 0.987645 0.069238
0.750452 0.975000 0.969057 0.086041 0.988919 0.120983
0.878919 0.934855 0.975000 0.210829 0.952708 0.218856
0.865988 0.975000 0.810641 0.137734 0.990414 0.010484
0.266450 0.975000 0.328871 -0.071990 0.994595 -0.074819
0.163175 0.470640 0.154361 0.770230 0.016630 0.637549
0.555100 0.937571 0.975000 -0.038623 0.915784 0.399809
0.620450 0.816667 0.293094 0.134271 -0.982543 -0.128765
0.069409 0.214660 0.036353 -0.398867 -0.069603 -0.914363
0.808235 0.975000 0.423880 0.122912 0.988362 -0.089632
0.960156 0.975000 0.132331 0.178697 0.968858 -0.171409
0.887037 0.963398 0.025000 0.193768 0.951101 -0.240543
0.261985 0.975000 0.326320 -0.073649 0.994478 -0.074764
0.042799 0.362643 0.944313 -0.794917 -0.019324 0.606411
0.444610 0.975000 0.898750 -0.033986 0.982081 0.185372
0.577976 0.816667 0.842910 -0.081147 -0.986173 0.144491
0.862311 0.638894 0.035456 -0.499779 0.072089 -0.863148
0.862538 0.901320 0.025000 0.612222 0.331458 -0.717858
0.295008 0.975000 0.348238 -0.061581 0.995393 -0.073495
0.767152 0.965858 0.025000 0.138931 0.964058 -0.226475
0.930164 0.399464 0.036044 0.458788 -0.007161 -0.888517
0.123892 0.059864 0.179459 0.141374 -0.118666 0.982818
0.687799 0.838093 0.975000 -0.065160 -0.961817 0.265824
0.025000 0.868931 0.719865 -0.693736 -0.670826 0.262149
0.425185 0.975000 0.509292 -0.018541 0.999458 -0.027189
0.828555 0.084411 0.932421 -0.918127 -0.112225 0.380063
0.375085 0.965457 0.975000 -0.083291 0.953142 0.290832
0.420227 0.975000 0.966360 -0.047832 0.971837 0.230750
0.824091 0.740876 0.918683 -0.912692 0.108848 0.393885
0.286629 0.816667 0.240125 -0.021494 -0.998897 -0.041758
0.288775 0.975000 0.497376 -0.073815 0.997205 0.011581
0.315506 0.901659 0.025000 0.125503 0.459362 -0.879338
0.399903 0.975000 0.831255 -0.048379 0.985487 0.162713
0.863147 0.975000 0.973840 0.130110 0.987805 0.085520
0.025000 0.974874 0.453858 -0.179834 0.980795 0.075504
0.916264 0.811883 0.028875 0.141420 0.128626 -0.981558
0.153029 0.493955 0.953398 0.662396 0.024637 0.748749
0.761267 0.975000 0.144623 0.109528 0.980786 -0.161438
0.927537 0.390210 0.965865 0.406173 -0.010259 0.913738
0.607258 0.816667 0.268567 0.136668 -0.980738 -0.139551
0.899271 0.401855 0.179459 0.038295 -0.006340 0.999246
0.159497 0.816667 0.354965 -0.118562 -0.992876 0.011837
0.932855 0.230123 0.037998 0.539646 -0.063585 -0.839487
0.163537 0.204682 0.945764 0.716607 -0.071347 0.693818
0.443305 0.965906 0.025000 0.012016 0.976956 -0.213104
0.369374 0.816667 0.181560 0.043158 -0.993228 -0.107871
0.414167 0.975000 0.747640 -0.037546 0.993132 0.110813
0.828582 0.146890 0.859161 -0.831069 -0.092116 -0.548488
0.573308 0.816667 0.500246 0.029289 -0.999407 0.018126
0.521933 0.975000 0.743233 0.006962 0.997396 0.071783
0.044038 0.268828 0.945213 -0.800207 -0.050620 0.597584
0.366127 0.975000 0.104353 -0.030354 0.987300 -0.155943
0.025000 0.938325 0.801798 -0.387828 0.840466 0.378428
0.078873 0.807389 0.178856 -0.203088 0.125958 0.971025
0.508016 0.975000 0.956967 -0.011458 0.980457 0.196398
0.418516 0.816667 0.432317 -0.024085 -0.999386 0.025447
0.169905 0.816667 0.597024 -0.191482 -0.977790 0.085217
0.717575 0.975000 0.767355 0.084294 0.996248 0.019599
0.025000 0.888274 0.161845 -0.785318 -0.473034 -0.399394
0.505320 0.975000 0.578845 0.009890 0.999839 -0.014962
0.819468 0.045271 0.112787 -0.992079 -0.125541 -0.004307
0.037333 0.088905 0.142124 -0.910733 -0.110257 0.398006
0.975000 0.906036 0.594559 0.749783 0.550501 -0.367115
0.954850 0.922306 0.025000 0.481876 0.710572 -0.512721
0.903098 0.975000 0.350819 0.156930 0.981183 -0.112489
0.080275 0.731091 0.971125 -0.207546 0.101315 0.972965
0.877440 0.862523 0.975000 0.116042 -0.925933 0.359420
0.112984 0.058849 0.179459 0.003736 -0.122301 0.992486
0.390249 0.874802 0.975000 -0.367991 -0.688054 0.625431
0.034754 0.664214 0.925851 -0.882882 0.082549 0.462282
0.704731 0.968520 0.975000 0.068113 0.985163 0.157526
0.219946 0.816667 0.349485 -0.088916 -0.996008 0.007924
0.961423 0.816667 0.100057 0.936117 0.304500 -0.175967
0.166181 0.430051 0.847823 0.788270 0.003054 -0.615322
0.907230 0.621764 0.028875 0.084712 0.066653 -0.994174
0.699368 0.975000 0.430693 0.084329 0.992931 -0.083528
0.043149 0.806133 0.055432 -0.843558 0.126758 -0.521865
0.260536 0.940895 0.025000 -0.030260 0.939414 -0.341446
0.975000 0.923408 0.661996 0.519426 0.828888 -0.207704
0.949140 0.796493 0.950169 0.772400 0.126719 0.622367
0.884118 0.064212 0.028875 -0.042656 -0.119790 -0.991882
0.455192 0.816667 0.430809 -0.005660 -0.999851 0.016282
0.388451 0.816667 0.464296 -0.047981 -0.998188 0.036301
0.170195 0.975000 0.045295 -0.098618 0.981802 -0.162291
0.827341 0.975000 0.727809 0.125483 0.992048 -0.009783
0.462556 0.975000 0.614100 -0.009607 0.999773 0.019013
0.205305 0.975000 0.504624 -0.108741 0.993107 0.043741
0.264218 0.975000 0.550723 -0.087345 0.994923 0.049992
0.622160 0.975000 0.223947 0.059387 0.989029 -0.135259
0.967722 0.147832 0.873432 0.972123 -0.092741 -0.215351
0.225716 0.975000 0.189736 -0.081171 0.988563 -0.127100
0.966430 0.709153 0.922210 0.959642 0.097734 0.263697
0.929466 0.252399 0.172797 0.393689 -0.056745 0.917490
0.528311 0.816667 0.218757 0.113475 -0.983290 -0.142349
0.954589 0.975000 0.453800 0.173550 0.980951 -0.087262
0.641237 0.975000 0.659242 0.059896 0.998090 -0.015133
0.170920 0.853280 0.975000 -0.434439 -0.817045 0.379077
0.048959 0.381826 0.157122 -0.727981 -0.013097 0.685472
0.900470 0.439256 0.820541 0.053882 0.006162 -0.998528
0.149877 0.816667 0.085900 0.717740 0.573235 -0.395286
0.960680 0.462498 0.939906 0.834895 0.013802 0.550236
0.034655 0.975000 0.219221 -0.159435 0.985434 -0.059169
0.025000 0.914116 0.904316 -0.614976 0.507615 0.603433
0.493491 0.975000 0.559884 0.006207 0.999747 -0.021603
0.501290 0.975000 0.099105 0.017825 0.986438 -0.163165
0.969791 0.655831 0.088135 0.955987 0.078874 -0.282608
0.117822 0.532999 0.971125 0.210123 0.037732 0.976947
0.066624 0.742253 0.830044 -0.576716 0.108420 -0.809719
0.240734 0.816667 0.917363 -0.259310 -0.949024 0.179195
0.579483 0.975000 0.575917 0.039719 0.998414 -0.039903
0.897793 0.975000 0.570669 0.152365 0.986835 -0.054232
0.561624 0.816667 0.476559 0.032135 -0.999454 0.007671
0.975000 0.879513 0.212669 0.729807 -0.255026 -0.634306
0.037175 0.613187 0.141637 -0.841161 0.064634 0.536909
0.121690 0.975000 0.571278 -0.147229 0.983015 0.109569
0.164353 0.052712 0.054829 0.834484 -0.121633 -0.537440
0.025000 0.974454 0.940586 -0.204051 0.917735 0.340771
0.669853 0.975000 0.841895 0.061153 0.995137 0.077221
0.042958 0.040849 0.152763 -0.844401 -0.124954 0.520935
0.902440 0.632975 0.028875 0.020695 0.071207 -0.997247
0.431737 0.975000 0.412631 -0.010954 0.996956 -0.077192
0.179638 0.351505 0.907204 0.984566 -0.023165 0.173472
0.975000 0.869583 0.062255 0.640324 -0.437392 -0.631406
0.748597 0.975000 0.527326 0.100537 0.993134 -0.059802
0.093278 0.816667 0.518251 -0.201515 -0.977392 0.064001
0.364416 0.975000 0.230644 -0.032618 0.991921 -0.122589
0.025000 0.938972 0.027638 -0.235635 0.938639 -0.251858
0.761238 0.975000 0.206668 0.108866 0.983396 -0.145188
0.026862 0.447615 0.901565 -0.996373 0.008924 0.084621
0.504450 0.843094 0.025000 0.236353 -0.888246 -0.393899
0.967107 0.404272 0.871539 0.948282 -0.005518 -0.317380
0.034415 0.084217 0.866857 -0.872848 -0.114374 -0.474400
0.108444 0.736406 0.820541 -0.041035 0.107008 -0.993411
0.174274 0.251142 0.132048 0.907695 -0.057454 0.415678
0.025000 0.915159 0.849549 -0.620826 0.558480 0.550160
0.645702 0.975000 0.145609 0.068666 0.985239 -0.156812
0.151408 0.843103 0.975000 -0.399544 -0.862077 0.311748
0.542054 0.975000 0.623813 0.022143 0.999753 -0.002071
0.111543 0.975000 0.446059 -0.143576 0.988742 0.042133
0.260246 0.903099 0.025000 0.013563 0.518974 -0.854682
0.929321 0.784413 0.964569 0.533052 0.121753 0.837277
0.963813 0.730197 0.069736 0.840392 0.104400 -0.531828
0.738421 0.816667 0.229514 0.221802 -0.951861 -0.211577
0.833307 0.709950 0.056529 -0.842818 0.095070 -0.529736
0.954289 0.730921 0.053571 0.684402 0.102145 -0.721914
0.535124 0.868477 0.025000 0.383019 -0.625414 -0.679818
0.201072 0.975000 0.413153 -0.104516 0.994502 -0.006433
0.631931 0.816667 0.908288 -0.076980 -0.983750 0.162204
0.028293 0.338700 0.885699 -0.986595 -0.027411 -0.160870
0.641585 0.816667 0.438898 0.088891 -0.995073 -0.043909
0.036489 0.229229 0.068806 -0.856342 -0.064598 -0.512353
0.248504 0.975000 0.721025 -0.104116 0.982942 0.151605
0.818145 0.259888 0.108716 -0.998518 -0.053583 0.009505
0.157395 0.443073 0.841439 0.692154 0.007454 -0.721712
0.821122 0.483421 0.909546 -0.979031 0.020923 0.202632
0.347253 0.928013 0.975000 -0.234712 0.753723 0.613850
0.906789 0.816667 0.065964 0.103491 0.746021 -0.657831
0.564146 0.816667 0.622827 -0.017592 -0.996837 0.077507
0.100030 0.704345 0.971125 0.032993 0.095988 0.994835
0.609983 0.887665 0.975000 -0.130165 -0.483604 0.865555
0.856617 0.634134 0.168741 -0.461589 0.072323 0.884141
0.040000 0.634231 0.058003 -0.846893 0.070043 -0.527130
0.657734 0.816667 0.139434 0.212661 -0.947480 -0.238867
0.355081 0.816667 0.964534 -0.222261 -0.956356 0.189694
0.643499 0.816667 0.204435 0.180757 -0.964343 -0.193313
0.963249 0.199052 0.931999 0.844996 -0.074684 0.529531
0.356356 0.975000 0.717575 -0.059561 0.991764 0.113385
0.785012 0.975000 0.933541 0.101785 0.990773 0.089495
0.856884 0.816667 0.730882 0.090207 -0.994005 0.061777
0.917566 0.975000 0.759034 0.156494 0.987665 -0.005254
0.129979 0.423044 0.970146 0.329487 0.000732 0.944160
0.787679 0.816667 0.811366 0.024984 -0.991808 0.125269
0.975000 0.842939 0.937136 0.136043 -0.973232 0.185235
0.102812 0.770931 0.820541 -0.125319 0.119202 -0.984929
0.436086 0.816667 0.185300 0.077047 -0.988537 -0.129837
0.071243 0.816667 0.397642 -0.172989 -0.984523 0.028092
0.658981 0.816667 0.802900 -0.031019 -0.991207 0.128633
0.936904 0.816667 0.796058 0.107400 -0.991444 0.074183
0.453684 0.975000 0.358502 -0.002430 0.995705 -0.092546
0.157705 0.189678 0.950001 0.646484 -0.076889 0.759043
0.925570 0.792023 0.032706 0.273220 0.123265 -0.954021
0.522426 0.816667 0.403962 0.039120 -0.998960 -0.023429
0.734072 0.975000 0.079100 0.100624 0.978959 -0.177523
0.125807 0.816667 0.593139 -0.210454 -0.973847 0.085621
0.828909 0.025072 0.858154 -0.797426 -0.132255 -0.588745
0.041996 0.025000 0.932919 -0.897211 -0.197646 0.394903
0.028189 0.816667 0.816817 -0.322625 -0.933678 0.155434
0.232906 0.816667 0.973463 -0.279676 -0.939917 0.195800
0.035396 0.514588 0.136162 -0.894723 0.031625 0.445501
0.730100 0.975000 0.227281 0.097652 0.985523 -0.138597
0.656140 0.975000 0.505871 0.067982 0.995774 -0.061754
0.109016 0.607751 0.028875 0.005738 0.062808 -0.998009
0.952443 0.762765 0.947770 0.798954 0.114488 0.590394
0.615173 0.946742 0.975000 0.015578 0.955653 0.294084
0.448553 0.816667 0.313795 0.034584 -0.997975 -0.053391
0.075172 0.573830 0.032167 -0.419129 0.050688 -0.906511
0.053961 0.709008 0.047577 -0.723705 0.097783 -0.683147
0.035443 0.222488 0.136307 -0.928899 -0.066118 0.364384
0.949619 0.663030 0.949822 0.753568 0.081771 0.652264
0.172099 0.322029 0.930410 0.877621 -0.033283 0.478199
0.163105 0.130702 0.946078 0.694278 -0.095254 0.713375
0.366533 0.975000 0.672665 -0.052648 0.995030 0.084515
0.149498 0.025000 0.053539 0.730153 -0.247433 -0.636910
0.373868 0.975000 0.201333 -0.028874 0.990994 -0.130755
0.039670 0.816667 0.759353 -0.300562 -0.943683 0.138290
0.969837 0.078346 0.120058 0.943397 -0.115778 0.310803
0.160221 0.031306 0.051826 0.801164 -0.130392 -0.584067
0.691337 0.975000 0.920001 0.065253 0.991372 0.113684
0.444494 0.816667 0.386972 0.005036 -0.999965 -0.006701
0.975000 0.864853 0.103454 0.620777 -0.513444 -0.592462
0.821368 0.881944 0.975000 0.176472 -0.728949 0.661431
0.045701 0.816667 0.782692 -0.304916 -0.941277 0.144997
0.380391 0.829197 0.975000 -0.233326 -0.942820 0.238012
0.975000 0.921489 0.181328 0.513770 0.727195 -0.455222
0.946479 0.731308 0.160437 0.732838 0.105308 0.672204
0.752163 0.975000 0.824992 0.094822 0.994686 0.040115
0.698092 0.816667 0.619957 0.049081 -0.997625 0.048331
0.110687 0.249089 0.028875 0.137119 -0.058150 -0.988846
0.078962 0.704949 0.178921 -0.233457 0.093155 0.967895
0.911477 0.025000 0.054282 0.348097 -0.542110 -0.764817
0.193418 0.816667 0.077998 -0.009434 -0.993999 -0.108979
0.878495 0.816667 0.868874 -0.344266 0.843106 -0.413101
0.127517 0.668805 0.820541 0.220090 0.081331 -0.972083
0.541213 0.816667 0.129112 0.154734 -0.966733 -0.203680
0.234732 0.975000 0.802204 -0.114249 0.972817 0.201429
0.025000 0.870028 0.228267 -0.458312 -0.878553 -0.134518
0.789158 0.942659 0.975000 0.128876 0.965530 0.226149
0.174669 0.116133 0.922499 0.893192 -0.103620 0.437574
0.806234 0.975000 0.107861 0.125659 0.976939 -0.172624
0.796899 0.921852 0.025000 0.398953 0.747288 -0.531411
0.173838 0.217173 0.074944 0.942840 -0.068357 -0.326159
0.843751 0.887375 0.025000 0.644987 -0.058201 -0.761974
0.175472 0.816667 0.463571 -0.146141 -0.988272 0.044275
0.856291 0.081536 0.168504 -0.606436 -0.114987 0.786774
0.848389 0.975000 0.784867 0.131989 0.991241 0.004423
0.057139 0.101202 0.045268 -0.540275 -0.108497 -0.834465
0.805944 0.975000 0.642397 0.119206 0.992368 -0.031544
0.455395 0.816667 0.477951 -0.021628 -0.999050 0.037819
0.099105 0.816667 0.837633 -0.297973 -0.941123 0.159684
0.365779 0.975000 0.195679 -0.031678 0.990758 -0.131889
0.261377 0.975000 0.879527 -0.107553 0.965980 0.235193
0.026940 0.175737 0.110137 -0.996652 -0.081745 0.001777
0.817802 0.561653 0.899325 -0.994826 0.046583 0.090282
0.025000 0.929699 0.758947 -0.467930 0.797149 0.381569
0.579541 0.975000 0.284020 0.043467 0.992105 -0.117632
0.743465 0.835672 0.975000 -0.033567 -0.967623 0.250157
0.930380 0.975000 0.858972 0.159324 0.987014 0.020486
0.465484 0.975000 0.676028 -0.012130 0.998524 0.052932
0.884479 0.286320 0.028875 -0.104325 -0.044735 -0.993537
0.825309 0.030074 0.077569 -0.878090 -0.133013 -0.459636
0.963179 0.512317 0.932216 0.894055 0.030515 0.446917
0.054825 0.201396 0.953050 -0.700056 -0.074416 0.710200
0.825454 0.584509 0.131212 -0.913295 0.055392 0.403515
0.957842 0.026812 0.847818 0.852460 -0.129012 -0.506624
0.868452 0.902393 0.975000 0.448957 0.420723 0.788308
0.218004 0.975000 0.599082 -0.109414 0.989637 0.092987
0.962214 0.975000 0.122995 0.179475 0.968274 -0.173881
0.163794 0.304706 0.153911 0.741995 -0.038539 0.669297
0.208494 0.816667 0.608882 -0.177509 -0.980229 0.087420
0.274713 0.956092 0.025000 -0.044498 0.967643 -0.248369
0.872364 0.489727 0.028875 -0.317627 0.022753 -0.947943
0.824529 0.816667 0.681595 0.092185 -0.994822 0.042789
0.299705 0.816667 0.695164 -0.162958 -0.980440 0.110373
0.878774 0.816667 0.891733 0.041048 -0.988509 0.145485
0.879830 0.294462 0.971125 -0.243982 -0.042382 0.968853
0.818747 0.742688 0.097765 -0.994097 0.107189 0.016763
0.960510 0.445658 0.148764 0.828140 0.008217 0.560462
0.198550 0.816667 0.105715 -0.017025 -0.995467 -0.093575
0.975000 0.936638 0.585050 0.385093 0.906934 -0.170803
0.033316 0.677043 0.870238 -0.960826 0.086772 -0.263220
0.025369 0.308040 0.105302 -0.999097 -0.037247 -0.020424
0.876280 0.323914 0.820541 -0.219701 -0.032170 -0.975037
0.921303 0.572791 0.821272 0.277992 0.050142 -0.959274
0.173275 0.693424 0.135124 0.940204 0.091673 0.328044
0.825379 0.762330 0.130982 -0.885800 0.116194 0.449286
0.127808 0.887868 0.025000 -0.303993 -0.484361 -0.820355
0.892168 0.975000 0.659793 0.149155 0.988346 -0.030426
0.025000 0.833289 0.618217 -0.339293 -0.934219 0.110070
0.534226 0.975000 0.542808 0.023616 0.998734 -0.044406
0.971150 0.399005 0.907681 0.986225 -0.007315 0.165246
0.040627 0.975000 0.156452 -0.152308 0.983714 -0.095439
0.169979 0.725389 0.854732 0.790448 0.101223 -0.604107
0.975000 0.854739 0.203188 0.574690 -0.642532 -0.506838
0.261985 0.975000 0.040366 -0.066342 0.983564 -0.167930
0.698614 0.975000 0.677594 0.080759 0.996575 -0.017782
0.091864 0.816667 0.042446 -0.295760 0.340484 -0.892523
0.204406 0.975000 0.098641 -0.087406 0.984814 -0.150007
0.974511 0.664867 0.894329 0.992179 0.080103 -0.095733
0.659213 0.963732 0.975000 0.047317 0.980510 0.190687
0.050831 0.325774 0.841518 -0.676522 -0.031709 -0.735739
0.025000 0.818523 0.651849 -0.281508 -0.953436 0.108225
0.972987 0.415869 0.889638 0.996725 -0.001657 -0.080853
0.312519 0.884355 0.975000 -0.491897 -0.445575 0.747997
0.025000 0.974565 0.864509 -0.201178 0.931978 0.301571
0.792347 0.816667 0.838010 0.018799 -0.990907 0.133227
0.823514 0.975000 0.637990 0.125447 0.991537 -0.033427
0.088889 0.457545 0.028875 -0.207363 0.012304 -0.978187
0.133945 0.415434 0.824402 0.388573 -0.001802 -0.921416
0.869274 0.757909 0.822063 -0.434094 0.110056 -0.894120
0.162541 0.816667 0.845867 -0.272456 -0.948712 0.160355
0.174817 0.567621 0.077956 0.920209 0.049616 -0.388271
0.266769 0.918556 0.975000 -0.374419 0.594155 0.711892
0.927212 0.765398 0.825565 0.305989 0.115180 -0.945042
0.851452 0.730269 0.835011 -0.660236 0.105227 -0.743651
0.901887 0.179845 0.179459 0.004859 -0.081148 0.996690
0.134506 0.048919 0.824809 0.493074 -0.123355 -0.861198
0.125140 0.816667 0.876048 -0.298024 -0.939257 0.170232
0.883788 0.716280 0.820541 -0.245748 0.099673 -0.964196
0.975000 0.843949 0.840445 0.198646 -0.974707 0.102404
0.889691 0.135027 0.179459 -0.167593 -0.097060 0.981067
0.975000 0.858682 0.063589 0.578713 -0.584547 -0.568679
0.062487 0.975000 0.256738 -0.150751 0.987424 -0.047628
0.164532 0.137105 0.054959 0.823881 -0.094079 -0.558900
0.086116 0.975000 0.449509 -0.154230 0.986633 0.052615
0.308171 0.816667 0.165904 0.017055 -0.995281 -0.095521
0.965671 0.147615 0.867121 0.949805 -0.092252 -0.298933
0.751264 0.816667 0.159729 0.254041 -0.931882 -0.258957
0.333452 0.816667 0.456236 -0.070738 -0.996846 0.035988
0.146245 0.166146 0.833338 0.619790 -0.086227 -0.780016
0.124375 0.353534 0.179459 0.236953 -0.022342 0.971264
0.961879 0.177767 0.144549 0.809174 -0.081110 0.581944
0.846326 0.729158 0.161264 -0.576465 0.104216 0.810449
0.832784 0.560687 0.848575 -0.824519 0.046161 -0.563948
0.861813 0.975000 0.321826 0.142884 0.982606 -0.118614
0.975000 0.946582 0.330118 0.312884 0.923463 -0.222081
0.664460 0.816667 0.054485 0.246782 -0.923849 -0.292578
0.083536 0.816667 0.866249 -0.313243 -0.934618 0.168429
0.120094 0.602025 0.179459 0.259659 0.060781 0.963786
0.969238 0.437975 0.086434 0.970215 0.005739 -0.242179
0.224092 0.816667 0.310722 -0.074607 -0.997205 -0.003913
0.043977 0.032804 0.846498 -0.685539 -0.127903 -0.716713
0.251867 0.958919 0.025000 -0.057424 0.970679 -0.233422
0.923741 0.816667 0.060690 0.370302 -0.852085 -0.369903
0.130069 0.025000 0.923796 0.378328 -0.762013 0.525552
0.500333 0.975000 0.640918 0.004214 0.999762 0.021423
0.199999 0.975000 0.640194 -0.119282 0.985300 0.122294
0.343455 0.867206 0.975000 -0.376231 -0.767133 0.519573
0.316607 0.975000 0.481720 -0.061341 0.998096 -0.006534
0.427533 0.975000 0.829109 -0.036901 0.987660 0.152201
0.732535 0.816667 0.802407 0.002787 -0.992139 0.125113
0.729230 0.816667 0.939658 -0.042012 -0.984986 0.167446
0.965387 0.292795 0.074580 0.934851 -0.042654 -0.352469
0.130961 0.683422 0.969432 0.417665 0.086215 0.904501
0.829194 0.182502 0.857278 -0.824137 -0.079877 -0.560730
0.696700 0.816667 0.962707 -0.064320 -0.982288 0.175993
0.127475 0.155298 0.179459 0.214159 -0.087009 0.972916
0.725838 0.975000 0.873642 0.081722 0.993748 0.076073
0.945602 0.874121 0.025000 0.645191 -0.358886 -0.674484
0.124358 0.972661 0.975000 -0.172109 0.925034 0.338660
0.160192 0.975000 0.197680 -0.106423 0.988022 -0.111748
0.139247 0.189243 0.828254 0.523650 -0.077063 -0.848441
0.297066 0.975000 0.543300 -0.073311 0.996705 0.034718
0.174569 0.395211 0.868861 0.937150 -0.008559 -0.348821
0.025000 0.932971 0.609867 -0.435070 0.872122 0.223870
0.178289 0.167595 0.880310 0.988014 -0.085843 -0.128297
0.602271 0.975000 0.590790 0.047654 0.998182 -0.036889
0.786316 0.816667 0.057182 0.306767 -0.892499 -0.330666
0.952354 0.471389 0.156169 0.744585 0.016953 0.667312
0.915235 0.269166 0.820541 0.293388 -0.050532 -0.954657
0.346470 0.975000 0.788839 -0.067849 0.985284 0.156884
0.169441 0.816667 0.695309 -0.222809 -0.968045 0.115090
0.275641 0.889361 0.975000 -0.542834 -0.278458 0.792333
0.679595 0.884611 0.025000 0.555605 -0.141194 -0.819370
0.312867 0.975000 0.904780 -0.088068 0.968657 0.232267
0.231369 0.816667 0.196085 -0.033377 -0.998221 -0.049408
0.332060 0.816667 0.631844 -0.127701 -0.987743 0.089752
0.844243 0.975000 0.773386 0.130715 0.991419 0.001565
0.775328 0.975000 0.167730 0.114234 0.981143 -0.155911
0.845370 0.483711 0.047764 -0.679157 0.021182 -0.733687
0.831516 0.975000 0.654284 0.128024 0.991334 -0.029431
0.830053 0.503015 0.062966 -0.861718 0.027318 -0.506651
0.025000 0.878484 0.152886 -0.535338 -0.797603 -0.277925
0.863176 0.175447 0.173507 -0.494700 -0.081098 0.865272
0.053616 0.975000 0.439188 -0.166858 0.984293 0.057671
0.093915 0.975000 0.714676 -0.166371 0.965795 0.198898
0.271988 0.975000 0.663098 -0.091060 0.989634 0.111049
0.824572 0.508017 0.920162 -0.937227 0.029307 0.347486
0.054555 0.660131 0.952854 -0.596077 0.080490 0.798883
0.920437 0.511158 0.179357 0.337659 0.029753 0.940798
0.774052 0.816667 0.353950 0.193561 -0.970170 -0.145959
0.569800 0.816667 0.260449 0.119651 -0.984131 -0.131031
0.025000 0.825128 0.971666 -0.395517 -0.889836 0.227506
0.866820 0.430461 0.967820 -0.373001 0.003209 0.927825
0.054051 0.889496 0.025000 -0.526088 -0.462283 -0.713811
0.975000 0.942548 0.045962 0.336014 0.876174 -0.345563
0.631786 0.816667 0.956387 -0.092339 -0.979885 0.176913
0.042879 0.482576 0.944371 -0.770644 0.020473 0.636937
0.600938 0.913024 0.025000 0.345795 0.670537 -0.656357
0.097653 0.723842 0.971125 0.008090 0.102383 0.994712
0.136873 0.025000 0.099921 0.551604 -0.834100 -0.003241
0.493491 0.975000 0.662228 0.000158 0.999362 0.035706
0.553883 0.975000 0.937890 0.008418 0.985347 0.170352
0.886937 0.616642 0.028875 -0.175245 0.066274 -0.982292
0.131577 0.816667 0.334554 -0.124874 -0.992150 0.006696
0.301473 0.816667 0.424663 -0.075394 -0.996771 0.027622
0.723228 0.816667 0.086725 0.265437 -0.918479 -0.293156
0.451452 0.975000 0.164483 -0.000759 0.989597 -0.143864
0.174427 0.735560 0.076756 0.886856 0.107021 -0.449482
0.658778 0.975000 0.496709 0.069041 0.995539 -0.064304
0.175472 0.844099 0.975000 -0.389909 -0.864341 0.317625
0.049646 0.723021 0.842379 -0.772025 0.101825 -0.627383
0.900672 0.793739 0.179459 0.177586 0.126822 0.975899
0.975000 0.837348 0.318695 0.425862 -0.842060 -0.331024
0.146713 0.273491 0.957988 0.527014 -0.049777 0.848397
0.170340 0.975000 0.033379 -0.098394 0.981306 -0.165398
0.969459 0.709008 0.878780 0.945519 0.097277 -0.310695
0.829927 0.047711 0.855020 -0.777498 -0.123714 -0.616597
0.270103 0.816667 0.693569 -0.176116 -0.978093 0.110987
0.432201 0.867331 0.025000 0.270004 -0.736513 -0.620199
0.826297 0.975000 0.917740 0.118840 0.990663 0.066820
0.974492 0.476366 0.894268 0.999107 0.018359 -0.038057
0.492621 0.975000 0.478154 0.009957 0.998006 -0.062325
0.506277 0.816667 0.480097 0.002259 -0.999585 0.028712
0.860536 0.528142 0.171588 -0.436057 0.036180 0.899191
0.055703 0.816667 0.661909 -0.263742 -0.958439 0.108791
0.614419 0.816667 0.829022 -0.059856 -0.988531 0.138647
0.965317 0.975000 0.967230 0.169432 0.984381 0.047813
0.955640 0.210915 0.945448 0.722798 -0.069293 0.687577
0.153613 0.501614 0.161309 0.671129 0.027235 0.740840
0.574612 0.975000 0.193737 0.042809 0.989039 -0.141309
0.926785 0.975000 0.332756 0.165333 0.979143 -0.118087
0.969779 0.476246 0.088097 0.972612 0.018518 -0.231694
0.440145 0.975000 0.823833 -0.031406 0.988937 0.144976
0.162347 0.080231 0.845037 0.813162 -0.113500 -0.570863
0.529993 0.816667 0.549041 -0.009960 -0.998358 0.056414
0.845678 0.025000 0.936034 -0.803330 -0.330766 0.495232
0.026820 0.754840 0.890231 -0.993341 0.110924 0.031135
0.038395 0.816667 0.426663 -0.197374 -0.979586 0.038132
0.826490 0.331428 0.073932 -0.905836 -0.030160 -0.422553
0.822836 0.510239 0.876846 -0.973528 0.030139 -0.226570
0.266218 0.975000 0.597604 -0.089446 0.993096 0.075889
0.858856 0.975000 0.167962 0.143439 0.976833 -0.158817
0.139253 0.152133 0.036592 0.532404 -0.089714 -0.841723
0.086522 0.975000 0.216322 -0.137953 0.987380 -0.077777
0.646804 0.816667 0.946442 -0.082227 -0.981443 0.173229
0.432114 0.972139 0.025000 -0.001930 0.981925 -0.189262
