0.895529 0.025000 0.112803 -0.350609 -0.055135 0.934898
0.870540 0.388674 0.271496 0.006094 0.999981 0.000592
0.114063 0.370391 0.440105 0.449085 0.185160 0.874093
0.900786 0.375736 0.320681 -0.983121 0.181207 -0.025237
0.915630 0.309332 0.094434 0.924537 0.079860 -0.372631
0.905316 0.341515 0.328061 -0.200400 0.033796 -0.979131
0.662201 0.381252 0.435794 -0.381523 0.596795 0.705887
0.905853 0.381252 0.351658 -0.690663 0.600399 -0.403120
0.088724 0.260888 0.335483 -0.645014 -0.011545 0.764084
0.885942 0.234965 0.422465 -0.971362 0.120230 -0.204939
0.174863 0.388674 0.071461 -0.005347 0.999907 -0.012567
0.263058 0.388674 0.076201 -0.003897 0.999917 -0.012256
0.865553 0.388674 0.475199 0.006012 0.999884 0.013992
0.133374 0.388674 0.444814 -0.006030 0.999910 0.011993
0.401701 0.381252 0.340354 -0.001617 -0.999986 0.005122
0.655299 0.388674 0.381103 0.002554 0.999966 0.007803
0.677159 0.388674 0.065807 0.002914 0.999912 -0.012939
0.084375 0.350678 0.393453 -0.833925 -0.525104 -0.169809
0.280161 0.084375 0.089760 -0.023565 -0.806678 -0.590522
0.628220 0.381252 0.092263 0.002109 -0.999935 -0.011199
0.817958 0.119094 0.099219 0.015243 0.272118 0.962143
0.658923 0.381252 0.479548 0.002614 -0.999895 0.014278
0.084375 0.121112 0.190404 -0.858246 0.512974 -0.016465
0.900773 0.229714 0.410939 0.045682 0.128961 -0.990597
0.636599 0.388674 0.336048 0.002247 0.999986 0.004839
0.036133 0.381252 0.058834 -0.007629 -0.999881 -0.013398
0.247676 0.123959 0.086267 -0.015070 0.449475 -0.893166
0.343740 0.365301 0.425783 0.007080 0.043153 -0.999043
0.636570 0.381252 0.266364 0.002246 -0.999997 0.000254
0.882338 0.084375 0.094187 0.038518 -0.758180 0.650906
0.895127 0.342373 0.084375 -0.092878 0.168593 -0.981300
0.070257 0.388674 0.209031 -0.007068 0.999969 -0.003518
0.914293 0.124949 0.410939 0.730811 0.060446 -0.679898
0.086053 0.270703 0.440627 -0.668702 0.053831 0.741579
0.905934 0.245959 0.248894 -0.363199 0.008684 0.931671
0.088363 0.041482 0.114063 -0.619633 -0.022271 0.784575
0.367837 0.381252 0.460601 -0.002174 -0.999913 0.013032
0.107252 0.388674 0.076520 -0.006459 0.999904 -0.012235
0.403411 0.388674 0.225035 -0.001589 0.999996 -0.002465
0.942441 0.381252 0.475808 0.007276 -0.999875 0.014032
0.784084 0.388674 0.224151 0.004672 0.999986 -0.002523
0.915630 0.058258 0.099612 0.999061 -0.036475 -0.023376
0.292689 0.388674 0.175298 -0.003410 0.999978 -0.005737
0.099627 0.388674 0.315942 -0.006585 0.999972 0.003516
0.100484 0.037068 0.410939 0.057961 -0.051768 -0.996976
0.780597 0.365289 0.425783 -0.021075 0.055684 -0.998226
0.735753 0.388674 0.252854 0.003878 0.999992 -0.000635
0.912961 0.334077 0.410939 0.748043 0.261922 -0.609777
0.780576 0.381252 0.123677 0.004615 -0.999948 -0.009133
0.084375 0.355550 0.436987 -0.790163 0.081919 0.607397
0.084375 0.357219 0.255493 -0.960831 -0.160452 -0.225962
0.089827 0.388674 0.225470 -0.006746 0.999974 -0.002436
0.084375 0.043853 0.086875 -0.768320 -0.051029 -0.638028
0.703944 0.377831 0.440627 -0.143104 0.193871 0.970534
0.468755 0.123959 0.085585 -0.001698 0.408878 -0.912588
0.109004 0.025000 0.439319 0.543180 -0.043532 0.838487
0.084375 0.104587 0.226980 -0.997496 0.069909 -0.010675
0.062140 0.381252 0.131186 -0.007201 -0.999937 -0.008639
0.650080 0.388674 0.435058 0.002468 0.999933 0.011352
0.894298 0.142540 0.440627 -0.306507 0.035471 0.951207
0.473892 0.381252 0.324843 -0.000429 -0.999991 0.004101
0.031465 0.381252 0.251230 -0.007706 -0.999970 -0.000741
0.915630 0.092250 0.221399 0.936070 -0.351703 -0.008844
0.857319 0.381252 0.214641 0.005877 -0.999978 -0.003149
0.098769 0.344167 0.114063 -0.123610 0.290909 0.948732
0.448408 0.388674 0.360953 -0.000849 0.999979 0.006477
0.685422 0.388674 0.135448 0.003050 0.999960 -0.008359
0.958271 0.388674 0.380045 0.007537 0.999942 0.007733
0.764862 0.388674 0.292110 0.004356 0.999989 0.001948
0.088996 0.084375 0.333519 -0.379040 -0.925015 0.025989
0.399439 0.388674 0.296212 -0.001654 0.999996 0.002218
0.903543 0.083830 0.410939 0.213134 -0.004347 -0.977013
0.425764 0.349955 0.084375 0.059342 -0.256460 -0.964731
0.900786 0.117471 0.272055 -0.956282 0.292356 0.007202
0.752093 0.369980 0.425783 -0.019752 0.141311 -0.989768
0.221773 0.388674 0.423853 -0.004576 0.999933 0.010615
0.171211 0.354559 0.425783 -0.004369 -0.143584 -0.989629
0.797681 0.381252 0.452439 0.004896 -0.999910 0.012495
0.672752 0.388674 0.480461 0.002841 0.999893 0.014338
0.093620 0.084375 0.258410 0.316615 -0.948554 0.000459
0.310784 0.346881 0.099219 0.015926 -0.278758 0.960229
0.084375 0.345337 0.161475 -0.961061 -0.259959 -0.093720
0.099219 0.363088 0.315870 0.995403 0.095730 0.002791
0.142188 0.381252 0.205117 -0.005885 -0.999976 -0.003775
0.291397 0.348526 0.440627 -0.029158 -0.288892 0.956918
0.315245 0.381252 0.097467 -0.003039 -0.999936 -0.010857
0.551344 0.381252 0.098956 0.003256 0.331484 0.943455
0.688350 0.381252 0.396629 0.003098 -0.999956 0.008824
0.904999 0.381252 0.179224 -0.530724 0.830442 -0.169403
0.558580 0.388674 0.217004 0.000963 0.999995 -0.002993
0.217076 0.381252 0.497088 -0.004653 -0.999870 0.015431
0.885942 0.155815 0.107368 -0.876853 0.049703 0.478183
0.114063 0.175820 0.427152 0.966492 0.099507 0.236625
0.240502 0.388674 0.191462 -0.004268 0.999980 -0.004674
0.208643 0.372422 0.099219 0.023165 0.186791 0.982126
0.900786 0.107979 0.159609 -0.960977 0.274829 -0.031498
0.664866 0.388674 0.255840 0.002712 0.999996 -0.000438
0.206088 0.381252 0.253405 -0.004834 -0.999988 -0.000598
0.888602 0.388674 0.046136 0.006391 0.999878 -0.014233
0.565277 0.381252 0.142768 0.001074 -0.999968 -0.007877
0.915630 0.097485 0.110092 0.863192 -0.018510 0.504536
0.513380 0.381252 0.279991 0.000220 -0.999999 0.001151
0.486185 0.388674 0.298938 -0.000227 0.999997 0.002397
0.898626 0.032643 0.084375 -0.102256 -0.039865 -0.993959
0.412831 0.372797 0.099219 0.007601 0.185543 0.982607
0.179857 0.112038 0.099219 -0.015776 0.147482 0.988939
0.242299 0.388674 0.370390 -0.004238 0.999966 0.007098
0.114063 0.255221 0.110608 0.779622 0.096860 0.618714
0.487788 0.111504 0.084375 -0.000603 0.137691 -0.990475
0.908884 0.319693 0.410939 0.598558 0.264738 -0.756070
0.807684 0.388674 0.333135 0.005061 0.999976 0.004647
0.313650 0.381252 0.035292 -0.003065 -0.999884 -0.014946
0.093934 0.257487 0.335483 0.524934 0.011204 0.851069
0.928061 0.388674 0.414850 0.007040 0.999925 0.010022
0.099219 0.104274 0.347128 0.988239 0.150593 0.026547
0.198608 0.388674 0.401963 -0.004957 0.999946 0.009175
0.092378 0.041656 0.440627 -0.434799 -0.028006 0.900092
0.971753 0.388674 0.444698 0.007758 0.999898 0.011986
0.114063 0.135234 0.412919 0.750624 0.016761 -0.660517
0.087537 0.381252 0.296705 -0.006784 -0.999974 0.002250
0.585630 0.388674 0.277106 0.001408 0.999999 0.000961
0.098090 0.381252 0.218425 -0.006610 -0.999974 -0.002900
0.086817 0.150542 0.084375 -0.646367 0.003764 -0.763018
0.347650 0.108381 0.084375 -0.007567 0.079592 -0.996799
0.398721 0.381252 0.426246 -0.002807 0.336803 -0.941571
0.320898 0.381252 0.257971 -0.002946 -0.999996 -0.000298
0.911919 0.137453 0.314809 0.996817 -0.034630 0.071813
0.093062 0.307397 0.214259 0.513849 0.019952 0.857648
0.470732 0.388674 0.247215 -0.000481 0.999999 -0.001006
0.114063 0.355865 0.427200 0.931568 0.236437 0.276186
0.529819 0.381252 0.105382 0.000490 -0.999946 -0.010336
0.786664 0.388674 0.399180 0.004715 0.999948 0.008992
0.108702 0.381252 0.099540 -0.006435 -0.999922 -0.010720
0.915884 0.388674 0.047136 0.006839 0.999876 -0.014167
0.114063 0.347341 0.106371 0.871800 0.221726 0.436809
0.755980 0.345362 0.099219 0.014956 -0.296642 0.954871
0.905210 0.236916 0.248894 -0.569364 0.002127 0.822083
0.885942 0.356441 0.093234 -0.760609 0.227994 -0.607860
0.466776 0.367401 0.440627 -0.031732 0.014300 0.999394
0.112317 0.048876 0.410939 0.660007 -0.025440 -0.750829
0.390476 0.377262 0.425783 0.006275 0.255246 -0.966856
0.942093 0.388674 0.300808 0.007271 0.999970 0.002520
0.167904 0.388674 0.301590 -0.005462 0.999982 0.002572
0.368765 0.388674 0.441292 -0.002158 0.999928 0.011762
0.101656 0.388674 0.217004 -0.006552 0.999974 -0.002993
0.768512 0.344329 0.425783 -0.019033 -0.319692 -0.947330
0.094241 0.298541 0.276108 0.617718 0.015597 -0.786245
0.900460 0.381252 0.346747 0.006586 -0.999963 0.005542
0.187243 0.381252 0.285876 -0.005144 -0.999986 0.001538
0.631090 0.381252 0.303576 0.002156 -0.999994 0.002702
0.240154 0.388674 0.220222 -0.004274 0.999987 -0.002781
0.580208 0.381252 0.248896 0.001319 -0.999999 -0.000895
0.875836 0.097560 0.099219 0.018579 -0.124199 0.992083
0.101240 0.063455 0.084375 0.080156 -0.026696 -0.996425
0.911919 0.157452 0.211436 0.900234 -0.021485 0.434877
0.201768 0.388674 0.151408 -0.004905 0.999961 -0.007309
0.554336 0.380676 0.425783 -0.006641 0.317217 -0.948330
0.602155 0.388674 0.374493 0.001680 0.999971 0.007368
0.915630 0.266897 0.435680 0.836410 0.071350 0.543441
0.973869 0.381252 0.382727 0.007794 -0.999938 0.007909
0.701368 0.388674 0.480113 0.003312 0.999892 0.014315
0.103591 0.221636 0.114063 0.252624 0.098815 0.962505
0.914687 0.217439 0.114063 0.808179 0.035800 0.587848
0.794985 0.388674 0.239836 0.004852 0.999987 -0.001491
0.770805 0.388674 0.206654 0.004454 0.999983 -0.003674
0.099219 0.109460 0.149416 0.996759 -0.071333 -0.037197
0.898619 0.036057 0.410939 -0.129454 -0.053570 -0.990137
0.565683 0.388674 0.355430 0.001080 0.999981 0.006114
0.629843 0.381252 0.124880 0.002136 -0.999957 -0.009054
0.800668 0.388674 0.358199 0.004945 0.999968 0.006296
0.356131 0.105945 0.099219 -0.007165 0.033661 0.999408
0.167035 0.381252 0.285137 -0.005476 -0.999984 0.001489
0.459379 0.366298 0.425783 0.003703 0.061972 -0.998071
0.058747 0.388674 0.247476 -0.007257 0.999973 -0.000988
0.085371 0.249937 0.410939 -0.821002 0.050841 -0.568657
0.381029 0.388674 0.101657 -0.001957 0.999942 -0.010581
0.906462 0.329622 0.196941 -0.138514 0.026783 0.989998
0.848882 0.381252 0.457658 0.005738 -0.999901 0.012838
0.904497 0.293292 0.261586 -0.967842 0.026665 -0.250141
0.823601 0.381252 0.396629 0.005322 -0.999947 0.008824
0.490505 0.388674 0.298677 -0.000156 0.999997 0.002380
0.527326 0.381252 0.159106 0.000449 -0.999977 -0.006802
0.101569 0.388674 0.489550 -0.006552 0.999867 0.014936
0.055877 0.388674 0.244518 -0.007305 0.999973 -0.001183
0.144362 0.388674 0.171457 -0.005849 0.999965 -0.005990
0.788955 0.381336 0.025000 0.004861 -0.999860 -0.015983
0.089760 0.244794 0.114063 -0.632909 0.178173 0.753446
0.401817 0.381252 0.069083 -0.001615 -0.999918 -0.012724
0.789478 0.358891 0.440627 -0.133028 -0.106444 0.985380
0.936701 0.381252 0.118081 0.007182 -0.999929 -0.009501
0.112761 0.381252 0.188838 -0.006369 -0.999968 -0.004846
0.879440 0.387453 0.025000 0.009297 0.999686 -0.023277
0.885942 0.257873 0.112806 -0.731448 0.064260 0.678863
0.433824 0.388674 0.222614 -0.001088 0.999996 -0.002624
0.886341 0.381252 0.254361 0.006354 -0.999980 -0.000536
0.177791 0.388674 0.197449 -0.005299 0.999977 -0.004280
0.849317 0.388674 0.414879 0.005745 0.999933 0.010024
0.905475 0.309975 0.300848 -0.620448 0.004669 0.784234
0.093895 0.287717 0.224155 0.492058 0.014967 -0.870434
0.956474 0.388674 0.123532 0.007507 0.999930 -0.009142
0.435738 0.388674 0.447873 -0.001057 0.999925 0.012195
0.350935 0.388674 0.326510 -0.002452 0.999988 0.004211
0.915630 0.375468 0.096348 0.952067 0.108586 -0.285967
0.501145 0.388674 0.196492 0.000019 0.999991 -0.004343
0.630626 0.388674 0.420185 0.002148 0.999944 0.010373
0.092786 0.204360 0.231577 0.257467 -0.008610 0.966249
0.853834 0.350574 0.084375 -0.091825 -0.270849 -0.958232
0.544141 0.388674 0.064908 0.000726 0.999915 -0.012999
0.469891 0.381252 0.319044 -0.000495 -0.999993 0.003720
0.099219 0.122032 0.367939 0.812458 0.582442 0.025932
0.229340 0.388674 0.348124 -0.004452 0.999974 0.005633
0.499957 0.388674 0.346341 -0.000001 0.999985 0.005516
0.587833 0.388674 0.364026 0.001445 0.999977 0.006679
0.577633 0.347926 0.099219 0.013259 -0.258325 0.965967
0.915630 0.344109 0.393879 0.968355 -0.238147 0.074663
0.095664 0.066293 0.114063 -0.262997 -0.017828 0.964632
0.107019 0.163274 0.410939 0.449470 0.028393 -0.892844
0.087554 0.371515 0.114063 -0.846266 0.223671 0.483533
0.913154 0.123959 0.392746 0.598172 0.800204 0.043173
0.973058 0.388674 0.130823 0.007780 0.999932 -0.008662
0.089303 0.286814 0.206837 -0.673302 0.011674 -0.739275
0.045150 0.381252 0.041120 -0.007480 -0.999866 -0.014563
0.815077 0.381252 0.376913 0.005182 -0.999958 0.007527
0.911248 0.356376 0.114063 0.788014 0.116044 0.604622
0.577633 0.355395 0.425783 -0.005827 -0.134875 -0.990846
0.351370 0.388674 0.430289 -0.002444 0.999936 0.011038
0.064546 0.388674 0.145668 -0.007162 0.999945 -0.007686
0.599546 0.381252 0.176719 0.001637 -0.999983 -0.005644
0.387059 0.388674 0.193201 -0.001858 0.999988 -0.004559
0.942847 0.381252 0.150292 0.007283 -0.999946 -0.007382
0.084375 0.362021 0.139894 -0.986314 0.006757 0.164736
0.915630 0.060400 0.425396 0.999370 -0.034224 -0.009398
0.604982 0.351994 0.425783 -0.009852 -0.193562 -0.981038
0.885942 0.206991 0.100402 -0.990762 0.129513 -0.040201
0.553448 0.388674 0.062792 0.000879 0.999913 -0.013138
0.333220 0.381252 0.498538 -0.002743 -0.999876 0.015527
0.904497 0.179524 0.331749 -0.982822 -0.022820 0.183142
0.634395 0.388674 0.395599 0.002210 0.999959 0.008756
0.114063 0.238010 0.423035 0.985304 0.138460 -0.100025
0.911181 0.204666 0.258790 0.669238 -0.003721 -0.743039
0.912829 0.377305 0.410939 0.751163 0.303355 -0.586284
0.084375 0.155283 0.439068 -0.744636 0.010979 0.667381
0.204319 0.381252 0.176719 -0.004863 -0.999972 -0.005643
0.736640 0.341668 0.429826 -0.024419 -0.651825 -0.757976
0.915630 0.233074 0.085054 0.724190 0.035023 -0.688710
0.189156 0.381252 0.126532 -0.005112 -0.999947 -0.008945
0.400040 0.341668 0.093366 0.011486 -0.879230 0.476259
0.137114 0.388674 0.446148 -0.005968 0.999909 0.012081
0.790433 0.388674 0.046339 0.004776 0.999887 -0.014220
0.152460 0.381252 0.087007 0.319689 0.381258 -0.867433
0.255096 0.360945 0.084375 0.142845 -0.074627 -0.986928
0.653298 0.388674 0.265552 0.002521 0.999997 0.000201
0.042222 0.381252 0.280904 -0.007529 -0.999971 0.001211
0.568588 0.357967 0.425783 -0.002834 -0.089744 -0.995961
0.831400 0.388674 0.181909 0.005451 0.999971 -0.005302
0.400599 0.388674 0.460717 -0.001635 0.999914 0.013040
0.381029 0.388674 0.135172 -0.001957 0.999963 -0.008377
0.084375 0.371815 0.090787 -0.851948 0.162116 -0.497899
0.651813 0.355609 0.440627 -0.101640 -0.165075 0.981030
0.789882 0.381252 0.455585 0.004767 -0.999908 0.012702
0.396813 0.121367 0.084375 -0.004889 0.309838 -0.950777
0.634627 0.388674 0.273714 0.002214 0.999997 0.000738
0.468065 0.388674 0.117400 -0.000525 0.999954 -0.009546
0.106939 0.035253 0.114063 0.456589 -0.056394 0.887889
0.854159 0.388674 0.220933 0.005825 0.999979 -0.002735
0.091966 0.341668 0.242278 0.048230 0.052088 -0.997477
0.736169 0.355163 0.099219 0.004226 -0.134443 0.990912
0.087450 0.388674 0.278164 -0.006785 0.999976 0.001030
0.275032 0.388674 0.395324 -0.003700 0.999955 0.008738
0.099219 0.123186 0.312482 0.855212 0.518200 0.008993
0.088494 0.381252 0.392381 -0.006768 -0.999941 0.008544
0.091747 0.283545 0.318166 0.206829 0.022729 0.978113
0.756251 0.381252 0.378073 0.004215 -0.999962 0.007603
0.098294 0.117208 0.440627 -0.161980 0.031337 0.986296
0.771849 0.388674 0.240546 0.004471 0.999989 -0.001444
0.114063 0.197239 0.430451 0.869544 0.112544 0.480861
0.177733 0.388674 0.337179 -0.005300 0.999974 0.004913
0.567480 0.381252 0.048368 0.001110 -0.999900 -0.014086
0.781098 0.388674 0.111094 0.004623 0.999940 -0.009960
0.779300 0.388674 0.283542 0.004594 0.999988 0.001384
0.918812 0.381252 0.477431 0.006888 -0.999876 0.014139
0.095508 0.221283 0.332328 0.998032 0.003553 -0.062605
0.408311 0.381252 0.254782 -0.001508 -0.999999 -0.000508
0.386856 0.381252 0.077723 -0.001861 -0.999924 -0.012156
0.401701 0.381252 0.378812 -0.001617 -0.999969 0.007652
0.537022 0.341668 0.440275 -0.005190 -0.392056 0.919927
0.091137 0.348994 0.084375 -0.525109 0.134069 -0.840408
0.904271 0.381252 0.427747 0.748518 0.550539 0.369632
0.085069 0.087676 0.114063 -0.985087 -0.163238 -0.054379
0.488754 0.123959 0.096808 -0.000726 0.485552 0.874207
0.490708 0.388674 0.289428 -0.000153 0.999998 0.001772
0.347774 0.381252 0.399571 -0.002504 -0.999956 0.009017
0.621349 0.381252 0.278831 0.001996 -0.999997 0.001074
0.522484 0.381252 0.134708 0.000370 -0.999965 -0.008407
0.908434 0.272476 0.206837 -0.060679 0.016812 -0.998016
0.091925 0.161286 0.328061 0.043509 -0.017783 -0.998895
0.263609 0.381252 0.293357 -0.003888 -0.999990 0.002030
0.390770 0.381252 0.461384 -0.001796 -0.999913 0.013083
0.764195 0.381252 0.185518 0.004345 -0.999978 -0.005065
0.038366 0.388674 0.498016 -0.007592 0.999851 0.015492
0.938585 0.381252 0.140536 0.007213 -0.999942 -0.008024
0.270364 0.381252 0.093350 -0.003777 -0.999931 -0.011128
0.167325 0.381252 0.137869 -0.005471 -0.999951 -0.008199
0.097658 0.373304 0.084375 -0.312838 0.193838 -0.929817
0.457221 0.388674 0.151872 -0.000704 0.999973 -0.007278
0.588297 0.388674 0.488274 0.001452 0.999889 0.014852
0.042019 0.388674 0.094510 -0.007532 0.999911 -0.011051
0.099219 0.095913 0.191945 0.947028 -0.320563 -0.019434
0.573482 0.388674 0.307838 0.001209 0.999995 0.002983
0.270950 0.348367 0.084375 0.060704 -0.274221 -0.959749
0.914916 0.228507 0.440627 0.695719 0.039148 0.717246
0.689668 0.342683 0.084375 -0.005209 -0.370620 -0.928770
0.082289 0.388674 0.460992 -0.006870 0.999891 0.013057
0.557507 0.388674 0.226035 0.000946 0.999997 -0.002399
0.087445 0.172374 0.440627 -0.632546 0.027573 0.774032
0.085805 0.123959 0.387038 -0.941898 0.332384 0.048475
0.375781 0.381252 0.067228 -0.002043 -0.999915 -0.012846
0.182952 0.388674 0.240836 -0.005215 0.999985 -0.001425
0.905061 0.250058 0.214259 -0.577329 0.006822 0.816483
0.121578 0.373264 0.440627 0.357314 0.074561 0.931003
0.896775 0.323553 0.114063 -0.194526 0.130057 0.972237
0.915630 0.107879 0.209032 0.999839 -0.004745 -0.017312
0.088302 0.246570 0.266212 -0.696547 -0.005803 0.717488
0.371113 0.388674 0.418156 -0.002120 0.999945 0.010240
0.864277 0.381252 0.192491 0.005991 -0.999971 -0.004606
0.745898 0.092041 0.099219 0.011941 -0.223896 0.974540
0.672025 0.343469 0.099219 0.017396 -0.326925 0.944890
0.911300 0.341668 0.160587 0.385299 -0.918692 0.086891
0.901705 0.178473 0.440627 0.104871 0.042175 0.993591
0.084375 0.224289 0.087337 -0.786014 0.042626 -0.616737
0.025000 0.381972 0.169007 -0.009693 -0.999924 -0.007631
0.898432 0.333229 0.084375 0.059040 0.155566 -0.986060
0.204096 0.343445 0.425783 -0.016716 -0.325648 -0.945343
0.086775 0.299405 0.440627 -0.649575 0.066962 0.757343
0.705687 0.381252 0.098952 -0.008369 0.325837 0.945389
0.097800 0.388674 0.093858 -0.006615 0.999917 -0.011094
0.086752 0.347559 0.114063 -0.758116 0.273011 0.592220
0.320463 0.381252 0.155366 -0.002953 -0.999971 -0.007048
0.406368 0.388674 0.298749 -0.001540 0.999996 0.002385
0.195969 0.381252 0.245185 -0.005001 -0.999987 -0.001139
0.575984 0.123959 0.090608 0.009284 0.919568 -0.392821
0.109658 0.388674 0.449163 -0.006420 0.999904 0.012279
0.095775 0.346885 0.410939 -0.437549 0.146444 -0.887190
0.098372 0.381252 0.200552 0.940572 0.332516 0.068982
0.114063 0.202283 0.435608 0.697046 0.095089 0.710694
0.889746 0.322585 0.440627 -0.220469 0.203583 0.953911
0.373633 0.113998 0.099219 -0.006190 0.183105 0.983074
0.114063 0.111467 0.091182 0.833301 0.029091 -0.552054
0.865930 0.381252 0.448018 0.006018 -0.999907 0.012204
0.792611 0.365965 0.084375 -0.205662 -0.030845 -0.978137
0.254737 0.381252 0.439480 -0.004034 -0.999924 0.011643
0.055761 0.381252 0.160831 -0.007306 -0.999951 -0.006689
0.095508 0.256982 0.259328 0.716323 0.007428 -0.697729
0.915630 0.084943 0.381176 0.971290 -0.234387 0.040720
0.493520 0.388674 0.397933 -0.000107 0.999960 0.008910
0.241314 0.388674 0.069649 -0.004254 0.999910 -0.012687
0.902682 0.381252 0.193584 -0.762172 0.636799 -0.116539
0.912710 0.282532 0.114063 0.798826 0.072699 0.597153
0.428519 0.388674 0.058661 -0.001176 0.999909 -0.013409
0.299386 0.381252 0.401978 -0.003299 -0.999952 0.009176
0.355313 0.388674 0.099685 -0.002380 0.999940 -0.010711
0.889142 0.297959 0.410939 -0.594006 0.122974 -0.795006
0.890046 0.362312 0.440627 -0.161572 0.232072 0.959186
0.378710 0.388674 0.118125 -0.001995 0.999953 -0.009498
0.114063 0.299916 0.104232 0.932747 0.185907 0.308903
0.499377 0.381252 0.077506 -0.000010 -0.999926 -0.012170
0.732332 0.381252 0.107368 0.003821 -0.999941 -0.010206
0.915630 0.202022 0.112161 0.859381 0.029794 0.510467
0.091448 0.141566 0.241472 0.102337 -0.032358 -0.994223
0.284872 0.367468 0.425783 0.009919 0.082007 -0.996582
0.369487 0.108949 0.099219 -0.006477 0.090234 0.995900
0.090903 0.157166 0.310744 0.015143 -0.022960 -0.999622
0.468442 0.381252 0.191737 -0.000519 -0.999989 -0.004656
0.915630 0.103593 0.251497 0.999503 -0.031368 -0.003108
0.431708 0.388674 0.400688 -0.001123 0.999958 0.009091
0.968941 0.381252 0.078839 0.007712 -0.999897 -0.012082
0.738363 0.381252 0.333294 0.003920 -0.999981 0.004657
0.325860 0.369540 0.440627 0.130744 0.036239 0.990754
0.900786 0.107568 0.357529 -0.995947 -0.084513 0.030781
0.900786 0.112291 0.387944 -0.998806 -0.025343 0.041766
0.553941 0.388674 0.144493 0.000887 0.999969 -0.007763
0.341425 0.381252 0.093394 -0.002608 -0.999935 -0.011125
0.878426 0.381252 0.091669 0.006224 -0.999918 -0.011238
0.484706 0.381252 0.467922 -0.000252 -0.999909 0.013513
0.025000 0.387238 0.431855 -0.012739 0.999754 0.018167
0.332524 0.381252 0.071548 -0.002754 -0.999917 -0.012562
0.085908 0.194629 0.440627 -0.672978 0.028235 0.739124
0.576597 0.084488 0.084375 0.003576 -0.349370 -0.936978
0.376695 0.374416 0.425783 0.008045 0.205897 -0.978541
0.911919 0.327443 0.190293 0.792974 0.012260 -0.609132
0.114063 0.096974 0.086525 -0.026579 -0.188369 -0.981739
0.738383 0.123959 0.096444 0.016273 0.513731 0.857797
0.911109 0.123959 0.353497 0.387914 0.921010 0.035535
0.154365 0.388674 0.446568 -0.005684 0.999911 0.012109
0.105085 0.240923 0.084375 0.145684 0.123664 -0.981572
0.915630 0.112281 0.142240 0.999064 -0.016507 -0.039979
0.091124 0.255234 0.248894 0.099564 0.017504 0.994877
0.084375 0.307929 0.420489 -0.990697 0.088836 -0.103095
0.885942 0.193020 0.426291 -0.992813 0.092846 0.075506
0.741610 0.381252 0.029088 0.003973 -0.999874 -0.015354
0.322233 0.351651 0.099219 0.010666 -0.200374 0.979661
0.088086 0.170143 0.311182 -0.598175 -0.013189 -0.801257
0.114063 0.270757 0.095914 0.894153 0.212219 -0.394276
0.269871 0.381252 0.271090 -0.003785 -0.999993 0.000565
0.621783 0.388674 0.329235 0.002003 0.999988 0.004390
0.801218 0.388674 0.033393 0.004954 0.999874 -0.015071
0.885942 0.369184 0.107668 -0.858839 0.157719 0.487361
0.874048 0.388674 0.377116 0.006152 0.999953 0.007540
0.878368 0.381252 0.420345 0.006223 -0.999927 0.010384
0.219279 0.381252 0.221411 -0.004617 -0.999986 -0.002703
0.774255 0.381252 0.097830 0.004511 -0.999931 -0.010833
0.650950 0.388674 0.313130 0.002483 0.999991 0.003331
0.849712 0.352712 0.425783 -0.023279 -0.176106 -0.984096
0.672433 0.381252 0.491957 0.002836 -0.999882 0.015094
0.090581 0.381252 0.160657 -0.006734 -0.999955 -0.006700
0.647903 0.359816 0.099219 -0.000646 -0.054071 0.998537
0.660894 0.381252 0.499886 0.002646 -0.999875 0.015616
0.648279 0.092609 0.084375 0.007217 -0.213913 -0.976826
0.914591 0.246131 0.440627 0.687748 0.048578 0.724322
0.218757 0.388674 0.430376 -0.004625 0.999928 0.011044
0.922118 0.388674 0.362780 0.006943 0.999954 0.006597
0.110942 0.190617 0.410939 0.617273 0.035920 -0.785929
0.099723 0.228888 0.114063 -0.009606 0.124272 0.992202
0.900786 0.360079 0.381212 -0.963251 -0.268574 0.003889
0.915630 0.084602 0.430994 0.942258 -0.025864 0.333888
0.423300 0.381252 0.169021 -0.001262 -0.999980 -0.006150
0.475661 0.381252 0.321523 -0.000400 -0.999992 0.003883
0.634047 0.381252 0.308085 0.002205 -0.999993 0.002999
0.909909 0.224179 0.231577 0.416627 -0.002458 0.909074
0.114063 0.229345 0.439968 0.556094 0.096422 0.825507
0.855319 0.388674 0.051557 0.005843 0.999887 -0.013876
0.932120 0.388674 0.216453 0.007107 0.999970 -0.003029
0.915630 0.370123 0.375115 0.958798 0.124003 -0.255598
0.655908 0.381252 0.470386 0.002564 -0.999903 0.013675
0.893401 0.314453 0.440627 -0.104496 0.189480 0.976308
0.514946 0.381252 0.198710 0.000246 -0.999991 -0.004197
0.166123 0.361307 0.440627 0.193358 -0.107591 0.975211
0.751119 0.381252 0.290689 0.004130 -0.999990 0.001854
0.135433 0.381252 0.124199 -0.005996 -0.999941 -0.009098
0.626132 0.381252 0.224064 0.002075 -0.999995 -0.002529
0.467340 0.381252 0.472604 -0.000537 -0.999904 0.013821
0.900786 0.088689 0.309274 -0.897731 -0.440446 0.009332
0.914365 0.381252 0.336627 0.855623 0.354356 -0.377280
0.907921 0.172776 0.084375 0.481112 0.049617 -0.875254
0.086939 0.361203 0.410939 -0.834545 0.109011 -0.540047
0.909861 0.297783 0.196941 0.435630 0.035373 0.899431
0.295269 0.381252 0.472502 -0.003367 -0.999899 0.013815
0.210292 0.381252 0.230790 -0.004765 -0.999986 -0.002086
0.084375 0.173896 0.088924 -0.825481 0.019317 -0.564099
0.867032 0.381252 0.383582 0.006037 -0.999950 0.007966
0.594153 0.381252 0.232153 0.001549 -0.999997 -0.001997
0.895801 0.090603 0.084375 -0.216148 0.008631 -0.976322
0.900786 0.115779 0.309129 -0.982221 0.186897 0.017673
0.745669 0.381252 0.222208 0.004041 -0.999988 -0.002651
0.885942 0.255460 0.087071 -0.589211 0.123975 -0.798412
0.815976 0.388674 0.243344 0.005197 0.999986 -0.001260
0.173214 0.381252 0.096860 0.088433 0.445384 0.890962
0.304377 0.360971 0.084375 0.139395 -0.076142 -0.987305
0.343020 0.381252 0.173211 -0.002582 -0.999979 -0.005874
0.127141 0.388674 0.133360 -0.006132 0.999945 -0.008496
0.637279 0.341668 0.086786 -0.011952 -0.523611 -0.851874
0.850970 0.381252 0.498799 0.005772 -0.999863 0.015544
0.047759 0.388674 0.391555 -0.007438 0.999936 0.008490
0.140622 0.388674 0.491072 -0.005910 0.999869 0.015036
0.107564 0.045690 0.114063 0.485216 -0.048412 0.873053
0.564378 0.388674 0.158859 0.001059 0.999976 -0.006818
0.929105 0.388674 0.044570 0.007057 0.999872 -0.014336
0.883644 0.388674 0.340339 0.006310 0.999967 0.005121
0.948965 0.381252 0.282615 0.007384 -0.999972 0.001323
0.600822 0.388674 0.463616 0.001658 0.999911 0.013230
0.688263 0.381252 0.398875 0.003096 -0.999955 0.008972
0.890827 0.381252 0.110421 -0.642528 0.181619 0.744427
0.958619 0.381252 0.434536 0.007543 -0.999907 0.011317
0.904497 0.130218 0.208714 -0.706709 -0.022443 -0.707148
0.915630 0.352545 0.235959 0.930386 -0.317755 0.182794
0.386306 0.388674 0.477837 -0.001870 0.999898 0.014166
0.611607 0.381252 0.385278 0.001836 -0.999966 0.008077
0.435651 0.381252 0.252781 -0.001058 -0.999999 -0.000639
0.885942 0.042069 0.426782 -0.992245 -0.042705 0.116729
0.740653 0.381252 0.056573 0.003958 -0.999900 -0.013547
0.099219 0.353205 0.144306 0.907346 -0.420031 -0.017250
0.218062 0.381252 0.245084 -0.004637 -0.999989 -0.001146
0.814961 0.388674 0.192578 0.005180 0.999976 -0.004600
0.095425 0.355322 0.440627 -0.342724 0.135523 0.929610
0.900786 0.091631 0.222686 -0.975275 -0.220416 -0.015997
0.666084 0.381252 0.343340 0.002732 -0.999982 0.005318
0.444465 0.381252 0.204392 -0.000913 -0.999992 -0.003823
0.939252 0.381252 0.254680 0.007224 -0.999974 -0.000515
0.886569 0.129722 0.084375 -0.587878 0.030961 -0.808357
0.110512 0.025011 0.410939 0.601522 -0.039477 -0.797880
0.089898 0.123959 0.221381 -0.268172 0.963256 -0.014898
0.881905 0.388674 0.085363 0.006281 0.999912 -0.011653
0.496680 0.388674 0.061357 -0.000055 0.999912 -0.013232
0.316694 0.381252 0.451613 -0.003015 -0.999918 0.012441
0.325247 0.388674 0.085783 -0.002874 0.999928 -0.011625
0.886796 0.357659 0.410939 -0.660108 0.147781 -0.736491
0.758222 0.388674 0.204044 0.004247 0.999984 -0.003846
0.084375 0.051398 0.423729 -0.995363 -0.041862 -0.086605
0.087564 0.201935 0.114063 -0.699466 0.132713 0.702235
0.644688 0.388674 0.456122 0.002380 0.999916 0.012737
0.096331 0.294937 0.114063 -0.283731 0.234246 0.929852
0.875648 0.381015 0.425783 -0.030276 0.334112 -0.942047
0.406000 0.370715 0.084375 0.117859 0.076910 -0.990048
0.089950 0.199915 0.196941 -0.469047 -0.014884 0.883048
0.600200 0.341668 0.089033 -0.014223 -0.745749 -0.666076
0.114063 0.346167 0.105477 0.893623 0.234379 0.382759
0.122328 0.381252 0.489913 -0.006211 -0.999869 0.014959
0.131345 0.388674 0.184474 -0.006063 0.999968 -0.005133
0.697976 0.388674 0.148320 0.003256 0.999967 -0.007512
0.750887 0.388674 0.084073 0.004126 0.999923 -0.011738
0.456004 0.381252 0.189215 -0.000724 -0.999988 -0.004821
0.885942 0.069609 0.431388 -0.906760 -0.008961 0.421552
0.089765 0.139108 0.258790 -0.543058 -0.024664 -0.839333
0.906923 0.210353 0.266212 -0.426493 -0.015549 0.904357
0.885942 0.183703 0.102781 -0.980523 0.097966 0.170229
0.885942 0.307690 0.102016 -0.977960 0.181762 0.102751
0.088106 0.093050 0.410939 -0.675222 -0.021471 -0.737302
0.915630 0.070990 0.426829 0.996136 -0.029510 0.082719
0.114063 0.265332 0.095077 0.865635 0.205269 -0.456664
0.114063 0.089549 0.090992 0.831373 0.011211 -0.555601
0.696323 0.388674 0.220367 0.003229 0.999991 -0.002772
0.171413 0.388674 0.288573 -0.005404 0.999984 0.001715
0.084375 0.338459 0.102298 -0.971530 0.227876 0.064831
0.114063 0.115936 0.415882 0.828777 0.020279 -0.559212
0.900786 0.096328 0.179007 -0.998843 -0.039365 -0.027634
0.093683 0.388674 0.237995 -0.006683 0.999976 -0.001612
0.339425 0.381252 0.067097 -0.002641 -0.999914 -0.012855
0.298652 0.381252 0.094419 0.201444 0.653942 0.729232
0.693714 0.381252 0.350095 0.003186 -0.999978 0.005763
0.419067 0.388674 0.083072 -0.001331 0.999929 -0.011804
0.109374 0.342688 0.114063 0.534597 0.169392 0.827956
0.897980 0.037884 0.084375 -0.137266 -0.035222 -0.989908
0.492241 0.355696 0.425783 -0.004973 -0.128435 -0.991706
0.825746 0.381252 0.181648 0.005358 -0.999972 -0.005319
0.912270 0.329163 0.114063 0.811092 0.098065 0.576639
0.926524 0.388674 0.499886 0.007014 0.999853 0.015615
0.963664 0.388674 0.055341 0.007625 0.999878 -0.013627
0.807829 0.381252 0.323378 0.005063 -0.999979 0.004005
0.091123 0.381122 0.084375 -0.543356 0.155923 -0.824895
0.365170 0.388674 0.342441 -0.002218 0.999984 0.005259
0.922987 0.388674 0.097134 0.006957 0.999917 -0.010879
0.796725 0.388674 0.090451 0.004880 0.999924 -0.011318
0.685146 0.347873 0.425783 -0.014847 -0.262815 -0.964732
0.828413 0.388674 0.339223 0.005401 0.999973 0.005047
0.172253 0.381252 0.294096 -0.005391 -0.999983 0.002079
0.045991 0.388674 0.291298 -0.007467 0.999970 0.001894
0.192374 0.388674 0.461471 -0.005059 0.999902 0.013089
0.857179 0.108500 0.099219 0.017735 0.081802 0.996491
0.747466 0.388674 0.293559 0.004070 0.999990 0.002043
0.811644 0.378162 0.084375 -0.345024 0.154111 -0.925856
0.915630 0.218853 0.419550 0.946441 0.118278 -0.300434
0.710617 0.388674 0.451642 0.003464 0.999917 0.012443
0.218654 0.341668 0.437103 0.023575 -0.623456 0.781503
0.915630 0.184496 0.438673 0.759893 0.020008 0.649741
0.122183 0.381252 0.088436 -0.006214 -0.999915 -0.011451
0.051383 0.388674 0.419736 -0.007378 0.999919 0.010344
0.755120 0.381252 0.474343 0.004196 -0.999894 0.013936
0.808464 0.378588 0.084375 -0.346094 0.160627 -0.924347
0.899725 0.084656 0.410939 -0.048538 -0.009980 -0.998771
0.905446 0.321383 0.318166 -0.234442 0.029306 0.971688
0.722127 0.381252 0.329800 0.003653 -0.999984 0.004428
0.945457 0.388674 0.127750 0.007326 0.999934 -0.008865
0.102676 0.161610 0.410939 0.154266 0.032281 -0.987502
0.568234 0.088568 0.084375 0.003260 -0.283430 -0.958987
0.748539 0.381252 0.281136 0.004088 -0.999991 0.001226
0.272974 0.388674 0.071620 -0.003734 0.999914 -0.012557
0.885942 0.029827 0.420610 -0.947627 -0.060771 -0.313544
0.405963 0.381252 0.127272 -0.001547 -0.999959 -0.008896
0.616739 0.381252 0.458571 0.001920 -0.999915 0.012898
0.550549 0.383804 0.500002 0.002659 -0.998747 0.049971
0.051209 0.388674 0.439987 -0.007381 0.999905 0.011676
0.043613 0.388674 0.400977 -0.007506 0.999930 0.009110
0.679680 0.084375 0.088493 0.015378 -0.644123 -0.764767
0.290514 0.381252 0.131925 -0.003445 -0.999957 -0.008590
0.906166 0.200402 0.410939 0.406263 0.119595 -0.905896
0.025319 0.388674 0.337991 -0.007807 0.999957 0.004966
0.280628 0.381252 0.421896 -0.003608 -0.999938 0.010486
0.486620 0.381252 0.343949 -0.000220 -0.999986 0.005358
0.605837 0.381252 0.293081 0.001741 -0.999996 0.002012
0.248968 0.382310 0.500002 -0.005774 -0.999745 0.021849
0.915630 0.043505 0.111140 0.814567 -0.044552 0.578356
0.915630 0.343384 0.094562 0.925747 0.093008 -0.366528
0.557163 0.373320 0.084375 -0.057731 0.106481 -0.992637
0.912873 0.381252 0.373901 0.693509 0.439452 -0.570900
0.377492 0.381252 0.222034 -0.002015 -0.999994 -0.002662
0.037148 0.381252 0.191056 -0.007613 -0.999960 -0.004700
0.483953 0.381252 0.132360 -0.000264 -0.999963 -0.008562
0.404252 0.381252 0.244837 -0.001575 -0.999998 -0.001162
0.348781 0.368683 0.425783 0.010927 0.102344 -0.994689
0.111908 0.246055 0.440627 0.450806 0.110393 0.885770
0.114063 0.231617 0.103810 0.950691 0.112036 0.289196
0.266160 0.388674 0.370318 -0.003846 0.999967 0.007093
0.265378 0.388674 0.358605 -0.003859 0.999973 0.006322
0.915630 0.088646 0.095646 0.959150 -0.014341 -0.282533
0.095508 0.229056 0.312426 0.886414 -0.007651 -0.462830
0.094884 0.324081 0.189519 0.656705 0.009092 -0.754092
0.914550 0.388674 0.234124 0.006818 0.999975 -0.001867
0.786548 0.388674 0.395614 0.004713 0.999951 0.008757
0.087685 0.084375 0.358807 -0.520483 -0.853269 0.032101
0.931047 0.388674 0.216729 0.007090 0.999970 -0.003011
0.909648 0.225354 0.440627 0.525057 0.051689 0.849496
0.464255 0.351191 0.084375 0.064391 -0.239141 -0.968848
0.928612 0.381252 0.461369 0.007049 -0.999890 0.013082
0.085213 0.209622 0.440627 -0.689801 0.030080 0.723374
0.871207 0.381252 0.408994 0.006105 -0.999935 0.009637
0.156626 0.381252 0.287688 -0.005648 -0.999983 0.001657
0.679971 0.388674 0.372724 0.002960 0.999969 0.007251
0.905114 0.175750 0.266212 -0.656242 -0.018688 0.754319
0.962997 0.388674 0.481432 0.007614 0.999867 0.014402
0.836676 0.388674 0.091016 0.005537 0.999921 -0.011281
0.174370 0.381252 0.077941 -0.005355 -0.999912 -0.012141
0.900786 0.112930 0.226718 -0.963182 0.268724 -0.008243
0.270770 0.381252 0.211090 -0.003770 -0.999987 -0.003382
0.959402 0.381252 0.261769 0.007556 -0.999971 -0.000048
0.092304 0.333542 0.300848 0.358094 0.039107 0.932866
0.205247 0.381252 0.498726 -0.004847 -0.999867 0.015539
0.111037 0.128330 0.114063 0.615685 0.007979 0.787952
0.089607 0.341668 0.253074 -0.378322 -0.921966 -0.082774
0.822296 0.388674 0.273163 0.005301 0.999986 0.000701
0.621203 0.381252 0.496334 0.001993 -0.999880 0.015382
0.054456 0.381252 0.408211 -0.007328 -0.999927 0.009586
0.058863 0.388674 0.028131 -0.007255 0.999855 -0.015417
0.885942 0.099301 0.430948 -0.918132 0.015212 0.395982
0.904497 0.135347 0.226840 -0.963441 -0.029409 -0.266300
0.885942 0.082808 0.414439 -0.792439 -0.022278 -0.609544
0.097148 0.331653 0.084375 -0.293346 0.160827 -0.942381
0.885942 0.298014 0.435951 -0.538078 0.219821 0.813727
0.044802 0.381252 0.036061 -0.007486 -0.999861 -0.014895
0.907220 0.253002 0.231577 -0.257305 0.006110 0.966311
0.271147 0.381252 0.172486 -0.003764 -0.999975 -0.005922
0.670288 0.381252 0.422838 0.002801 -0.999940 0.010548
0.237500 0.381252 0.437681 0.385528 0.357769 0.850511
0.084375 0.346267 0.248281 -0.917849 -0.381091 -0.111009
0.602097 0.381252 0.042744 0.001679 -0.999894 -0.014456
0.635874 0.388674 0.102874 0.002235 0.999942 -0.010501
0.114063 0.351810 0.424734 0.973304 0.223117 0.053830
0.683567 0.388674 0.196390 0.003019 0.999986 -0.004349
0.096192 0.322716 0.410939 -0.406518 0.133133 -0.903891
0.090349 0.388674 0.465443 -0.006737 0.999888 0.013350
0.579686 0.388674 0.097917 0.001311 0.999941 -0.010827
0.900786 0.085751 0.118158 -0.983607 -0.173872 -0.047817
0.675159 0.388674 0.242663 0.002881 0.999995 -0.001305
0.254302 0.381252 0.103947 -0.004041 -0.999937 -0.010431
0.856043 0.381252 0.141623 0.005856 -0.999951 -0.007952
0.901098 0.388674 0.416315 0.006597 0.999927 0.010119
0.391060 0.388674 0.208161 -0.001792 0.999992 -0.003575
0.086576 0.270463 0.410939 -0.807769 0.064178 -0.585996
0.288572 0.381252 0.212438 -0.003477 -0.999989 -0.003294
0.703108 0.388674 0.391511 0.003341 0.999958 0.008487
0.370524 0.378773 0.425783 0.007374 0.279649 -0.960074
0.885942 0.248643 0.101930 -0.984635 0.145480 0.096588
0.092089 0.388674 0.105600 -0.006709 0.999924 -0.010322
0.389872 0.381252 0.033379 -0.001811 -0.999885 -0.015072
0.552710 0.368496 0.425783 -0.004034 0.106347 -0.994321
0.335598 0.388674 0.176240 -0.002704 0.999980 -0.005675
0.084375 0.303493 0.096278 -0.962649 0.147238 -0.227217
0.313911 0.381252 0.489724 -0.003060 -0.999884 0.014947
0.169325 0.388674 0.400760 -0.005439 0.999944 0.009096
0.910323 0.322161 0.189519 0.519476 0.014366 -0.854364
0.166310 0.381252 0.147001 -0.005488 -0.999956 -0.007598
0.860537 0.381252 0.203233 0.005930 -0.999975 -0.003899
0.885942 0.348635 0.097386 -0.921076 0.232616 -0.312263
0.760455 0.381252 0.141464 0.004284 -0.999959 -0.007963
0.907203 0.276019 0.114063 0.624495 0.093186 0.775450
0.915630 0.078144 0.106260 0.936861 -0.027927 0.348585
0.141376 0.388674 0.209234 -0.005898 0.999976 -0.003504
0.887614 0.261983 0.114063 -0.660374 0.063329 0.748262
0.915630 0.184855 0.424469 0.995951 0.048370 -0.075772
0.114063 0.042504 0.438483 0.714811 -0.026563 0.698813
0.883296 0.381252 0.174660 0.006304 -0.999963 -0.005779
0.249722 0.388674 0.460601 -0.004116 0.999907 0.013032
0.768022 0.381252 0.254535 0.004408 -0.999990 -0.000524
0.852448 0.381252 0.194535 0.005797 -0.999973 -0.004471
0.342237 0.381252 0.313521 -0.002595 -0.999991 0.003357
0.287383 0.388674 0.084739 -0.003497 0.999925 -0.011694
0.915630 0.343881 0.207592 0.840971 -0.533656 0.089325
0.095508 0.182992 0.300674 0.576649 -0.014188 0.816869
0.132154 0.368429 0.425783 0.011905 0.100737 -0.994842
0.907905 0.145134 0.231577 -0.081397 -0.027358 0.996306
0.408572 0.381252 0.088827 -0.001504 -0.999934 -0.011425
0.915630 0.106875 0.365656 0.968093 0.248547 0.031950
0.911919 0.239707 0.248169 0.785715 0.009500 0.618516
0.084375 0.098236 0.415003 -0.865598 -0.018119 -0.500412
0.709921 0.388674 0.303084 0.003453 0.999990 0.002670
0.335105 0.381252 0.466023 -0.002712 -0.999907 0.013388
0.469456 0.381252 0.112993 -0.000502 -0.999951 -0.009836
0.717749 0.381252 0.033596 0.003581 -0.999880 -0.015058
0.381435 0.388674 0.348921 -0.001950 0.999982 0.005685
0.860784 0.370775 0.099219 -0.014491 0.141045 0.989897
0.084375 0.206045 0.418793 -0.969384 0.040413 -0.242200
0.128735 0.388674 0.438740 -0.006106 0.999914 0.011594
0.905906 0.266202 0.084375 0.400501 0.094817 -0.911377
0.555970 0.388674 0.322726 0.000921 0.999992 0.003962
0.106017 0.369271 0.410939 0.386453 0.142648 -0.911211
0.570553 0.388674 0.123952 0.001160 0.999958 -0.009115
0.527818 0.388674 0.414908 0.000458 0.999950 0.010026
0.089919 0.025000 0.421799 -0.930165 -0.082035 -0.357859
0.822006 0.381252 0.419054 0.005296 -0.999933 0.010299
0.505523 0.388674 0.338440 0.000091 0.999988 0.004996
0.457000 0.378847 0.440627 0.104136 0.193256 0.975606
0.483054 0.341668 0.437865 0.000317 -0.546324 0.837574
0.885942 0.049669 0.413293 -0.763504 -0.044761 -0.644249
0.114063 0.097453 0.430873 0.906485 0.015291 0.421961
0.744013 0.372120 0.440627 -0.209888 0.107269 0.971823
0.468616 0.388674 0.486462 -0.000516 0.999891 0.014733
0.038134 0.381252 0.088407 -0.007596 -0.999906 -0.011453
0.506973 0.388674 0.026087 0.000115 0.999879 -0.015552
0.103947 0.381252 0.210553 -0.006514 -0.999973 -0.003418
0.430490 0.388674 0.368288 -0.001143 0.999975 0.006960
0.041903 0.381252 0.184663 -0.007534 -0.999959 -0.005121
0.885942 0.042896 0.412002 -0.731126 -0.048596 -0.680510
0.063444 0.381252 0.078579 -0.007180 -0.999901 -0.012099
0.086179 0.119850 0.084375 -0.663621 -0.012509 -0.747964
0.091074 0.388674 0.477924 -0.006725 0.999877 0.014171
0.885942 0.318334 0.105661 -0.913866 0.152026 0.376481
0.237594 0.372728 0.099219 0.020993 0.191098 0.981346
0.099219 0.094458 0.378938 0.998874 -0.027349 0.038772
0.911289 0.284587 0.084375 0.594259 0.072196 -0.801027
0.726215 0.388674 0.423331 0.003720 0.999937 0.010580
0.147842 0.381252 0.474257 -0.005792 -0.999886 0.013930
0.084375 0.173254 0.423645 -0.999580 0.028277 0.006390
0.026421 0.381252 0.193709 -0.007789 -0.999959 -0.004526
0.914989 0.361269 0.084375 0.692729 0.077791 -0.716990
0.552828 0.341832 0.425783 -0.020312 -0.354367 -0.934886
0.084375 0.037329 0.439149 -0.743033 -0.028467 0.668649
0.895002 0.114229 0.410939 -0.348488 0.007398 -0.937284
0.796957 0.388674 0.258377 0.004884 0.999988 -0.000271
0.554666 0.388674 0.388887 0.000899 0.999965 0.008315
0.206876 0.369832 0.084375 0.200329 0.072422 -0.977048
0.099292 0.316192 0.440627 -0.167048 0.139934 0.975968
0.093028 0.324400 0.241472 0.359394 0.026447 -0.932811
0.479921 0.341668 0.095538 0.015921 -0.611469 0.791108
0.829370 0.381252 0.087392 0.005417 -0.999919 -0.011519
0.675999 0.388674 0.427970 0.002895 0.999937 0.010885
0.698219 0.368984 0.084375 -0.148070 0.025252 -0.988654
0.392394 0.381252 0.235733 -0.001770 -0.999997 -0.001761
0.099697 0.172406 0.114063 -0.001046 0.066922 0.997758
0.901848 0.084375 0.306982 -0.791093 -0.611635 0.008695
0.088086 0.248118 0.192727 -0.998773 0.005215 -0.049255
0.270190 0.381252 0.129867 -0.003780 -0.999955 -0.008726
0.663765 0.381252 0.461601 0.002693 -0.999911 0.013098
0.885942 0.156761 0.092011 -0.812047 0.065554 -0.579898
0.165498 0.388674 0.182025 -0.005502 0.999971 -0.005294
0.401713 0.381252 0.428202 -0.047366 0.430100 -0.901538
0.122299 0.388674 0.145668 -0.006212 0.999951 -0.007686
0.865553 0.381252 0.136636 0.006012 -0.999948 -0.008280
0.481024 0.388674 0.221455 -0.000312 0.999996 -0.002700
0.799960 0.376921 0.425783 -0.024374 0.264930 -0.963960
0.886631 0.388674 0.234777 0.006359 0.999978 -0.001824
0.915630 0.033459 0.096168 0.974630 -0.047911 -0.218633
0.197738 0.388674 0.198434 -0.004971 0.999979 -0.004215
0.915542 0.109282 0.440627 0.707566 -0.019018 0.706391
0.295190 0.084375 0.097785 -0.011470 -0.421457 0.906776
0.078520 0.381252 0.181314 -0.006932 -0.999962 -0.005341
0.253983 0.387565 0.500002 -0.005769 0.999735 0.022279
0.912173 0.111435 0.440627 0.613257 -0.015285 0.789735
0.885942 0.188769 0.106559 -0.897998 0.072731 0.433947
0.108513 0.229692 0.410939 0.521995 0.059513 -0.850870
0.090871 0.381252 0.081971 -0.006729 -0.999907 -0.011876
0.142304 0.381252 0.094365 -0.005883 -0.999922 -0.011061
0.337309 0.378431 0.099219 0.014295 0.284904 0.958449
0.516859 0.388674 0.045991 0.000277 0.999899 -0.014243
0.368736 0.388674 0.403732 -0.002159 0.999955 0.009291
0.091996 0.320307 0.258790 -0.130618 0.031723 -0.990925
0.911919 0.285611 0.294765 0.751626 0.015077 -0.659417
0.677159 0.381252 0.174936 0.002914 -0.999979 -0.005761
0.520599 0.381252 0.116979 0.000339 -0.999954 -0.009573
0.084375 0.091700 0.343141 -0.900573 -0.434199 0.020982
0.319043 0.381252 0.332424 -0.002976 -0.999985 0.004600
0.431505 0.381252 0.052311 -0.001126 -0.999904 -0.013827
0.955633 0.381252 0.075070 0.007493 -0.999896 -0.012330
0.089927 0.219695 0.283530 -0.363630 0.000375 0.931544
0.893560 0.381252 0.053558 0.006472 -0.999885 -0.013745
0.114063 0.339328 0.416074 0.827231 0.130154 -0.546579
0.708993 0.388674 0.050296 0.003437 0.999897 -0.013960
0.354095 0.388674 0.499538 -0.002399 0.999876 0.015593
0.175964 0.381252 0.380146 -0.005329 -0.999956 0.007740
0.114063 0.194955 0.414139 0.780889 0.048434 -0.622789
0.108451 0.330022 0.410939 0.516383 0.109324 -0.849351
0.092060 0.388674 0.250012 -0.006710 0.999977 -0.000822
0.099219 0.114110 0.295095 0.956811 0.290631 0.006855
0.220439 0.381252 0.063647 -0.004598 -0.999904 -0.013081
0.150529 0.343524 0.425783 -0.016330 -0.323742 -0.946004
0.667128 0.381252 0.074462 0.002749 -0.999920 -0.012370
0.114063 0.192998 0.417721 0.878259 0.069889 -0.473050
0.943717 0.388674 0.421751 0.007298 0.999919 0.010476
0.630771 0.388674 0.332294 0.002151 0.999987 0.004592
0.084375 0.346352 0.109602 -0.887318 0.258008 0.382230
0.302546 0.388674 0.335918 -0.003248 0.999983 0.004830
0.885942 0.222767 0.094007 -0.835301 0.135906 -0.532730
0.403237 0.381252 0.217802 -0.001592 -0.999994 -0.002941
0.114063 0.054214 0.088883 0.768440 -0.011780 -0.639813
0.078375 0.388674 0.163585 -0.006934 0.999955 -0.006507
0.904497 0.339396 0.283223 -0.402853 0.031368 0.914727
0.084375 0.033187 0.439712 -0.729816 -0.029537 0.683005
0.105309 0.381252 0.376276 -0.006491 -0.999951 0.007485
0.138727 0.102725 0.084375 -0.017992 -0.027303 -0.999465
0.130765 0.379615 0.099219 0.029745 0.311692 0.949718
0.909241 0.336904 0.248894 0.385298 0.031894 0.922241
0.617116 0.388674 0.277628 0.001926 0.999998 0.000995
0.088978 0.123959 0.384574 -0.738500 0.671088 0.065264
0.452728 0.381252 0.310332 -0.000778 -0.999995 0.003147
0.374825 0.381252 0.041395 -0.002059 -0.999892 -0.014545
0.915630 0.125373 0.430053 0.960448 0.000911 0.278457
0.915630 0.102996 0.318017 0.997569 0.067479 0.017393
0.084375 0.086526 0.321696 -0.862509 -0.505892 0.012291
0.915630 0.160164 0.108698 0.916327 0.013838 0.400191
0.885942 0.379817 0.097337 -0.914950 0.251728 -0.315436
0.471341 0.388674 0.336918 -0.000471 0.999988 0.004896
0.290108 0.381252 0.051354 -0.003452 -0.999898 -0.013890
0.838126 0.388674 0.246011 0.005561 0.999984 -0.001085
0.297965 0.388674 0.253868 -0.003323 0.999994 -0.000568
0.272010 0.341668 0.433587 0.010380 -0.994130 0.107692
0.089517 0.317323 0.084375 -0.559487 0.099958 -0.822790
0.084375 0.222060 0.085398 -0.737631 0.036709 -0.674205
0.146807 0.356953 0.425783 -0.001461 -0.101586 -0.994826
0.934352 0.388674 0.286123 0.007144 0.999973 0.001554
0.568466 0.388674 0.109717 0.001126 0.999949 -0.010051
0.104769 0.295926 0.114063 0.313417 0.166011 0.934992
0.034886 0.381252 0.264944 -0.007650 -0.999971 0.000161
0.084375 0.214145 0.101653 -0.989061 0.089677 0.117118
0.029610 0.381252 0.318798 -0.007737 -0.999963 0.003704
0.748887 0.388674 0.136651 0.004093 0.999957 -0.008279
0.085560 0.358716 0.410939 -0.859531 -0.407378 -0.308626
0.090447 0.286634 0.300848 -0.418584 0.001738 0.908176
0.171586 0.388674 0.115138 -0.005401 0.999938 -0.009694
0.689133 0.381252 0.228456 0.003111 -0.999993 -0.002240
0.907539 0.256612 0.114063 0.624783 0.079060 0.776786
0.114063 0.217744 0.097648 0.974005 0.130037 -0.185484
0.900786 0.100886 0.169629 -0.996053 0.083518 -0.030039
0.301009 0.388674 0.251752 -0.003273 0.999994 -0.000707
0.171644 0.381252 0.199058 -0.005401 -0.999977 -0.004174
0.911919 0.305637 0.276316 0.760829 0.012111 -0.648840
0.885942 0.073773 0.440059 -0.620552 0.013749 0.784045
0.320608 0.381252 0.374884 -0.002950 -0.999968 0.007393
0.832212 0.388674 0.436769 0.005464 0.999919 0.011464
0.416487 0.388674 0.234023 -0.001374 0.999997 -0.001874
0.188054 0.381252 0.133027 -0.005131 -0.999951 -0.008518
0.114063 0.352234 0.430189 0.828123 0.231934 0.510313
0.900786 0.090412 0.224924 -0.967447 -0.252585 -0.015740
0.448727 0.388674 0.322929 -0.000843 0.999992 0.003976
0.114063 0.250937 0.106594 0.885781 0.114520 0.449753
0.029842 0.381252 0.067039 -0.007732 -0.999887 -0.012858
0.909142 0.063260 0.114063 0.553242 -0.037809 0.832162
0.269842 0.381252 0.125358 -0.003785 -0.999952 -0.009022
0.391698 0.388674 0.492971 -0.001781 0.999883 0.015161
0.892777 0.272660 0.084375 -0.216084 0.139846 -0.966308
0.426235 0.381252 0.435206 0.003584 0.740962 0.671538
0.499190 0.366116 0.425783 0.000658 0.060151 -0.998189
0.546287 0.388674 0.449729 0.000761 0.999924 0.012317
