0.287525 0.911402 0.718196 0.552207 0.073391 -0.830471
0.446804 0.476286 0.040558 -0.056570 -0.158876 -0.985677
0.263360 0.201650 0.194412 -0.502593 -0.520534 -0.690250
0.876845 0.492779 0.500902 0.983589 -0.145360 0.106877
0.076577 0.379059 0.585213 -0.913937 -0.261247 0.310596
0.442343 0.318083 0.836539 -0.036209 -0.358711 0.932746
0.284020 0.355887 0.106460 -0.427590 -0.269088 -0.862994
0.180043 0.604795 0.138111 0.640306 -0.115596 0.759372
0.787370 0.478427 0.711895 -0.780033 0.159918 -0.604959
0.754888 0.852959 0.529772 0.942582 0.270129 0.196389
0.083708 0.307347 0.486487 -0.925675 -0.370524 0.076400
0.795919 0.530151 0.722418 0.777604 -0.111863 0.618724
0.108683 0.364363 0.644032 -0.843103 -0.283255 0.457103
0.325642 0.804095 0.771752 -0.344354 0.470685 0.812328
0.730934 0.876119 0.360452 -0.936831 -0.113325 0.330916
0.487327 0.304628 0.091160 -0.084117 0.373002 0.924010
0.444649 0.555422 0.888089 -0.008315 -0.098125 0.995139
0.219578 0.088631 0.361867 0.516716 0.832192 0.201146
0.319313 0.113130 0.701217 -0.379810 -0.541741 0.749841
0.321990 0.194386 0.755747 0.351044 0.462194 -0.814337
0.505903 0.185041 0.146796 0.158054 -0.500321 -0.851292
0.807639 0.271779 0.539356 0.883935 -0.429463 0.184987
0.718102 0.284302 0.713974 0.664678 -0.394865 0.634259
0.236638 0.407785 0.794325 0.539347 0.229441 -0.810223
0.471077 0.965614 0.748105 -0.008321 0.935756 -0.352550
0.194357 0.865749 0.325429 0.875972 -0.112380 0.469088
0.066745 0.708635 0.530029 0.858818 -0.493112 -0.138824
0.559302 0.546042 0.874392 0.277378 -0.090108 0.956526
0.659025 0.296326 0.769396 0.513060 -0.355917 0.781084
0.618780 0.487109 0.847727 0.394261 -0.125513 0.910387
0.526289 0.640642 0.045739 -0.163113 -0.290560 0.942851
0.833844 0.601781 0.255691 0.893664 0.052745 -0.445625
0.234742 0.697707 0.126954 -0.456370 0.487068 -0.744642
0.333533 0.822751 0.755591 0.357770 -0.388555 -0.849132
0.833688 0.324755 0.424283 -0.932006 0.349771 0.095002
0.652281 0.098853 0.288194 0.541454 -0.639134 -0.546201
0.706200 0.084919 0.516580 0.541399 -0.837841 0.070075
0.157792 0.815955 0.590851 -0.827959 0.467048 0.310404
0.578071 0.566663 0.873111 0.316399 -0.067286 0.946237
0.634848 0.417181 0.089414 0.418158 -0.261080 -0.870047
0.713414 0.721045 0.746270 -0.573307 -0.511982 -0.639682
0.199620 0.404803 0.148265 0.623295 0.237856 0.744934
0.374944 0.733026 0.830302 0.182747 -0.540242 -0.821427
0.108826 0.554059 0.209528 0.805455 0.077650 0.587548
0.858766 0.544147 0.297359 0.934837 -0.118726 -0.334639
0.755178 0.852043 0.492675 -0.964705 -0.247691 -0.089411
0.196265 0.898184 0.611399 0.861493 0.065737 -0.503496
0.645115 0.458718 0.822931 -0.450226 0.154704 -0.879410
0.505135 0.826973 0.780096 0.149372 0.406019 0.901575
0.283656 0.194549 0.733112 0.454719 0.468771 -0.757288
0.813957 0.564253 0.703180 0.814392 -0.077550 0.575110
0.223206 0.832574 0.262826 -0.705289 0.364194 -0.608219
0.220260 0.208558 0.696477 -0.613100 -0.456580 0.644704
0.204447 0.510955 0.115144 -0.585179 -0.120131 -0.801956
0.446767 0.394922 0.861281 -0.026697 -0.261890 0.964728
0.088573 0.724203 0.341011 -0.805221 0.522798 -0.279823
0.819649 0.740051 0.418041 -0.838734 -0.534402 0.104595
0.690822 0.341852 0.770797 0.576457 -0.307027 0.757253
0.865612 0.420056 0.425310 0.971279 -0.224572 -0.078648
0.215220 0.161262 0.646454 0.649024 0.520696 -0.554656
0.471526 0.652905 0.877907 -0.027762 -0.259494 -0.965346
0.166606 0.863437 0.396019 0.963310 -0.133217 0.232996
0.036335 0.589658 0.384595 0.982149 -0.029932 0.185710
0.745865 0.198753 0.606470 -0.754040 0.554274 -0.352425
0.374365 0.340866 0.833193 0.203809 0.327239 -0.922701
0.067674 0.714749 0.507908 0.859311 -0.504259 -0.085480
0.836630 0.633409 0.653632 0.872731 0.187088 0.450930
0.870493 0.473959 0.429931 -0.984709 0.163256 0.060787
0.488329 0.428696 0.863642 -0.080239 0.209467 -0.974518
0.547575 0.765725 0.807888 0.228747 0.553325 0.800941
0.189250 0.149658 0.338179 0.665452 0.688547 0.288232
0.851637 0.676031 0.378675 -0.899948 -0.390252 0.194415
0.819026 0.735455 0.566560 0.823070 0.519651 0.229171
0.164778 0.803117 0.316598 -0.778577 0.484540 -0.398797
0.347736 0.972851 0.204430 -0.077997 0.991696 -0.102248
0.048382 0.679000 0.528534 -0.923772 0.355678 0.141910
0.313093 0.557773 0.053753 0.367266 0.032323 0.929554
0.772233 0.519087 0.743426 0.728477 -0.122323 0.674061
0.547042 0.348791 0.837362 0.222766 -0.277342 0.934589
0.881105 0.631966 0.508471 0.973570 0.195905 0.117404
0.117086 0.764458 0.539071 0.807298 -0.566588 -0.165068
0.591752 0.761113 0.799513 0.329827 0.547348 0.769172
0.749717 0.872185 0.449411 -0.987946 -0.151520 0.031699
0.508512 0.774468 0.802953 -0.154497 -0.551984 -0.819417
0.551612 0.025000 0.282207 0.312873 -0.665019 -0.678130
0.412310 0.724876 0.079277 -0.071894 0.519938 -0.851173
0.695166 0.462026 0.116499 0.570959 -0.178283 -0.801387
0.303337 0.618366 0.861168 -0.364098 0.093443 0.926661
0.236783 0.051865 0.373080 -0.419640 -0.894870 -0.152020
0.565055 0.248490 0.794977 0.287937 -0.388996 0.875086
0.121147 0.744130 0.319769 0.763325 -0.548377 0.341494
0.447419 0.141495 0.754418 -0.059621 -0.565456 0.822621
0.615500 0.578138 0.060184 -0.370558 -0.021847 0.928552
0.167950 0.840594 0.357239 -0.882454 0.329006 -0.336198
0.801816 0.754266 0.571796 0.806255 0.537590 0.246883
0.298902 0.278758 0.787710 -0.394445 -0.374692 0.839059
0.763208 0.825659 0.502451 -0.913489 -0.393052 -0.105109
0.252333 0.306905 0.768227 0.512929 0.343822 -0.786569
0.463031 0.288795 0.094424 0.021427 -0.397411 -0.917391
0.372758 0.106783 0.207804 -0.199372 -0.655684 -0.728237
0.883113 0.623885 0.425259 0.982843 0.169493 -0.072748
0.239943 0.025000 0.434667 -0.371448 -0.928439 -0.005244
0.843178 0.503820 0.634136 0.898263 -0.135517 0.418042
0.231008 0.888743 0.656250 0.744676 0.050387 -0.665522
0.119069 0.374948 0.670487 -0.813594 -0.265322 0.517368
0.473627 0.917969 0.771131 0.057448 -0.072184 0.995736
0.779823 0.496996 0.191324 -0.787297 0.135556 0.601489
0.585373 0.167468 0.183272 0.347738 -0.534887 -0.770048
0.161656 0.891144 0.451780 0.997824 0.018444 0.063305
0.630575 0.026541 0.458795 -0.319535 0.944993 0.069900
0.373176 0.743530 0.112944 0.173589 -0.558361 0.811233
0.219101 0.466174 0.119288 0.565246 0.163065 0.808645
0.385725 0.787715 0.144084 0.210888 -0.530949 0.820744
0.252079 0.215437 0.190954 -0.530587 -0.500236 -0.684281
0.546611 0.681778 0.064557 0.204011 0.443973 -0.872506
0.164714 0.646213 0.163313 0.663148 -0.285527 0.691888
0.356029 0.210926 0.780876 -0.259238 -0.460022 0.849220
0.482777 0.402960 0.859274 -0.059916 0.235464 -0.970034
0.145282 0.933068 0.454499 -0.992495 -0.113707 -0.044991
0.640871 0.081645 0.633205 -0.425565 0.819877 -0.383009
0.621698 0.963094 0.687880 -0.310066 0.863149 -0.398538
0.372360 0.584604 0.877413 0.197241 0.006584 -0.980333
0.692071 0.120871 0.317955 0.631970 -0.622589 -0.461516
0.391930 0.194175 0.780559 -0.173230 -0.482918 0.858360
0.170796 0.593881 0.774656 0.697743 -0.021573 -0.716023
0.485508 0.495301 0.874744 -0.092003 0.148842 -0.984572
0.713246 0.750088 0.725845 0.591509 0.534448 0.603723
0.733661 0.968828 0.386445 0.322044 0.946512 -0.020058
0.876561 0.509521 0.419616 -0.988941 0.124271 0.080941
0.447489 0.384328 0.855744 0.024414 0.270908 -0.962296
0.142200 0.202845 0.551041 0.797837 0.543477 -0.260938
0.463704 0.377995 0.060697 -0.019352 0.272468 0.961970
0.144469 0.799697 0.554431 0.839659 -0.496589 -0.219937
0.113837 0.602951 0.207367 0.795135 -0.098672 0.598352
0.742982 0.870233 0.552530 0.946867 0.160391 0.278779
0.081994 0.581869 0.247908 -0.866194 -0.008824 -0.499630
0.215941 0.689769 0.133535 -0.506153 0.453650 -0.733492
0.791148 0.510400 0.199721 -0.810590 0.120668 0.573047
0.079884 0.341123 0.529631 0.930696 0.316697 -0.183051
0.700580 0.370252 0.143819 -0.582296 0.283921 0.761788
0.430863 0.826689 0.160340 0.078734 -0.371143 0.925232
0.658223 0.026541 0.481628 -0.359618 0.932716 0.026740
0.029767 0.610094 0.423535 -0.991378 0.089910 -0.095325
0.058686 0.616688 0.610566 0.938689 -0.061993 -0.339145
0.083981 0.677506 0.642169 -0.852653 0.312097 0.419020
0.265063 0.026540 0.389678 0.328577 0.938482 0.106250
0.853238 0.686940 0.404054 -0.891440 -0.433618 0.131567
0.577058 0.300650 0.112101 -0.299883 0.405428 0.863538
0.774186 0.404107 0.714660 0.757534 -0.235401 0.608874
0.306148 0.025000 0.530719 -0.268548 -0.942768 0.197662
0.729282 0.223126 0.661531 -0.714365 0.488258 -0.501285
0.618193 0.026541 0.608100 -0.302343 0.914271 -0.269623
0.808853 0.392170 0.647438 -0.855125 0.247359 -0.455604
0.193136 0.114837 0.384228 -0.612126 -0.776206 -0.151017
0.595082 0.781795 0.153309 0.346766 0.526950 -0.775936
0.706642 0.306683 0.731826 -0.636257 0.358679 -0.683027
0.802290 0.772199 0.510413 0.825003 0.554563 0.108763
0.824190 0.601504 0.238398 0.872771 0.060241 -0.484398
0.746956 0.333704 0.207123 0.704613 -0.327051 -0.629729
0.641350 0.850525 0.713763 0.602610 0.258499 0.755010
0.611545 0.192940 0.179745 0.402191 -0.519559 -0.753857
0.122966 0.488429 0.207188 0.788534 0.148532 0.596785
0.867494 0.658856 0.466499 -0.945765 -0.324368 -0.017718
0.204141 0.450264 0.128701 -0.598842 -0.189031 -0.778239
0.148286 0.954751 0.522947 -0.882560 0.443767 0.155429
0.545234 0.472661 0.861320 -0.243009 0.153953 -0.957729
0.466190 0.606529 0.036678 -0.000760 -0.135509 0.990776
0.052188 0.682733 0.457017 0.913106 -0.406827 0.027003
0.221906 0.403260 0.129773 0.569524 0.234526 0.787807
0.671238 0.415039 0.804434 0.513450 -0.209082 0.832258
0.387253 0.341441 0.078056 -0.174306 -0.309378 -0.934828
0.361249 0.106836 0.714411 0.276445 0.501177 -0.820000
0.162611 0.671627 0.747736 0.667563 -0.314705 -0.674774
0.404323 0.026540 0.454612 0.093044 0.995607 0.010436
0.196500 0.101605 0.402566 -0.586587 -0.803657 -0.100255
0.557832 0.509563 0.046906 0.216634 -0.122246 -0.968569
0.885787 0.561590 0.391588 0.987819 -0.075887 -0.135851
0.788671 0.781987 0.499529 -0.847322 -0.524912 -0.080705
0.164639 0.853546 0.540418 0.945586 -0.232480 -0.227640
0.735796 0.504475 0.144416 -0.688848 0.124175 0.714191
0.156338 0.956812 0.382006 -0.728603 0.638424 -0.248098
0.498735 0.035058 0.683229 -0.050010 0.706929 -0.705514
0.821462 0.666708 0.266624 0.828417 0.329226 -0.453140
0.217387 0.384975 0.135818 0.581910 0.257004 0.771576
0.772308 0.330972 0.246734 -0.772747 0.342892 0.534124
0.175947 0.605971 0.779085 0.678166 -0.064489 -0.732074
0.740314 0.141619 0.512376 -0.696722 0.712289 -0.084986
0.165326 0.409979 0.734726 0.711622 0.228113 -0.664499
0.200817 0.291227 0.722951 -0.641639 -0.355380 0.679709
0.861815 0.452234 0.371525 0.960690 -0.201254 -0.191236
0.376788 0.482305 0.050502 0.228361 0.133481 0.964383
0.530557 0.040712 0.682132 0.168860 -0.738644 0.652603
0.059345 0.594836 0.289034 -0.914142 0.041379 -0.403277
0.085206 0.348693 0.345352 -0.911100 -0.312424 -0.268865
0.182223 0.558725 0.129304 0.632476 0.065784 0.771781
0.158977 0.172305 0.384073 0.755803 0.631686 0.172436
0.262754 0.814964 0.217994 0.588593 -0.379408 0.713868
0.741934 0.751217 0.238138 0.645309 0.554713 -0.525233
0.031396 0.552812 0.435156 0.993848 0.089915 0.064666
0.864102 0.641471 0.557456 -0.941703 -0.246307 -0.229191
0.702577 0.898468 0.302274 0.821581 -0.053008 -0.567622
0.604196 0.661722 0.849827 -0.324592 -0.290776 -0.900050
0.057784 0.510190 0.330622 0.942455 0.129454 0.308252
0.267833 0.123859 0.256357 -0.468756 -0.720455 -0.511090
0.583898 0.061774 0.265164 -0.381091 0.611065 0.693808
0.142912 0.656223 0.742845 -0.719366 0.233322 0.654273
0.357093 0.958987 0.213766 -0.152359 -0.883223 -0.443512
0.408555 0.798350 0.138077 -0.141428 0.506365 -0.850643
0.787876 0.418968 0.699566 0.788139 -0.221027 0.574443
0.396103 0.620442 0.035861 -0.154328 0.175830 -0.972248
0.377819 0.406993 0.059723 -0.201076 -0.224143 -0.953587
0.260316 0.316635 0.138088 -0.490299 -0.337006 -0.803762
0.544950 0.133996 0.195067 -0.277670 0.544957 0.791152
0.337709 0.351723 0.086344 -0.296838 -0.274000 -0.914774
0.302867 0.553135 0.857222 0.401975 0.099528 -0.910225
0.821905 0.475793 0.254913 0.875874 -0.165921 -0.453118
0.251431 0.201816 0.718379 0.536177 0.466788 -0.703295
0.535001 0.211227 0.786837 0.203323 -0.455606 0.866650
0.092762 0.737509 0.567029 -0.822470 0.520743 0.228843
0.234810 0.799262 0.704772 0.608215 -0.481939 -0.630721
0.283125 0.833189 0.726641 -0.514868 0.377892 0.769486
0.151481 0.331600 0.225129 -0.753270 -0.339136 -0.563534
0.735967 0.801551 0.626142 -0.774588 -0.465494 -0.428168
0.065153 0.485662 0.319543 0.930014 0.154537 0.333455
0.068053 0.348101 0.504829 -0.943985 -0.307319 0.120198
0.469027 0.089508 0.209537 -0.108954 0.603093 0.790195
0.877418 0.626014 0.446580 -0.980389 -0.195524 0.024669
0.729408 0.624329 0.783148 -0.633724 -0.153441 -0.758188
0.741212 0.907156 0.550769 -0.953550 0.039110 -0.298685
0.223071 0.743047 0.185628 0.524562 -0.552459 0.647784
0.677323 0.048653 0.535963 0.423907 -0.900522 0.096756
0.824032 0.735292 0.473019 -0.848037 -0.529638 -0.017795
0.511395 0.804755 0.784288 -0.172092 -0.460823 -0.870647
0.744036 0.149307 0.516809 -0.713737 0.693524 -0.097999
0.696010 0.066942 0.463196 -0.499040 0.864190 0.064301
0.153329 0.231191 0.623642 -0.765095 -0.463630 0.446851
0.159915 0.286387 0.245741 -0.747345 -0.407155 -0.525072
0.681107 0.610023 0.095803 0.516678 0.135592 -0.845375
0.161989 0.493226 0.751230 0.727258 0.153144 -0.669061
0.817481 0.454222 0.262467 -0.875537 0.185310 0.446200
0.718989 0.560691 0.111458 0.641706 -0.062264 -0.764419
0.196113 0.733083 0.200215 0.573714 -0.554078 0.603200
0.266549 0.465755 0.823350 0.478781 0.178222 -0.859654
0.691432 0.576421 0.815817 -0.548174 0.022503 -0.836061
0.116475 0.685013 0.694878 -0.763317 0.350998 0.542353
0.211531 0.428566 0.787579 -0.595091 -0.212000 0.775192
0.753266 0.170797 0.533394 -0.755251 0.638261 -0.149060
0.389811 0.294643 0.823605 -0.167857 -0.388218 0.906152
0.682460 0.182015 0.247440 -0.596606 0.524519 0.607405
0.218885 0.690610 0.790556 0.528549 -0.411902 -0.742276
0.678945 0.601410 0.820997 -0.527680 -0.073109 -0.846291
0.564605 0.344165 0.089768 -0.264658 0.344628 0.900660
0.759911 0.313243 0.239470 -0.747303 0.352287 0.563411
0.616085 0.025000 0.323319 0.471213 -0.715414 -0.515889
0.689651 0.881089 0.642714 -0.798386 -0.045756 -0.600404
0.610706 0.937767 0.197437 -0.504584 -0.048938 0.861975
0.792615 0.416647 0.682824 -0.810440 0.221303 -0.542413
0.103956 0.590165 0.699136 0.848881 0.001081 -0.528583
0.127956 0.251333 0.593555 -0.814624 -0.456580 0.357662
0.836967 0.421915 0.310829 -0.910157 0.229526 0.344866
0.848699 0.676421 0.341299 0.889522 0.359217 -0.282336
0.866680 0.453462 0.461765 -0.982642 0.185005 -0.013734
0.662769 0.041232 0.376477 -0.382775 0.886428 0.260247
0.347374 0.381902 0.075338 0.271577 0.236509 0.932904
0.484658 0.025000 0.470406 0.054978 -0.998488 0.000105
0.765636 0.938884 0.422426 0.981754 -0.119676 -0.147772
0.152240 0.823488 0.552990 -0.870041 0.440745 0.220843
0.365828 0.309682 0.100035 0.234247 0.340383 0.910641
0.572835 0.294251 0.110430 0.287539 -0.412872 -0.864210
0.054813 0.662291 0.349746 -0.912046 0.310249 -0.268174
0.215326 0.701088 0.139574 -0.496005 0.497624 -0.711582
0.215336 0.080608 0.383598 -0.513162 -0.847113 -0.138069
0.047782 0.490073 0.378665 0.969408 0.150987 0.193522
0.095312 0.479096 0.256857 0.860061 0.161426 0.483981
0.648389 0.561630 0.845376 0.456093 -0.067393 0.887377
0.305335 0.553040 0.053043 -0.380180 -0.039402 -0.924073
0.237137 0.693725 0.806777 -0.485093 0.405111 0.774964
0.404692 0.189685 0.778044 0.142543 0.491862 -0.858926
0.789873 0.752513 0.615195 0.771980 0.532091 0.347746
0.348221 0.768850 0.792510 0.256444 -0.553786 -0.792186
0.575343 0.751174 0.812886 0.274139 0.532779 0.800621
0.665416 0.301401 0.152481 0.512677 -0.389856 -0.764967
0.490236 0.025000 0.640762 0.105178 -0.851185 0.514220
0.822078 0.507462 0.670895 0.851632 -0.132792 0.507039
0.397182 0.092169 0.718710 -0.190011 -0.536105 0.822488
0.178440 0.172679 0.596548 0.726342 0.554448 -0.406221
0.207625 0.751785 0.211056 0.571199 -0.562938 0.597355
0.633106 0.571750 0.066109 -0.409189 0.009478 0.912400
0.830243 0.460709 0.633827 -0.888954 0.176899 -0.422455
0.085233 0.736421 0.390913 -0.828068 0.532753 -0.174579
0.119406 0.460782 0.222243 0.805537 0.179587 0.564675
0.297944 0.815509 0.196934 0.480979 -0.408307 0.775851
0.678437 0.263482 0.183318 -0.557358 0.423407 0.714198
0.049447 0.555130 0.597909 -0.950047 -0.120408 0.287947
0.211823 0.068825 0.492139 0.517515 0.846950 -0.121874
0.154902 0.305844 0.676462 0.751791 0.342178 -0.563670
0.590509 0.067347 0.669969 0.316672 -0.788521 0.527214
0.683542 0.147401 0.647639 -0.577435 0.680394 -0.451257
0.156526 0.819011 0.553876 0.871351 -0.435268 -0.226473
0.865215 0.605973 0.329017 0.955157 0.061485 -0.289646
0.329106 0.943912 0.177212 -0.372296 -0.043728 -0.927083
0.322561 0.464354 0.067452 0.344092 0.135078 0.929169
0.047070 0.572662 0.340069 0.956868 0.035420 0.288357
0.667195 0.611857 0.832404 0.497711 0.097101 0.861890
0.417600 0.609516 0.031833 -0.114672 0.129609 -0.984912
0.652121 0.025000 0.472831 0.348382 -0.936298 -0.044463
0.528187 0.931060 0.164970 -0.214462 0.098007 0.971803
0.225765 0.073299 0.564157 -0.483792 -0.822878 0.298023
0.789702 0.238120 0.554810 0.849763 -0.478443 0.221346
0.328862 0.164501 0.187893 0.333286 0.554159 0.762777
0.148893 0.626466 0.166344 -0.703904 0.183716 -0.686125
0.759609 0.465863 0.743326 0.712719 -0.174592 0.679375
0.338539 0.849218 0.747891 0.350824 -0.234417 -0.906626
0.223294 0.301440 0.751290 -0.578760 -0.348845 0.737119
0.062412 0.657197 0.315326 -0.892192 0.291415 -0.345067
0.402801 0.175614 0.157591 0.122666 0.554649 0.822993
0.857802 0.398764 0.440255 -0.968459 0.244991 0.045455
0.479842 0.859067 0.766315 -0.070701 -0.145592 -0.986815
0.852545 0.709396 0.502991 0.865122 0.493792 0.087939
0.672831 0.801925 0.715558 0.594506 0.465536 0.655621
0.371834 0.033597 0.256390 -0.187258 -0.760372 -0.621907
0.210087 0.099851 0.358883 -0.550049 -0.807633 -0.212544
0.554526 0.452578 0.855482 -0.260696 0.168725 -0.950563
0.634451 0.289264 0.776104 -0.457092 0.347586 -0.818688
0.186379 0.813161 0.645395 -0.745394 0.467849 0.474874
0.305237 0.709840 0.101972 0.281229 -0.527198 0.801856
0.609756 0.748394 0.141024 -0.357300 -0.558104 0.748903
0.338827 0.620247 0.055236 0.283111 -0.192698 0.939529
0.218663 0.457159 0.121263 0.567966 0.173760 0.804501
0.157125 0.935057 0.557332 0.932431 0.174654 -0.316337
0.173835 0.886501 0.544731 0.970622 -0.037042 -0.237743
0.546440 0.826125 0.769996 0.283310 0.424254 0.860084
0.551680 0.235811 0.790008 -0.254555 0.410881 -0.875431
0.544539 0.184851 0.160939 -0.252393 0.514603 0.819440
0.728318 0.965414 0.414363 -0.121976 -0.992176 -0.026622
0.501294 0.811798 0.782713 -0.139203 -0.433337 -0.890417
0.379000 0.634639 0.042423 -0.180126 0.235257 -0.955096
0.630899 0.025000 0.566252 0.308334 -0.937283 0.162577
0.396738 0.496266 0.877505 -0.141457 -0.166335 0.975870
0.788174 0.632667 0.731773 0.758317 0.173407 0.628399
0.766452 0.446822 0.732192 0.732738 -0.193722 0.652355
0.887257 0.583263 0.489768 0.996451 0.001829 0.084154
0.431458 0.049037 0.698858 -0.121985 -0.603271 0.788152
0.871546 0.456472 0.437737 0.981672 -0.185335 -0.044389
0.786633 0.338559 0.265920 -0.807674 0.336230 0.484367
0.875133 0.622222 0.397794 -0.974937 -0.174329 0.138230
0.095850 0.440700 0.262258 -0.860922 -0.204280 -0.465921
0.289356 0.035690 0.614520 0.488786 0.679302 -0.547392
0.824749 0.626997 0.257441 -0.867481 -0.178211 0.464454
0.210431 0.723520 0.174916 0.526292 -0.548032 0.650137
0.518511 0.492948 0.871647 -0.180819 0.145440 -0.972703
0.876864 0.488186 0.436213 0.987574 -0.150879 -0.043961
0.124168 0.432465 0.700807 -0.798275 -0.209948 0.564516
0.397321 0.026540 0.460066 0.106627 0.994292 -0.003780
0.114709 0.234096 0.447710 0.878044 0.478213 0.018744
0.555879 0.025000 0.605878 0.201289 -0.932214 0.300766
0.233301 0.970533 0.297747 0.145005 0.977977 0.150112
0.251899 0.150836 0.679299 -0.553410 -0.546781 0.628306
0.781826 0.383073 0.215154 0.769377 -0.265848 -0.580848
0.212051 0.073741 0.518457 -0.513098 -0.837054 0.189922
0.074188 0.579263 0.260477 -0.882779 -0.019917 -0.469365
0.029772 0.566935 0.463491 0.997835 0.065765 -0.000226
0.543878 0.124982 0.200794 -0.279774 0.547708 0.788507
0.784022 0.268031 0.313113 0.803896 -0.450776 -0.388010
0.747933 0.260401 0.255204 0.724952 -0.419076 -0.546644
0.876454 0.485689 0.435622 0.987074 -0.153610 -0.045700
0.361725 0.077711 0.232763 0.227041 0.695736 0.681472
0.626770 0.931979 0.207616 0.563534 -0.085477 -0.821659
0.089321 0.593530 0.681212 -0.876918 -0.013496 0.480450
0.468968 0.940995 0.156158 -0.044499 -0.231157 0.971898
0.537692 0.880038 0.753264 0.276766 0.084938 0.957176
0.756140 0.203876 0.602339 0.770464 -0.540770 0.337570
0.205529 0.903712 0.301887 0.825867 0.060977 0.560558
0.807227 0.353548 0.634893 0.854650 -0.300803 0.423191
0.650351 0.250477 0.754847 0.504953 -0.420872 0.753584
0.399508 0.424964 0.865746 -0.136628 -0.245309 0.959769
0.795526 0.740332 0.624846 0.772408 0.520184 0.364410
0.331015 0.669826 0.068072 -0.256467 0.372880 -0.891732
0.412656 0.520725 0.881912 -0.103649 -0.133352 0.985634
0.629426 0.221150 0.750076 -0.465329 0.451014 -0.761614
0.152789 0.400207 0.724450 -0.733181 -0.238661 0.636779
0.374045 0.217787 0.786883 0.212848 0.465837 -0.858889
0.588841 0.963713 0.723635 -0.164172 -0.967058 -0.194542
0.768983 0.202760 0.564174 0.800706 -0.549270 0.239106
0.713610 0.700411 0.163957 -0.556317 -0.501648 0.662466
0.633107 0.035058 0.331834 -0.513732 0.716295 0.472230
0.779414 0.739326 0.296524 -0.740638 -0.539646 0.400297
0.261493 0.870183 0.242704 0.661385 -0.067649 0.746989
0.254479 0.544641 0.831521 0.520181 0.107137 -0.847310
0.787925 0.718895 0.671432 0.735690 0.497816 0.459281
0.125938 0.783038 0.522879 0.832208 -0.538133 -0.133576
0.686732 0.502348 0.812466 0.531100 -0.128815 0.837460
0.450793 0.198007 0.136639 0.008730 -0.509549 -0.860397
0.448851 0.256256 0.107768 -0.010774 -0.439018 -0.898413
0.253625 0.163631 0.235144 -0.521091 -0.630929 -0.574798
0.658671 0.026541 0.465969 -0.365872 0.928635 0.061432
0.592421 0.937125 0.746478 0.422413 -0.108357 0.899903
0.829926 0.543411 0.661444 -0.868376 0.092865 -0.487133
0.589915 0.888673 0.725150 -0.461950 -0.004031 -0.886897
0.595506 0.762521 0.786290 -0.354639 -0.559524 -0.749108
0.700107 0.386486 0.782738 0.583887 -0.247458 0.773201
0.516630 0.331781 0.078403 0.152587 -0.338403 -0.928548
0.857245 0.532573 0.611701 0.924656 -0.105691 0.365841
0.213156 0.276360 0.193911 -0.618548 -0.416599 -0.666215
0.524801 0.053105 0.687780 -0.155310 0.721053 -0.675250
0.141882 0.286597 0.644834 -0.782178 -0.395931 0.481078
0.643782 0.293116 0.772496 -0.480458 0.349099 -0.804544
0.829924 0.446477 0.287289 -0.897812 0.200975 0.391844
0.137915 0.666189 0.193357 -0.710872 0.342668 -0.614199
0.745686 0.885266 0.458337 -0.998196 -0.060020 -0.001264
0.030587 0.542864 0.515602 -0.986704 -0.108922 0.120632
0.781468 0.414570 0.708926 0.771999 -0.225220 0.594385
0.835961 0.614682 0.648195 -0.884250 -0.132530 -0.447814
0.134756 0.623402 0.185716 0.740456 -0.186226 0.645791
0.833694 0.416976 0.608999 -0.905635 0.221396 -0.361674
0.421762 0.777503 0.130019 0.098302 -0.555598 0.825620
0.859139 0.452005 0.555174 0.953882 -0.188362 0.233729
0.390784 0.036402 0.682293 -0.221964 -0.557400 0.800023
0.534796 0.493529 0.871593 0.218596 -0.142127 0.965410
0.217526 0.146496 0.639711 -0.642862 -0.544045 0.539206
0.448067 0.567060 0.030327 0.076617 0.035364 0.996433
0.089560 0.536725 0.241416 -0.852445 -0.102280 -0.512714
0.725462 0.531079 0.127459 -0.664273 0.092858 0.741700
0.239533 0.318791 0.765625 0.540575 0.328418 -0.774545
0.515548 0.336156 0.840645 0.141970 -0.304820 0.941769
0.885102 0.602054 0.479316 0.995246 0.079184 0.056704
0.515836 0.122865 0.194335 -0.214297 0.544373 0.811009
0.040905 0.531514 0.365759 -0.968010 -0.112137 -0.224457
0.102731 0.736677 0.358663 0.802887 -0.542321 0.247509
0.623235 0.200249 0.184897 -0.434881 0.510176 0.742023
0.370358 0.025000 0.479211 -0.154887 -0.986414 0.054748
0.743926 0.610258 0.141958 0.681480 0.131416 -0.719941
0.232128 0.060681 0.553838 0.423342 0.869357 -0.254952
0.698631 0.790569 0.245522 -0.640488 -0.520774 0.564421
0.713862 0.721225 0.173888 0.557472 0.533326 -0.636230
0.324490 0.942725 0.184503 0.359581 -0.327217 0.873859
0.877928 0.494422 0.434439 0.988425 -0.144112 -0.047401
0.585806 0.489427 0.062021 -0.305853 0.143017 0.941276
0.816336 0.600220 0.224011 0.853568 0.065023 -0.516908
0.228809 0.441550 0.796242 0.564101 0.198946 -0.801380
0.068146 0.363844 0.529385 -0.941783 -0.284879 0.178573
0.868591 0.466963 0.490106 -0.982069 0.169981 -0.081528
0.482443 0.092311 0.725384 0.007864 -0.614679 0.788738
0.313952 0.906759 0.731822 -0.444659 -0.041247 0.894750
0.660579 0.749393 0.771592 0.472037 0.526822 0.706852
0.589767 0.650809 0.857316 -0.299763 -0.242910 -0.922571
0.849655 0.599345 0.637812 0.904725 0.055927 0.422309
0.191698 0.268393 0.701725 -0.670353 -0.378323 0.638356
0.726311 0.963898 0.469603 -0.599916 0.799985 0.011144
0.630675 0.537009 0.846054 -0.424606 0.082237 -0.901636
0.155205 0.965316 0.443737 -0.431391 0.897486 -0.091771
0.754916 0.566973 0.151032 -0.734573 0.039950 0.677353
0.719717 0.781276 0.249082 0.636399 0.567365 -0.522583
0.834202 0.557513 0.248915 0.893490 -0.089482 -0.440079
0.231232 0.796252 0.713399 -0.591630 0.510468 0.624016
0.812533 0.524093 0.229781 -0.861206 0.108662 0.496505
0.866630 0.509323 0.368068 -0.971668 0.136804 0.192731
0.118177 0.786168 0.439569 -0.837412 0.542309 -0.068133
0.732652 0.636541 0.143398 -0.632308 -0.263778 0.728428
0.837843 0.550311 0.650360 -0.883719 0.085217 -0.460195
0.516306 0.174544 0.159904 -0.190286 0.511684 0.837837
0.066634 0.707186 0.534500 0.858919 -0.489566 -0.150278
0.840873 0.714568 0.382676 0.843009 0.505275 -0.184483
0.853813 0.431498 0.561468 0.945874 -0.209989 0.247439
0.195357 0.125990 0.574951 -0.617573 -0.711932 0.334301
0.506106 0.179858 0.771227 -0.120161 0.525188 -0.842460
0.835942 0.604678 0.270794 -0.904482 -0.075442 0.419787
0.327912 0.025000 0.535194 -0.232344 -0.950297 0.207251
0.534157 0.106346 0.207361 0.262587 -0.556504 -0.788258
0.802482 0.265006 0.547978 0.874194 -0.439363 0.206749
0.571472 0.029341 0.650272 -0.250610 0.850435 -0.462552
0.662439 0.487573 0.092106 0.483116 -0.146992 -0.863129
0.329794 0.573024 0.865975 0.323368 0.053650 -0.944751
0.589956 0.025000 0.490147 0.241978 -0.970209 0.011872
0.128207 0.717872 0.669499 0.732476 -0.478513 -0.484256
0.231514 0.511613 0.815586 -0.563989 -0.139528 0.813909
0.086374 0.327265 0.381958 0.921724 0.341581 0.183705
0.241738 0.165758 0.677476 0.579477 0.523297 -0.624793
0.225097 0.304357 0.750298 0.577689 0.343984 -0.740237
0.368783 0.451587 0.054338 -0.237484 -0.169044 -0.956569
0.208067 0.358275 0.153051 -0.609438 -0.297508 -0.734897
0.507569 0.964267 0.170750 0.097225 0.862143 -0.497250
0.730662 0.235196 0.668232 -0.714290 0.470110 -0.518447
0.546242 0.936954 0.167599 0.282790 -0.091013 -0.954854
0.540640 0.166219 0.753949 -0.220844 0.534811 -0.815601
0.435010 0.800446 0.144284 0.068387 -0.471871 0.879012
0.569043 0.048582 0.262536 0.358670 -0.596582 -0.717945
0.351594 0.724387 0.093500 -0.192543 0.531859 -0.824654
0.619427 0.256234 0.150826 -0.412605 0.457177 0.787874
0.086579 0.447753 0.632222 0.894100 0.200434 -0.400514
0.854969 0.670764 0.570715 0.904631 0.342943 0.253047
0.587071 0.835931 0.749987 0.416385 0.383315 0.824435
0.152912 0.619571 0.754507 0.723879 -0.113844 -0.680469
0.794789 0.351170 0.262822 0.815463 -0.318176 -0.483512
0.174270 0.745206 0.224799 -0.627995 0.551940 -0.548621
0.163238 0.809298 0.326784 -0.800545 0.461796 -0.381933
0.681514 0.856430 0.664066 -0.745658 -0.197275 -0.636456
0.165330 0.951001 0.345297 -0.853352 0.338213 -0.396740
0.777207 0.208381 0.390884 -0.813964 0.542372 0.208076
0.739675 0.684508 0.171157 0.619324 0.419188 -0.663867
0.756519 0.163720 0.518721 0.747658 -0.655594 0.105848
0.585178 0.762217 0.792382 -0.328648 -0.556034 -0.763425
0.371960 0.913914 0.757876 -0.246766 -0.051034 0.967730
0.360373 0.663424 0.863539 0.213816 -0.334030 -0.917990
0.884465 0.563156 0.494541 -0.993030 0.064796 -0.098456
0.716784 0.966334 0.376208 -0.088550 -0.995744 -0.025550
0.740519 0.706696 0.196104 -0.611679 -0.510949 0.603970
0.043387 0.459782 0.463729 -0.982197 -0.187596 0.009831
0.362555 0.145876 0.184581 -0.234986 -0.586875 -0.774828
0.570260 0.396496 0.070030 0.269352 -0.277180 -0.922291
0.712268 0.582085 0.809263 0.581817 -0.020144 0.813070
0.757812 0.415812 0.182685 0.722785 -0.230843 -0.651379
0.596503 0.025000 0.516192 0.250858 -0.965809 0.065447
0.472924 0.508418 0.880564 0.057650 -0.140363 0.988420
0.815513 0.714704 0.319684 -0.796759 -0.499787 0.339689
0.245923 0.190042 0.219366 -0.546422 -0.567205 -0.616199
0.551237 0.370916 0.071181 0.226971 -0.304118 -0.925201
0.472937 0.165981 0.769387 0.013903 -0.530898 0.847321
0.062867 0.539606 0.294350 0.915731 0.096265 0.390088
0.533951 0.267073 0.806312 -0.202242 0.381583 -0.901938
0.273136 0.145369 0.696237 -0.491676 -0.515629 0.701699
0.301021 0.967122 0.216527 -0.230092 0.923409 -0.307202
0.604980 0.025000 0.602369 0.275681 -0.925826 0.258548
0.782783 0.746723 0.636271 0.753432 0.527145 0.393012
0.543067 0.956119 0.213954 0.246694 -0.768343 -0.590585
0.582768 0.029352 0.288753 -0.388499 0.631266 0.671246
0.338785 0.758829 0.798334 0.275668 -0.553908 -0.785617
0.514632 0.633751 0.041468 -0.133322 -0.255133 0.957670
0.149890 0.769475 0.313222 0.727855 -0.576329 0.371581
0.726322 0.198905 0.646583 0.699272 -0.550813 0.455657
0.181856 0.875955 0.581261 0.928733 -0.101006 -0.356725
0.808382 0.753593 0.418449 -0.830574 -0.546664 0.106325
0.569181 0.109280 0.217202 0.339990 -0.553426 -0.760346
0.736199 0.132957 0.409384 0.664348 -0.724677 -0.182989
0.573448 0.510219 0.860593 -0.308061 0.113313 -0.944594
0.820572 0.337125 0.587296 0.893556 -0.328380 0.306143
0.433969 0.025000 0.420493 -0.039103 -0.994538 -0.096776
0.731501 0.891788 0.365719 -0.947183 -0.030448 0.319243
0.289845 0.026540 0.400143 0.289891 0.952556 0.092744
0.764712 0.726130 0.682295 -0.704684 -0.509225 -0.494075
0.255812 0.638859 0.087307 -0.454439 0.249625 -0.855086
0.808992 0.741578 0.381169 -0.818811 -0.540050 0.194666
0.332901 0.079962 0.247306 0.299211 0.729070 0.615573
0.835751 0.379626 0.593724 0.910236 -0.262897 0.319930
0.285428 0.026541 0.535256 0.294080 0.933194 -0.206557
0.868276 0.658364 0.419714 -0.941693 -0.323952 0.090941
0.368097 0.026541 0.415723 0.156193 0.984070 0.084912
0.543157 0.519694 0.041027 0.170346 -0.110355 -0.979185
0.189096 0.225534 0.245819 -0.686912 -0.492943 -0.534003
0.257924 0.083490 0.627618 -0.557393 -0.637934 0.531369
0.294076 0.512753 0.068230 0.403591 0.079067 0.911517
0.512061 0.677888 0.867782 -0.107583 -0.342862 -0.933205
0.285133 0.888814 0.709881 -0.529372 0.020949 0.848131
0.604227 0.206811 0.759094 0.395232 -0.459339 0.795487
0.459029 0.607542 0.883626 -0.003462 -0.073473 -0.997291
0.164211 0.856885 0.384109 -0.938046 0.224118 -0.264273
0.805675 0.254049 0.423476 -0.882816 0.456522 0.110561
0.673551 0.583994 0.092354 -0.518141 -0.039570 0.854379
0.552150 0.026541 0.415861 -0.186806 0.971383 0.146694
0.180864 0.609187 0.783898 0.663839 -0.075690 -0.744035
0.682854 0.698006 0.792566 -0.487146 -0.465060 -0.739194
0.346182 0.562502 0.044484 0.300986 0.036664 0.952924
0.830527 0.393158 0.298508 0.889396 -0.255308 -0.379199
0.309520 0.596255 0.863885 -0.364008 0.014845 0.931278
0.748224 0.865337 0.519027 -0.973378 -0.147640 -0.175323
0.140597 0.802196 0.560079 -0.831661 0.505980 0.228746
0.850430 0.490731 0.594985 -0.932102 0.145286 -0.331779
0.096159 0.459461 0.660108 -0.869453 -0.188216 0.456755
0.424747 0.240574 0.804859 0.083153 0.451868 -0.888201
0.547893 0.555560 0.036128 0.169862 -0.067553 -0.983150
0.298136 0.575644 0.861603 -0.408053 -0.058686 0.911070
0.493737 0.026541 0.510013 -0.071090 0.993716 -0.086454
0.061696 0.407479 0.380164 0.954692 0.234045 0.183811
0.182782 0.689946 0.171611 0.590702 -0.467945 0.657342
0.757113 0.842337 0.402551 0.918096 0.349809 -0.186369
0.663594 0.364651 0.124575 -0.497784 0.312700 0.808968
0.817941 0.720734 0.347524 -0.813714 -0.512654 0.273961
0.267299 0.636428 0.080457 -0.429606 0.241412 -0.870149
0.655685 0.973863 0.668825 0.040225 0.998882 -0.024835
0.363643 0.519614 0.047423 0.263338 0.087565 0.960721
0.057155 0.376945 0.502598 -0.957848 -0.264300 0.112575
0.115146 0.704552 0.265489 0.737414 -0.509361 0.443590
0.266660 0.105889 0.651574 0.532835 0.610545 -0.585937
0.459142 0.305481 0.828782 -0.004752 0.366517 -0.930399
0.169400 0.566677 0.775154 0.711302 0.075727 -0.698795
0.796287 0.460884 0.222417 -0.822711 0.177522 0.540031
0.082564 0.673039 0.295195 0.839457 -0.379287 0.389170
0.511098 0.526904 0.883404 0.168268 -0.120604 0.978336
0.256833 0.235081 0.744386 -0.511463 -0.429047 0.744530
0.469510 0.025000 0.559847 0.026248 -0.976515 0.213842
0.396126 0.026541 0.439862 0.106829 0.993448 0.040613
0.676595 0.822301 0.685417 -0.667484 -0.387923 -0.635594
0.856948 0.635722 0.312734 0.926171 0.169002 -0.337113
0.767062 0.198603 0.362135 0.768150 -0.572363 -0.286960
0.203457 0.225328 0.231914 -0.653778 -0.492984 -0.574057
0.371054 0.144087 0.743603 -0.240163 -0.492551 0.836490
0.052487 0.698171 0.455251 -0.892793 0.449382 -0.031251
0.642334 0.163430 0.706496 0.484707 -0.614130 0.622820
0.233970 0.052661 0.541329 0.415464 0.880740 -0.227347
0.177618 0.578476 0.129632 -0.639813 -0.012563 -0.768427
0.220113 0.742663 0.758575 -0.532478 0.519119 0.668567
0.819589 0.382741 0.282571 0.865629 -0.267857 -0.423013
0.251981 0.907092 0.688338 0.673734 0.074742 -0.735184
0.690290 0.364417 0.780680 0.566784 -0.270741 0.778110
0.635027 0.026541 0.558715 -0.316547 0.937352 -0.145494
0.208180 0.088745 0.390438 -0.542000 -0.831277 -0.123349
0.181185 0.831595 0.323880 -0.819794 0.380624 -0.427859
0.650645 0.526869 0.077465 0.452919 -0.099789 -0.885950
0.807361 0.460992 0.672491 -0.836815 0.176404 -0.518287
0.447778 0.364186 0.849908 0.023642 0.295539 -0.955038
0.273615 0.834441 0.220563 0.595111 -0.284533 0.751587
0.144482 0.817778 0.431848 0.904979 -0.411658 0.107477
0.673405 0.670055 0.118651 -0.481134 -0.421843 0.768478
0.719267 0.684925 0.159730 -0.578740 -0.445288 0.683212
0.074042 0.721942 0.480844 0.855217 -0.517576 -0.026811
0.164187 0.916914 0.378799 0.948697 0.084816 0.304599
0.715210 0.964683 0.321431 0.468615 0.857259 -0.213324
0.436770 0.875932 0.171722 0.042937 -0.007671 0.999048
0.802828 0.747742 0.342597 0.794703 0.535290 -0.286202
0.033237 0.523004 0.429588 -0.989556 -0.123125 -0.074956
0.649417 0.325128 0.135284 -0.473935 0.367934 0.800006
0.682634 0.799775 0.697560 -0.633439 -0.460026 -0.622199
0.092544 0.564106 0.681924 0.874745 0.094831 -0.475213
0.276857 0.069738 0.635197 -0.510653 -0.645162 0.568331
0.106452 0.290747 0.569459 -0.872416 -0.396183 0.286231
0.648496 0.919093 0.228221 0.632231 -0.069192 -0.771684
0.284128 0.315876 0.125062 -0.433714 -0.327087 -0.839587
0.503183 0.750242 0.101625 0.110038 0.556617 -0.823450
0.337298 0.769225 0.789126 0.282047 -0.555912 -0.781928
0.575682 0.491207 0.058869 -0.278033 0.139747 0.950352
0.250362 0.605933 0.090214 0.489618 -0.140626 0.860522
0.248174 0.910714 0.247075 0.673066 0.072525 0.736017
0.284186 0.528347 0.067003 -0.421495 -0.068905 -0.904209
0.886017 0.599139 0.433326 0.996459 0.067775 -0.049760
0.854526 0.704770 0.498449 0.874880 0.477779 0.079448
0.747763 0.206475 0.612595 -0.760518 0.533131 -0.370653
0.508340 0.025000 0.427485 0.093562 -0.989927 -0.106253
0.582764 0.966076 0.715151 -0.132518 0.934813 -0.329489
0.075431 0.474339 0.621435 0.912015 0.182531 -0.367303
0.168360 0.141678 0.410957 -0.699727 -0.708285 -0.093355
0.221841 0.249704 0.722870 -0.597219 -0.407900 0.690614
0.624685 0.606855 0.851105 -0.402969 -0.089835 -0.910794
0.658036 0.224085 0.185515 0.509148 -0.479449 -0.714770
0.068708 0.636740 0.291084 0.887925 -0.226372 0.400431
0.665744 0.749298 0.175151 -0.484774 -0.563023 0.669328
0.116930 0.221682 0.421710 -0.864417 -0.495653 -0.084329
0.830649 0.447309 0.280227 0.892056 -0.200738 -0.404896
0.176635 0.967217 0.475647 0.401829 0.915205 -0.030559
0.028859 0.598492 0.416881 -0.992917 0.045125 -0.109905
0.187729 0.153812 0.330423 -0.670760 -0.675340 -0.306588
0.354571 0.858155 0.749709 0.302156 -0.165219 -0.938831
0.172613 0.204330 0.625184 0.734775 0.488241 -0.470878
0.524575 0.873361 0.179425 -0.268535 -0.043449 0.962290
0.857120 0.520890 0.322924 -0.948818 0.136946 0.284588
0.188132 0.802986 0.647330 0.735047 -0.480217 -0.478641
0.162164 0.667078 0.757407 -0.668907 0.276647 0.689949
0.338006 0.026541 0.375027 0.214574 0.962099 0.168295
0.335199 0.966538 0.746741 -0.248367 0.737759 0.627715
0.657660 0.649123 0.833403 0.458836 0.223653 0.859912
0.504499 0.671736 0.050808 0.116511 0.382957 -0.916389
0.625333 0.080266 0.277661 0.475363 -0.629240 -0.614888
0.242774 0.467898 0.105656 0.509293 0.150203 0.847384
0.183924 0.858015 0.339692 0.892645 -0.166532 0.418870
0.192995 0.186169 0.644923 -0.689295 -0.492016 0.531783
0.173907 0.669733 0.760223 0.643084 -0.309163 -0.700615
0.783446 0.668904 0.710301 -0.747424 -0.339163 -0.571249
0.574687 0.026541 0.424993 -0.227446 0.964834 0.131769
0.327161 0.725814 0.100999 -0.243726 0.537025 -0.807590
0.368393 0.517667 0.043038 -0.252297 -0.094656 -0.963009
0.270657 0.476386 0.827855 0.470662 0.168648 -0.866046
0.885854 0.541174 0.425149 0.993571 -0.093476 -0.063862
0.606241 0.385009 0.082128 0.349994 -0.309206 -0.884249
0.218135 0.955490 0.606351 -0.408815 -0.880717 0.239183
0.133119 0.717684 0.678585 0.719321 -0.476594 -0.505406
0.636580 0.082265 0.292044 -0.511483 0.657206 0.553593
0.438356 0.658695 0.881507 -0.048921 0.282077 0.958144
0.040504 0.497444 0.446985 0.988581 0.146971 0.033258
0.426789 0.298959 0.829426 -0.075248 -0.385238 0.919744
0.698608 0.738010 0.190129 -0.550327 -0.553201 0.625387
0.647773 0.548127 0.843133 0.454550 -0.079055 0.887206
0.354260 0.723913 0.840849 -0.222230 0.522865 0.822938
0.315620 0.858431 0.737806 -0.430353 0.219717 0.875512
0.630787 0.090628 0.655666 0.423623 -0.782204 0.456838
0.666290 0.471258 0.097564 0.493414 -0.168083 -0.853399
0.221702 0.147085 0.286644 0.583961 0.690950 0.426119
0.881172 0.633099 0.491874 0.976131 0.202218 0.079228
0.712511 0.144135 0.603736 0.639653 -0.697509 0.322993
0.374944 0.448758 0.863136 -0.195268 -0.211358 0.957705
0.474491 0.254152 0.813765 0.040875 -0.425376 0.904093
0.180611 0.399240 0.168133 0.672455 0.244872 0.698457
0.181682 0.319949 0.204156 0.690126 0.352681 0.631936
0.846030 0.411952 0.561973 -0.940967 0.228109 -0.250096
0.675657 0.725289 0.148160 0.476498 0.545572 -0.689420
0.806333 0.747530 0.390368 -0.820429 -0.544784 0.173512
0.137632 0.757064 0.313362 0.742499 -0.563920 0.361510
0.078527 0.539550 0.265353 0.882514 0.096212 0.460340
0.730673 0.779341 0.660123 -0.695897 -0.529440 -0.485202
0.669539 0.605509 0.831551 0.504322 0.075373 0.860220
0.239586 0.222056 0.202357 0.567588 0.491116 0.660794
0.307093 0.025000 0.452343 -0.265608 -0.963995 0.012884
0.262558 0.707195 0.116069 -0.380049 0.518427 -0.766026
0.859419 0.408210 0.437097 -0.970649 0.234836 0.051891
0.499935 0.035865 0.683424 -0.054847 0.707793 -0.704287
0.161132 0.183395 0.350992 0.754585 0.601106 0.263197
0.131100 0.404406 0.696766 0.787120 0.232558 -0.571279
0.732915 0.820911 0.326486 -0.814210 -0.435293 0.384165
0.638538 0.587083 0.850326 0.438971 0.012401 0.898416
0.639323 0.535631 0.069041 0.421869 -0.090324 -0.902146
0.808406 0.301227 0.565465 -0.887642 0.382260 -0.256846
0.474073 0.932238 0.156064 -0.023497 0.097914 0.994917
0.309646 0.141099 0.215756 0.380276 0.615386 0.690428
0.752484 0.881867 0.430752 0.986969 0.136498 -0.085207
0.283448 0.706881 0.829288 -0.373120 0.460995 0.805149
0.393476 0.218630 0.792732 0.162902 0.473485 -0.865607
0.126611 0.217787 0.395121 0.850421 0.503216 0.153484
0.150968 0.268569 0.647487 -0.765466 -0.408646 0.497061
0.472047 0.781953 0.801678 -0.055664 -0.520862 -0.851824
0.197288 0.807557 0.280192 0.727260 -0.443580 0.523765
0.817418 0.336508 0.597641 0.884777 -0.328464 0.330577
0.388264 0.763611 0.118243 -0.158998 0.572805 -0.804123
0.644126 0.145192 0.689188 0.484639 -0.661786 0.571982
0.543370 0.354340 0.079402 -0.214012 0.320704 0.922685
0.806767 0.360468 0.640845 0.851307 -0.290505 0.436902
0.728324 0.300946 0.712716 0.684150 -0.371616 0.627567
0.267433 0.228069 0.747729 -0.485236 -0.436320 0.757740
0.215203 0.807086 0.248329 -0.661421 0.462257 -0.590627
0.040219 0.624165 0.552786 -0.972642 0.105746 0.206845
0.204507 0.643769 0.806261 -0.579298 0.180634 0.794849
0.837053 0.590287 0.268505 -0.908856 -0.019865 0.416636
0.542648 0.234846 0.127667 0.226212 -0.473567 -0.851213
0.717942 0.972474 0.381200 -0.085517 0.993522 0.074842
0.527132 0.072981 0.699523 -0.169701 0.698433 -0.695265
0.099031 0.391468 0.273019 -0.862245 -0.254355 -0.437992
0.651397 0.219749 0.183674 0.493682 -0.486603 -0.720760
0.401226 0.689855 0.065551 0.090433 -0.450453 0.888208
0.081737 0.447651 0.290037 0.895789 0.192620 0.400574
0.163928 0.202494 0.310863 -0.751239 -0.548015 -0.367857
0.597187 0.073476 0.670475 0.333663 -0.787954 0.517491
0.523358 0.030715 0.674251 -0.142256 0.744510 -0.652279
0.223515 0.146095 0.646153 -0.628376 -0.544942 0.555142
0.196187 0.090386 0.467276 -0.572043 -0.817826 0.062663
0.043257 0.546237 0.348290 -0.959432 -0.096190 -0.265025
0.834690 0.720838 0.413743 -0.848458 -0.517458 0.111157
0.387092 0.317526 0.091272 0.176510 0.339668 0.923834
0.828175 0.320016 0.385175 0.912489 -0.361430 -0.191659
0.096047 0.353196 0.301928 -0.877443 -0.304340 -0.370770
0.663194 0.564304 0.077636 0.491872 -0.056226 -0.868850
0.734526 0.226954 0.266367 -0.707587 0.457146 0.538830
0.476056 0.914258 0.769669 0.062944 -0.067677 0.995720
0.187105 0.763684 0.234081 -0.618152 0.569316 -0.542003
0.282686 0.235496 0.166605 0.456063 0.449342 0.768179
0.332928 0.744079 0.809162 0.282554 -0.539167 -0.793387
0.796972 0.439475 0.230951 -0.824392 0.201978 0.528755
0.662670 0.064519 0.591609 0.432813 -0.867457 0.245338
0.040926 0.575407 0.569584 -0.969615 -0.073387 0.233371
0.204594 0.842404 0.639341 0.801217 -0.306671 -0.513813
0.409487 0.026541 0.605453 0.046366 0.910293 -0.411360
0.335194 0.358099 0.084277 -0.301942 -0.264332 -0.915947
0.426002 0.026541 0.654237 0.152058 0.734514 -0.661337
0.223590 0.160005 0.653948 0.628656 0.525758 -0.573035
0.320810 0.553069 0.866050 -0.349898 -0.102924 0.931117
0.176815 0.896035 0.571945 0.939896 0.008286 -0.341361
0.751536 0.287419 0.679290 0.743964 -0.396807 0.537644
0.544330 0.025000 0.277332 0.300969 -0.651104 -0.696765
0.399291 0.031089 0.253965 0.086587 0.739085 0.668024
0.757055 0.190399 0.357985 -0.745997 0.592806 0.303431
0.295933 0.953960 0.209516 0.307258 -0.804859 0.507735
0.074336 0.721751 0.444629 0.852270 -0.520405 0.053052
0.193576 0.348292 0.745237 -0.642333 -0.290516 0.709231
0.387689 0.847950 0.767322 -0.204106 0.246523 0.947400
0.385011 0.467240 0.051000 0.203057 0.154741 0.966862
0.703016 0.861436 0.632181 -0.821849 -0.171955 -0.543135
0.161315 0.195250 0.599695 -0.752641 -0.524900 0.397507
0.220461 0.883479 0.289024 0.796264 0.011573 0.604838
0.785203 0.735515 0.632953 -0.760356 -0.521342 -0.387377
0.796627 0.390483 0.239003 0.810865 -0.259388 -0.524611
0.789811 0.486078 0.718282 0.775047 -0.155325 0.612516
0.663285 0.750893 0.165555 0.470942 0.563833 -0.678459
0.452092 0.583770 0.028234 -0.056953 0.019198 -0.998192
0.536527 0.457411 0.864919 0.212554 -0.174230 0.961491
0.646815 0.942594 0.214605 0.641092 -0.106562 -0.760030
0.781029 0.196773 0.468371 0.822372 -0.568854 -0.010436
0.791650 0.679221 0.238086 -0.748105 -0.406157 0.524762
0.760396 0.825831 0.521316 -0.905881 -0.392068 -0.160195
0.523461 0.196867 0.143817 0.193914 -0.499573 -0.844289
0.213598 0.107274 0.349095 0.560785 0.791380 0.243387
0.464185 0.026541 0.642597 -0.029670 0.817606 -0.575013
0.838625 0.562655 0.255043 0.901156 -0.087064 -0.424663
0.592136 0.434241 0.842711 -0.341879 0.172327 -0.923809
0.533929 0.162706 0.172770 -0.238000 0.525281 0.816968
0.267265 0.043330 0.595303 0.540073 0.701410 -0.465129
0.741721 0.795268 0.637781 0.745389 0.502253 0.438335
0.783958 0.523118 0.732915 0.753409 -0.118539 0.646779
0.093780 0.478531 0.253359 -0.857090 -0.165193 -0.487964
0.527277 0.546864 0.878709 -0.213759 0.094216 -0.972332
0.230550 0.071876 0.358687 -0.468544 -0.860694 -0.199180
0.226193 0.680939 0.805133 -0.517359 0.348716 0.781496
0.197068 0.321494 0.734867 -0.642439 -0.320055 0.696303
0.591217 0.898278 0.729375 0.457230 -0.002839 0.889344
0.315693 0.941306 0.185019 -0.422195 -0.110757 -0.899713
0.743250 0.188353 0.321156 0.728264 -0.550222 -0.408518
0.451675 0.458338 0.871941 -0.013529 -0.189067 0.981871
0.626998 0.026541 0.399313 -0.297740 0.933701 0.198883
0.177533 0.970484 0.524405 0.143231 0.986429 -0.080260
0.588912 0.396366 0.079054 -0.315624 0.283444 0.905561
0.673613 0.638831 0.102398 -0.492691 -0.307477 0.814072
0.692500 0.759294 0.196977 0.543619 0.564108 -0.621499
0.053383 0.563914 0.604887 0.946468 0.107774 -0.304276
0.717010 0.768308 0.701707 0.620326 0.547182 0.561950
0.154759 0.208240 0.604031 -0.763788 -0.504800 0.402251
0.413392 0.872358 0.761620 0.135864 -0.066543 -0.988490
0.387748 0.771131 0.132944 0.183527 -0.583402 0.791176
0.789252 0.353421 0.251071 0.800469 -0.314153 -0.510448
0.284616 0.879637 0.706879 0.536766 -0.034741 -0.843016
0.478530 0.972416 0.185834 -0.039273 0.988366 -0.146934
0.753885 0.154160 0.500032 0.731629 -0.679241 0.057878
0.877404 0.651434 0.442171 0.959939 0.277632 -0.037925
0.820489 0.440059 0.272666 -0.881365 0.201655 0.427237
0.614292 0.966998 0.220623 0.243545 0.897458 -0.367769
0.300112 0.159917 0.722363 -0.418038 -0.500299 0.758252
0.072796 0.630584 0.282803 0.883762 -0.203079 0.421573
0.641343 0.208890 0.735699 -0.496016 0.484246 -0.720745
0.486277 0.940715 0.156280 -0.086431 -0.213377 0.973139
0.812543 0.306084 0.571241 0.886813 -0.376567 0.267882
0.148880 0.767082 0.639374 -0.720551 0.562810 0.405034
0.164507 0.938904 0.587591 -0.893638 -0.176003 0.412837
0.170295 0.192059 0.318152 0.738948 0.575277 0.350732
0.535962 0.308795 0.093781 0.200357 -0.378947 -0.903469
0.483588 0.169235 0.771462 0.041741 -0.523888 0.850764
0.480805 0.933959 0.155577 0.045310 -0.101152 -0.993839
0.191629 0.937186 0.299997 -0.829067 -0.105952 -0.549020
0.068902 0.529767 0.635543 -0.915123 -0.139748 0.378180
0.185929 0.773814 0.686725 -0.633891 0.575768 0.516404
0.135550 0.251369 0.601108 0.804586 0.456097 -0.380286
0.756701 0.936316 0.540425 0.961682 -0.093378 0.257775
0.306193 0.025000 0.556570 -0.242449 -0.938529 0.245727
0.170669 0.470124 0.759507 -0.699296 -0.176366 0.692734
0.165476 0.167133 0.565614 -0.708880 -0.635376 0.306246
0.517809 0.767348 0.805396 -0.168883 -0.561622 -0.809975
0.653004 0.241179 0.174256 0.494523 -0.463732 -0.735119
0.445091 0.592056 0.884174 0.025255 -0.017045 -0.999536
0.509881 0.241873 0.802958 -0.133135 0.424162 -0.895746
0.735079 0.972490 0.422071 0.154227 0.987761 0.023296
0.689290 0.240613 0.714135 -0.612514 0.453221 -0.647624
0.152477 0.238617 0.300465 0.784206 0.476337 0.397648
0.442548 0.728320 0.850370 -0.023093 0.525453 0.850509
0.329313 0.105289 0.227686 -0.318283 -0.668497 -0.672167
0.116962 0.415034 0.235078 -0.815453 -0.231353 -0.530578
0.280576 0.497543 0.841974 -0.445925 -0.152374 0.882005
