0.183342 0.814535 0.290403 -0.916350 -0.179976 0.357646
0.256744 0.612325 0.213959 0.074048 0.063342 0.995241
0.364964 0.975000 0.336344 -0.357772 0.933443 -0.026128
0.308502 0.076763 0.223661 0.233434 0.947945 -0.216584
0.159057 0.947251 0.345941 -0.765149 -0.209106 0.608951
0.184075 0.056895 0.273802 0.390184 -0.917697 -0.074756
0.300101 0.421006 0.274843 -0.934075 -0.017520 -0.356646
0.323437 0.219305 0.111579 0.172312 0.908341 -0.381083
0.211547 0.868835 0.201524 0.610685 0.297262 0.733962
0.209115 0.701719 0.252805 0.979567 0.102427 0.173082
0.226649 0.091872 0.449215 0.140276 0.707204 -0.692954
0.202456 0.580571 0.291927 -0.872450 -0.048628 0.486279
0.389941 0.107305 0.065175 0.533944 -0.195085 -0.822706
0.336582 0.055981 0.337402 -0.189426 -0.962065 -0.196338
0.348596 0.056428 0.230330 -0.302008 -0.949993 0.079404
0.219634 0.437410 0.210436 -0.639722 0.013513 -0.768488
0.120536 0.106737 0.116492 0.570205 0.550026 0.610195
0.327067 0.603119 0.258052 0.997894 -0.058639 -0.027728
0.216428 0.679799 0.235063 0.863244 0.092999 0.496146
0.363787 0.897995 0.246014 0.936550 -0.328076 -0.123451
0.184477 0.768313 0.247834 -0.970699 -0.129073 -0.202692
0.222620 0.652972 0.291281 0.766534 0.081128 -0.637058
0.117583 0.219671 0.332566 -0.369600 0.911510 0.180401
0.234456 0.861473 0.351397 -0.271423 -0.262857 0.925870
0.090806 0.082077 0.297240 0.297309 0.953568 -0.048119
0.268075 0.153199 0.220855 0.239763 0.568798 -0.786754
0.269465 0.210182 0.071091 0.042147 0.857282 -0.513119
0.362520 0.099353 0.092703 -0.419899 0.631488 0.651850
0.297810 0.901670 0.184685 -0.414724 0.364376 0.833807
0.361060 0.944988 0.290341 -0.789057 0.586692 -0.182158
0.219911 0.180891 0.442916 0.108458 -0.830689 -0.546070
0.180302 0.056783 0.274811 0.387707 -0.918694 -0.075398
0.209211 0.777571 0.317912 -0.658094 -0.137378 0.740297
0.226662 0.495245 0.286583 0.787540 0.012995 -0.616126
0.250281 0.152362 0.472911 0.036018 -0.356315 -0.933671
0.294639 0.653499 0.294185 -0.716080 0.081640 -0.693227
0.262395 0.748379 0.335346 0.027627 -0.124286 0.991862
0.270737 0.220995 0.414017 0.020908 0.915578 0.401596
0.272325 0.079255 0.046660 0.035031 -0.752870 -0.657236
0.305639 0.115013 0.254118 0.666321 0.741119 -0.082208
0.322736 0.424600 0.272801 0.982056 0.018993 0.187632
0.079073 0.200858 0.172810 -0.558567 0.776423 -0.291839
0.114361 0.162545 0.405713 0.577233 -0.557254 -0.596884
0.178625 0.215385 0.219042 0.425506 -0.875937 0.227331
0.236496 0.927900 0.353932 0.172381 0.496703 -0.850630
0.243834 0.305297 0.299469 0.395421 -0.065186 -0.916184
0.294042 0.872468 0.352089 0.330649 -0.281890 0.900671
0.026981 0.106008 0.237434 -0.969119 -0.199617 -0.144779
0.282284 0.109442 0.059495 -0.109510 0.518508 0.848031
0.198667 0.471852 0.242454 -0.960683 -0.000593 -0.277646
0.407224 0.220541 0.313866 0.380030 0.913114 0.147648
0.328443 0.052101 0.142555 -0.193292 -0.917123 0.348603
0.293517 0.854921 0.172955 0.353124 -0.250454 -0.901430
0.085471 0.103910 0.416640 -0.715886 -0.227170 0.660228
0.380848 0.100361 0.415333 -0.466704 0.620805 -0.629912
0.211077 0.905500 0.330040 0.529933 0.374002 -0.761113
0.438566 0.087680 0.302929 -0.552817 0.817843 -0.159770
0.277516 0.044573 0.408702 -0.082949 -0.756667 -0.648517
0.464268 0.117922 0.223627 -0.897267 0.413785 0.153930
0.278866 0.261201 0.187720 0.194061 0.572301 -0.796751
0.417891 0.200834 0.384980 0.485262 0.775562 0.403763
0.278443 0.144667 0.249267 -0.813059 -0.102604 0.573069
0.206054 0.563236 0.295708 -0.832564 -0.040687 0.552432
0.297103 0.159243 0.466959 -0.161008 -0.497584 -0.852342
0.220519 0.822885 0.209763 0.612832 0.202062 0.763942
0.433548 0.082969 0.238008 -0.400895 0.915915 0.019557
0.311020 0.692423 0.260628 -0.995055 0.098693 -0.011207
0.114499 0.174671 0.132058 0.503527 -0.751285 0.426651
0.265876 0.430294 0.302278 -0.126143 -0.013773 -0.991916
0.137764 0.195940 0.177114 0.365037 -0.899262 0.240988
0.219974 0.286082 0.243723 0.913349 -0.112641 0.391287
0.185865 0.923037 0.351455 -0.616768 -0.284701 0.733854
0.133770 0.110458 0.101476 0.528290 0.505931 0.681867
0.339212 0.071463 0.076253 0.258545 -0.763076 -0.592343
0.077579 0.080634 0.143893 -0.559654 -0.750822 -0.350791
0.477727 0.116579 0.172870 0.919930 -0.104437 -0.377918
0.375558 0.974682 0.225786 -0.643880 0.724870 0.244914
0.411356 0.218657 0.323721 0.387309 0.905591 0.172907
0.189110 0.690520 0.273210 -0.970991 -0.128126 0.201889
0.053155 0.096155 0.153932 -0.841700 -0.346464 -0.414131
0.173206 0.025000 0.109385 -0.289601 -0.861259 -0.417570
0.233683 0.161248 0.488886 -0.116734 0.356812 0.926854
0.379941 0.143258 0.460832 0.503433 0.161505 0.848806
0.226266 0.184647 0.479495 -0.137701 0.596775 0.790505
0.217237 0.558008 0.265290 0.994756 0.030458 -0.097632
0.303838 0.056605 0.335679 -0.165212 -0.943958 -0.285743
0.192625 0.056279 0.188337 0.201592 -0.953911 0.222293
0.230864 0.800201 0.209701 0.496844 0.154149 0.854040
0.392541 0.119656 0.099284 -0.589943 0.392006 0.705903
0.293513 0.755786 0.192236 0.443254 -0.127793 -0.887240
0.225771 0.434109 0.285304 0.811324 -0.012198 -0.584469
0.355399 0.965673 0.367399 0.622033 -0.151051 0.768283
0.291080 0.313692 0.316027 0.500540 0.066347 0.863167
0.030716 0.150121 0.300868 -0.936328 0.303102 0.177256
0.326712 0.759824 0.223567 0.873040 -0.129432 -0.470158
0.197132 0.515163 0.271971 -0.978379 -0.032858 0.204191
0.099988 0.219524 0.270951 -0.401677 0.915776 -0.003220
0.365995 0.947480 0.273072 -0.799274 0.599292 -0.044828
0.281872 0.975000 0.130629 0.096812 0.973118 0.208971
0.302793 0.055963 0.361183 -0.104963 -0.962658 -0.249546
0.389046 0.080885 0.086090 0.389218 -0.750544 -0.534034
0.215964 0.217667 0.332350 0.273180 -0.856027 -0.438851
0.052500 0.108793 0.151109 -0.876412 -0.180561 -0.446431
0.149813 0.932309 0.314823 -0.875893 -0.259383 0.406856
0.288912 0.315501 0.291359 -0.665336 -0.061028 -0.744046
0.283311 0.272087 0.220518 -0.500598 -0.264861 0.824166
0.208404 0.212928 0.438358 -0.146434 0.877452 0.456765
0.260353 0.161757 0.467681 -0.009588 -0.541974 -0.840341
0.395701 0.048579 0.211085 -0.533753 -0.820620 0.204185
0.287178 0.707879 0.327845 0.367030 -0.106042 0.924145
0.174208 0.242090 0.227790 -0.556557 0.805625 -0.203007
0.219173 0.442346 0.248183 0.954211 -0.005590 0.299081
0.162959 0.029071 0.380997 0.349394 -0.849762 -0.394751
0.334475 0.223192 0.135084 0.201149 0.923929 -0.325414
0.312284 0.856038 0.209830 -0.680303 0.271775 0.680680
0.166054 0.907670 0.205918 -0.816131 -0.331343 -0.473437
0.365756 0.190226 0.386734 -0.310796 -0.880314 -0.358404
0.347675 0.056823 0.095950 0.406563 -0.530665 -0.743708
0.332923 0.884881 0.292920 -0.862844 0.330842 -0.382157
0.350649 0.957205 0.155264 0.674685 -0.177622 -0.716415
0.487931 0.154731 0.303295 0.940320 0.286386 0.183794
0.402522 0.093132 0.130667 -0.544593 0.694080 0.470819
0.328885 0.657930 0.273854 0.976709 -0.083450 0.197674
0.253777 0.146457 0.473218 0.023386 -0.202536 -0.978996
0.330071 0.669817 0.248843 0.983702 -0.088790 -0.156357
0.414341 0.058085 0.365646 0.681761 -0.554970 0.476666
0.190131 0.056729 0.304446 0.292260 -0.940219 -0.174851
0.162339 0.032728 0.410394 -0.372172 -0.685063 0.626240
0.279227 0.577340 0.322712 0.294611 -0.047049 0.954458
0.467694 0.160985 0.268869 -0.848112 -0.529390 -0.021252
0.214700 0.676751 0.204999 -0.632080 -0.091871 -0.769437
0.196602 0.375121 0.252742 -0.985622 0.040251 -0.164099
0.311373 0.653091 0.307414 0.729923 -0.081379 0.678668
0.280689 0.216380 0.174238 -0.125550 -0.867730 0.480917
0.218347 0.447717 0.268863 0.976005 -0.020504 -0.216778
0.310891 0.592344 0.217117 0.761373 -0.053704 -0.646086
0.087357 0.029267 0.215361 -0.688608 -0.708665 -0.153666
0.144751 0.107256 0.464669 -0.471159 -0.195218 0.860174
0.094275 0.039755 0.332445 -0.712168 -0.619725 0.329785
0.419705 0.217537 0.203982 0.414059 0.900291 -0.134282
0.403247 0.117218 0.111546 -0.635832 0.423475 0.645280
0.294500 0.061862 0.448025 0.135958 -0.622021 0.771106
0.234899 0.187193 0.043135 -0.075426 0.627912 -0.774621
0.077647 0.074608 0.355303 -0.574971 -0.760633 0.301405
0.246320 0.055639 0.380057 0.024673 -0.970267 -0.240776
0.258376 0.608224 0.192728 -0.023264 -0.060925 -0.997871
0.381552 0.055559 0.283854 -0.231131 -0.971981 -0.042806
0.187466 0.920650 0.201453 0.701738 0.457329 0.546273
0.290005 0.848754 0.323968 -0.426552 0.256610 -0.867297
0.193723 0.630208 0.277147 -0.963670 -0.080552 0.254659
0.219444 0.848005 0.341824 -0.443375 -0.238222 0.864100
0.060644 0.184853 0.355995 -0.722644 0.604388 0.335412
0.325429 0.181803 0.085265 -0.180121 -0.840391 0.511174
0.174675 0.160898 0.070686 0.359752 -0.528319 0.769063
0.259459 0.094700 0.212012 -0.013071 0.859394 -0.511147
0.211073 0.057319 0.221659 0.300836 -0.919504 0.253003
0.260681 0.128467 0.046456 -0.003919 0.281358 0.959595
0.314984 0.908097 0.327457 -0.589115 0.387343 -0.709161
0.284455 0.232306 0.149657 0.082369 0.917467 -0.389192
0.402442 0.094989 0.442688 0.583398 -0.385704 0.714758
0.193016 0.819044 0.210139 -0.780409 -0.185001 -0.597274
0.230922 0.239419 0.352033 -0.157923 0.838320 0.521804
0.292408 0.488729 0.204795 0.498758 -0.008410 -0.866701
0.283740 0.204946 0.065659 0.086764 0.814057 -0.574268
0.173477 0.975000 0.139489 -0.534136 -0.108448 -0.838414
0.313377 0.353062 0.295176 0.842824 0.049674 0.535892
0.281584 0.799752 0.206231 -0.363289 0.153509 0.918943
0.398806 0.964501 0.226865 0.970344 -0.154826 -0.185638
0.303886 0.875477 0.196164 -0.529891 0.311725 0.788697
0.169154 0.165243 0.049154 -0.353921 0.398636 -0.846067
0.216700 0.568245 0.265927 0.991519 0.033806 -0.125492
0.221047 0.585867 0.313276 -0.591079 -0.050918 0.805005
0.355276 0.029885 0.411316 0.406738 -0.705071 0.580895
0.419281 0.217822 0.207070 0.413214 0.901767 -0.126769
0.322310 0.104314 0.485807 0.271895 -0.223940 0.935908
0.236574 0.700198 0.214436 0.458841 0.102282 0.882612
0.283830 0.636864 0.218602 -0.498722 0.073985 0.863599
0.306564 0.114198 0.490029 0.206206 -0.128061 0.970093
0.133040 0.105292 0.456986 -0.518799 -0.214404 0.827574
0.367123 0.971373 0.311479 -0.654370 0.711035 -0.257349
0.327709 0.026524 0.119950 -0.246663 -0.863496 0.439922
0.270926 0.295195 0.196916 0.150102 0.074154 -0.985886
0.167921 0.171009 0.050788 -0.348693 0.457185 -0.818165
0.317754 0.901854 0.198524 -0.635245 0.364693 0.680781
0.493741 0.122578 0.275616 0.997220 -0.045226 0.059214
0.304863 0.238708 0.347327 0.256310 0.847150 0.465448
0.373127 0.937913 0.316785 0.853396 -0.238709 0.463394
0.145289 0.072247 0.094543 -0.366439 -0.762294 -0.533508
0.473114 0.122862 0.357182 0.912018 -0.042600 0.407932
0.280000 0.169410 0.457999 -0.095362 -0.672415 -0.734005
0.098657 0.116739 0.090320 -0.692028 -0.103050 -0.714477
0.269186 0.421772 0.301677 -0.203576 -0.017282 -0.978907
0.196378 0.504872 0.255237 -0.986047 -0.014717 -0.165817
0.326847 0.638430 0.242980 0.967722 -0.074735 -0.240683
0.449326 0.173739 0.215321 -0.651115 -0.738643 0.174514
0.145419 0.962520 0.258756 0.766270 0.642487 -0.006348
0.246052 0.229516 0.378781 -0.040007 0.941555 0.334476
0.274195 0.565621 0.196757 0.215586 -0.041715 -0.975593
0.303050 0.274389 0.274681 -0.914047 -0.239994 -0.326987
0.043737 0.088055 0.198735 -0.766183 -0.609218 -0.204491
0.142480 0.975000 0.290827 0.658767 0.720162 -0.217699
0.104014 0.117545 0.435174 -0.656080 -0.094945 0.748695
0.225146 0.664932 0.198606 -0.491733 -0.086517 -0.866437
0.298317 0.314474 0.241474 -0.904711 -0.061454 0.421570
0.298386 0.549758 0.241448 -0.900921 0.035510 0.432527
0.456517 0.180203 0.375364 0.718522 0.543206 0.434341
0.393765 0.094765 0.399582 -0.495764 0.678571 -0.541995
0.295833 0.355060 0.207203 0.546939 0.048842 -0.835746
0.122566 0.121268 0.449650 -0.580100 -0.058301 0.812456
0.228111 0.342550 0.288304 0.757938 -0.049862 -0.650418
0.284846 0.131777 0.492964 0.108786 0.044953 0.993048
0.334899 0.096904 0.038833 0.289535 -0.320970 -0.901747
0.229534 0.076763 0.164965 -0.067667 0.989977 -0.123965
0.426640 0.076947 0.132507 0.519286 -0.755754 -0.398971
0.224401 0.158157 0.266542 -0.542165 0.840187 0.011979
0.131381 0.220792 0.346675 -0.338991 0.914851 0.219392
0.143656 0.194579 0.086553 -0.372849 0.711464 -0.595653
0.456962 0.071223 0.223635 0.636515 -0.762751 -0.114275
0.293861 0.699212 0.221458 -0.655107 0.101723 0.748657
0.305758 0.251430 0.241133 -0.813344 -0.477631 0.332174
0.229782 0.143366 0.049028 0.145891 -0.116855 0.982375
0.083193 0.055088 0.312518 -0.814514 -0.524204 0.248548
0.071328 0.102278 0.398784 -0.773492 -0.242882 0.585421
0.317696 0.101339 0.448603 -0.213200 0.610728 -0.762599
0.288768 0.906082 0.156888 0.254666 -0.337196 -0.906335
0.422778 0.158590 0.096576 0.673989 0.328532 -0.661669
0.320949 0.898837 0.345350 0.546479 -0.329758 0.769819
0.318332 0.849189 0.300056 -0.805848 0.257465 -0.533217
0.317007 0.797079 0.254797 -0.984569 0.148167 0.093120
0.062439 0.137544 0.180147 0.927356 0.046606 0.371266
0.339282 0.194880 0.388731 -0.239678 -0.895661 -0.374629
0.318319 0.334937 0.286146 0.917801 0.057430 0.392866
0.204311 0.785769 0.267920 0.984118 0.119366 -0.131393
0.443687 0.151944 0.118247 0.768372 0.256501 -0.586355
0.224230 0.076763 0.185421 -0.130062 0.975361 -0.178201
0.182010 0.218309 0.287920 0.481848 -0.858705 -0.174495
0.204132 0.803265 0.278545 0.935024 0.152286 -0.320217
0.076935 0.200067 0.175023 -0.570283 0.768748 -0.289489
0.051983 0.120389 0.269857 0.901709 0.429618 0.048470
0.437259 0.214817 0.294457 0.448934 0.887975 0.099799
0.216666 0.535460 0.213162 -0.682136 -0.028424 -0.730673
0.193936 0.076763 0.119509 0.034336 0.992402 0.118145
0.208433 0.536756 0.222471 -0.810675 -0.028995 -0.584778
0.173906 0.123090 0.478263 -0.361265 -0.040319 0.931591
0.416038 0.167912 0.092032 0.624715 0.425905 -0.654474
0.187435 0.215451 0.098045 -0.174924 0.891263 -0.418392
0.281352 0.128071 0.259488 -0.951785 -0.293676 0.088657
0.358552 0.076763 0.243668 0.134691 0.989982 -0.042348
0.224156 0.934587 0.140868 -0.250460 -0.249283 -0.935483
0.207338 0.968986 0.365210 0.272441 0.700554 -0.659545
0.051871 0.078006 0.219785 -0.644649 -0.752507 -0.134759
0.462648 0.166399 0.262163 -0.782667 -0.622434 0.002818
0.306849 0.725313 0.317484 0.624858 -0.113833 0.772396
0.115761 0.180041 0.138671 0.444274 -0.820254 0.360284
0.231642 0.171503 0.065060 0.115862 -0.704758 0.699922
0.320434 0.868404 0.214400 -0.756902 0.297049 0.582118
0.352852 0.025000 0.401083 0.196733 -0.966868 0.162674
0.324729 0.218812 0.109901 0.175664 0.906238 -0.384546
0.283050 0.497291 0.319776 0.366852 -0.012079 0.930201
0.087408 0.025000 0.289056 -0.714289 -0.674560 0.186438
0.196577 0.405708 0.267199 -0.995326 0.017812 0.094916
0.223333 0.401546 0.281815 0.866128 -0.025549 -0.499170
0.239514 0.214962 0.081589 -0.040353 0.888908 -0.456305
0.233943 0.512367 0.201802 -0.414889 -0.018555 -0.909683
0.265331 0.209856 0.070313 0.031989 0.854573 -0.518345
0.214411 0.113540 0.252852 -0.636612 0.759775 -0.132164
0.074985 0.110535 0.116125 -0.785564 -0.163626 -0.596755
0.420626 0.190349 0.294546 -0.463581 -0.881240 -0.092244
0.440138 0.053420 0.221225 0.834086 -0.521973 -0.178452
0.070750 0.134529 0.357789 0.879042 0.134425 -0.457400
0.146592 0.918117 0.243978 -0.944020 -0.248865 -0.216545
0.260546 0.452558 0.196026 -0.001962 0.007054 -0.999973
0.303621 0.589814 0.310073 0.655920 -0.052606 0.752995
0.419278 0.218175 0.212849 0.413357 0.903597 -0.112461
0.335233 0.239392 0.320808 0.427865 0.838331 0.337837
0.202386 0.056486 0.436614 -0.271576 -0.524345 0.807037
0.273436 0.206824 0.375422 -0.048210 -0.929877 -0.364699
0.169046 0.848614 0.268894 -0.969081 -0.246212 -0.016162
0.279091 0.051102 0.442581 0.090973 -0.541273 0.835911
0.410546 0.025000 0.319885 -0.181583 -0.975161 -0.126837
0.160369 0.062305 0.096858 -0.397962 -0.630120 -0.666765
0.085046 0.178997 0.188225 0.548993 -0.808406 0.212337
0.139927 0.076763 0.296569 -0.035860 0.998851 0.031797
0.237794 0.281350 0.298306 0.509967 -0.163829 -0.844449
0.381823 0.975000 0.276298 -0.647498 0.761800 -0.020192
0.356169 0.927340 0.251832 -0.862506 0.494029 0.109630
0.291376 0.180754 0.484674 0.104361 0.550358 0.828381
0.382130 0.199226 0.325226 -0.370898 -0.908857 -0.190822
0.324360 0.803231 0.306519 0.797383 -0.155945 0.582977
0.310138 0.056760 0.324656 -0.187156 -0.939531 -0.286799
0.256423 0.262471 0.212723 0.057504 -0.368180 0.927975
0.256911 0.147625 0.238987 0.231161 -0.070947 0.970325
0.325415 0.884527 0.305895 -0.777269 0.330158 -0.535582
0.200723 0.424031 0.236230 -0.931887 0.019240 -0.362238
0.251795 0.565697 0.324416 -0.125778 -0.041744 0.991180
0.394459 0.052294 0.246972 -0.383587 -0.921778 0.056449
0.266818 0.049075 0.117536 -0.002346 -0.836395 0.548123
0.205873 0.147098 0.465931 0.241826 -0.220345 -0.944970
0.353661 0.216130 0.407767 0.230285 0.894219 0.383850
0.203165 0.316219 0.231021 -0.896842 0.065358 -0.437496
0.383129 0.030852 0.389780 0.516154 -0.698537 0.495613
0.422697 0.186292 0.192822 -0.455987 -0.867464 0.198952
0.115768 0.173791 0.390648 0.488292 -0.739159 -0.463912
0.246947 0.392993 0.322664 -0.191757 0.032554 0.980902
0.176107 0.225976 0.364029 -0.226914 0.934589 0.273959
0.189300 0.076763 0.384997 0.056112 0.997393 -0.045371
0.274348 0.068929 0.275834 -0.380309 -0.823988 -0.420010
0.283774 0.417279 0.224738 -0.567753 -0.019123 0.822977
0.281510 0.361608 0.223150 -0.515360 -0.041946 0.855947
0.269611 0.751617 0.313647 -0.175130 0.124761 -0.976609
0.210627 0.076763 0.171650 -0.082909 0.990910 -0.105940
0.098740 0.066007 0.151639 -0.590590 -0.693626 -0.412416
0.170743 0.876925 0.302702 -0.865183 -0.293347 0.406701
0.310434 0.574292 0.301950 0.769731 -0.045551 0.636741
0.242984 0.939608 0.158471 0.165842 0.558825 0.812533
0.383197 0.193161 0.089078 0.436189 0.695995 -0.570377
0.162052 0.186369 0.405849 0.269510 -0.867895 -0.417281
0.265050 0.107038 0.494696 0.033209 -0.197518 0.979737
0.218771 0.879192 0.169460 -0.389665 -0.294810 -0.872496
0.031458 0.164474 0.237408 -0.899823 0.407761 -0.155080
0.095755 0.080568 0.304854 0.256944 0.965190 -0.048868
0.223268 0.428888 0.312242 -0.566677 0.017198 0.823760
0.321964 0.065906 0.075572 0.235861 -0.691074 -0.683218
0.392938 0.098036 0.117026 -0.533538 0.645471 0.546538
0.309350 0.224201 0.127665 0.135608 0.927764 -0.347656
0.250383 0.059140 0.447875 -0.050219 -0.574031 0.817292
0.263359 0.336619 0.323867 0.068768 0.056674 0.996022
0.181017 0.240307 0.208543 -0.476067 0.826777 -0.299667
0.214268 0.703627 0.203436 -0.622467 -0.104066 -0.775696
0.075002 0.094992 0.316450 0.679474 0.706232 -0.198876
0.470858 0.145783 0.292771 -0.972084 -0.184272 -0.145246
0.217696 0.305573 0.307982 -0.646357 0.069858 0.759831
0.225232 0.194293 0.111458 0.109260 -0.894046 0.434446
0.408170 0.171626 0.130170 -0.523363 -0.706776 0.475981
0.241258 0.433761 0.298270 0.451127 -0.012335 -0.892375
0.136212 0.092775 0.066967 -0.493267 -0.460672 -0.737882
0.305887 0.193912 0.464938 0.136084 0.703984 0.697056
0.096328 0.186558 0.196897 0.466159 -0.868129 0.170435
0.250823 0.975000 0.138611 0.111835 0.745098 0.657512
0.492058 0.124504 0.294767 0.989411 -0.026214 0.142751
0.173646 0.076763 0.160156 -0.014906 0.999373 0.032100
0.251676 0.250075 0.210724 0.143090 -0.490598 0.859557
0.180641 0.076763 0.357041 0.010572 0.999441 0.031731
0.323091 0.341050 0.271454 0.985461 0.054607 0.160885
0.159269 0.102110 0.430580 0.418900 0.601581 -0.680165
0.172535 0.105657 0.080697 0.345683 0.562675 0.750933
0.357726 0.970958 0.192860 -0.550170 0.709322 0.440653
0.347095 0.860064 0.296903 0.883496 -0.260278 0.389474
0.202463 0.198561 0.387840 0.168009 -0.907153 -0.385805
0.189586 0.704480 0.278027 -0.959488 -0.121584 0.254167
0.228163 0.185569 0.478484 -0.131034 0.607954 0.783085
0.350006 0.873301 0.221127 0.882658 -0.284112 -0.374426
0.341114 0.076763 0.170500 0.009314 0.998943 -0.045006
0.414024 0.025000 0.185610 0.310483 -0.919551 -0.240885
0.194203 0.224594 0.382881 -0.179004 0.929573 0.322260
0.280770 0.880713 0.336159 -0.257028 0.322425 -0.911032
0.219174 0.393988 0.309373 -0.627347 0.032064 0.778079
0.196916 0.954432 0.169753 0.482663 0.633746 0.604485
0.112546 0.099308 0.389542 0.592593 0.631754 -0.499720
0.221312 0.122802 0.236618 -0.611777 0.687184 -0.391801
0.193480 0.189052 0.465778 -0.252364 0.648938 0.717768
0.125281 0.196146 0.200850 0.401493 -0.899885 0.170324
0.300294 0.955262 0.363352 -0.324566 0.637389 -0.698851
0.177256 0.235180 0.327025 -0.354572 0.887929 0.293022
0.177548 0.236339 0.197398 -0.391236 0.875590 -0.283331
0.225644 0.076763 0.360952 -0.004440 0.993869 0.110471
0.224699 0.157760 0.468753 0.139805 -0.471261 -0.870843
0.079186 0.177389 0.398468 -0.686100 0.518235 0.510587
0.106556 0.164823 0.088810 -0.606950 0.393995 -0.690203
0.091325 0.117120 0.422490 -0.710492 -0.099199 0.696679
0.341829 0.846688 0.220354 0.880922 -0.235914 -0.410269
0.315440 0.057728 0.081711 0.257802 -0.547901 -0.795828
0.222263 0.839466 0.340630 -0.429375 -0.222704 0.875237
0.147985 0.120356 0.084481 0.488975 0.383811 0.783321
0.197885 0.556507 0.243655 -0.963430 -0.036717 -0.265432
0.051671 0.133239 0.152887 -0.888605 0.059122 -0.454846
0.082257 0.127754 0.143653 0.799572 0.290921 0.525405
0.197664 0.049716 0.432963 -0.280057 -0.551767 0.785571
0.060470 0.116965 0.311650 0.848642 0.482373 -0.217079
0.196439 0.056744 0.084863 -0.285317 -0.528385 -0.799627
0.229353 0.192087 0.049864 -0.091268 0.683795 -0.723944
0.236095 0.928453 0.378610 -0.210880 -0.268332 0.939961
0.327217 0.074624 0.454898 0.212294 -0.758261 0.616418
0.344704 0.235008 0.195051 0.356179 0.890150 -0.284200
0.276440 0.302438 0.220752 -0.400055 -0.066376 0.914084
0.364436 0.231255 0.309141 0.341598 0.926949 0.155163
0.265974 0.697988 0.332160 0.074579 -0.101703 0.992015
0.225791 0.935382 0.380216 -0.296351 -0.246799 0.922641
0.157151 0.055921 0.301792 0.243264 -0.964638 -0.101471
0.353221 0.854095 0.260732 0.968511 -0.248744 0.010643
0.362345 0.943970 0.283563 -0.800804 0.581697 -0.142621
0.298852 0.410416 0.277525 -0.906908 -0.021949 -0.420756
0.212346 0.096363 0.257396 -0.479006 0.875664 -0.061362
0.077662 0.176136 0.199164 0.607645 -0.771237 0.189636
0.245182 0.963448 0.146156 0.142052 0.675949 0.723128
0.058294 0.121553 0.313860 0.874473 0.424370 -0.234963
0.457676 0.102797 0.271694 -0.801276 0.594623 -0.066180
0.196619 0.362484 0.252549 -0.985685 0.045628 -0.162307
0.300602 0.941309 0.355411 -0.364040 0.568067 -0.738089
0.434428 0.178989 0.407091 0.640237 0.531975 0.554166
0.162103 0.890113 0.290438 -0.900519 -0.327587 0.285925
0.312220 0.249448 0.327321 0.429929 0.725777 0.537036
0.396184 0.967318 0.210508 0.944171 -0.145498 -0.295587
0.360872 0.901160 0.291034 0.900659 -0.333705 0.278308
0.170220 0.942857 0.166814 -0.650221 -0.223211 -0.726215
0.284833 0.452668 0.201193 0.379378 0.007010 -0.925215
0.112721 0.222754 0.259347 -0.380006 0.923917 -0.044405
0.162401 0.975000 0.338700 0.384719 0.808914 -0.444578
0.196070 0.822808 0.258469 0.976509 0.195783 0.089991
0.170804 0.206430 0.183551 0.285689 -0.928514 0.237158
0.291557 0.518622 0.231399 -0.743802 0.022627 0.668016
0.357746 0.055623 0.188151 -0.192563 -0.970671 0.143937
0.049882 0.158288 0.248009 0.880151 -0.456758 0.129254
0.336468 0.870595 0.261341 -0.953513 0.301094 -0.012493
0.201178 0.305147 0.284879 -0.911262 0.065535 0.406578
0.036098 0.088377 0.283116 -0.827729 -0.556873 0.068972
0.281234 0.100158 0.455305 -0.066025 0.623643 -0.778916
0.477174 0.082416 0.226443 0.654944 -0.747809 -0.108770
0.269872 0.076763 0.418126 0.010328 0.990681 -0.135809
0.219515 0.463528 0.210518 -0.640259 0.002347 -0.768155
0.167868 0.182774 0.464132 -0.348182 0.575248 0.740175
0.203697 0.220220 0.206519 0.397344 -0.833169 0.384638
0.394100 0.125923 0.095924 -0.603801 0.313135 0.733056
0.334482 0.084805 0.469726 0.247665 -0.699435 0.670413
0.159602 0.893730 0.235307 -0.916920 -0.311162 -0.249871
0.179903 0.055902 0.337670 0.191933 -0.964016 -0.183941
0.181184 0.092847 0.476275 -0.292671 -0.457114 0.839875
0.147032 0.231440 0.237829 -0.373313 0.924325 -0.079123
0.300036 0.377837 0.245156 -0.940881 -0.035271 0.336896
0.153410 0.189688 0.447689 -0.384548 0.655801 0.649652
0.091723 0.192579 0.131843 -0.563907 0.689294 -0.454843
0.202646 0.961441 0.388619 -0.443931 -0.164533 0.880826
0.176402 0.132350 0.479426 -0.353613 0.050379 0.934034
0.234464 0.058238 0.244123 0.390006 -0.882544 0.262699
0.267284 0.317973 0.302155 -0.153342 -0.059886 -0.986357
0.442481 0.183882 0.247268 -0.509664 -0.859142 0.046012
0.083994 0.027594 0.230162 -0.687573 -0.718603 -0.104185
0.237777 0.745769 0.309151 0.406759 0.122587 -0.905273
0.186773 0.243468 0.312749 -0.490132 0.792555 0.362804
0.260296 0.371788 0.217371 -0.019302 -0.037817 0.999098
0.158425 0.170556 0.089864 0.380923 -0.690121 0.615330
0.403537 0.198468 0.115128 0.478953 0.752532 -0.451995
0.266296 0.812922 0.178383 0.082979 -0.173805 -0.981278
0.238475 0.847924 0.327138 0.285212 0.254738 -0.923993
0.158402 0.206344 0.425663 -0.309648 0.826066 0.470885
0.127005 0.025000 0.371605 -0.348928 -0.870150 0.347977
0.406232 0.145969 0.078278 0.618459 0.190960 -0.762261
0.199579 0.425405 0.281078 -0.939914 0.013872 0.341131
0.299971 0.381462 0.245017 -0.939654 -0.033790 0.340453
0.436153 0.026611 0.286731 0.682776 -0.727614 0.066295
0.216800 0.585981 0.310105 -0.651156 -0.050862 0.757237
0.284085 0.084108 0.479936 0.085414 -0.718109 0.690669
0.175244 0.171147 0.472743 -0.340388 0.458121 0.821134
0.224528 0.422041 0.207005 -0.566112 0.020114 -0.824083
0.123544 0.076763 0.239099 0.052532 0.998060 0.033426
0.155268 0.204370 0.194886 0.329234 -0.923289 0.197844
0.371387 0.212169 0.409833 0.280291 0.872031 0.401247
0.415427 0.025000 0.206526 -0.086691 -0.995930 -0.024676
0.105343 0.084637 0.170976 0.394626 0.884624 0.248414
0.123716 0.112388 0.069679 -0.584673 -0.145888 -0.798044
0.152258 0.048824 0.354706 0.412215 -0.828834 -0.378303
0.215121 0.114355 0.490459 -0.180967 -0.126459 0.975325
0.231220 0.472934 0.291411 0.683440 0.003819 -0.729997
0.203681 0.871549 0.208274 0.706104 0.303413 0.639811
0.247829 0.790993 0.204847 0.215341 0.142427 0.966097
0.203245 0.880716 0.314777 0.674587 0.322431 -0.664056
0.271705 0.357390 0.197083 0.166479 0.047703 -0.984890
0.306769 0.187636 0.094585 -0.124404 -0.872276 0.472926
0.377261 0.222824 0.171861 0.311548 0.922845 -0.226484
0.332622 0.701790 0.257221 0.994023 -0.103326 -0.035251
0.435357 0.125635 0.104232 0.743979 -0.015189 -0.668031
0.326305 0.847212 0.197574 0.714899 -0.236724 -0.657937
0.261573 0.453600 0.302652 -0.026335 -0.004173 -0.999644
0.227258 0.806266 0.186928 -0.397898 -0.161515 -0.903100
0.238496 0.057618 0.212969 0.144904 -0.908527 0.391894
0.336514 0.211077 0.330221 -0.300643 -0.909720 -0.286398
0.272340 0.422862 0.197254 0.180782 0.019759 -0.983325
0.223953 0.734739 0.194783 -0.476308 -0.118092 -0.871312
0.200257 0.531346 0.282917 -0.930908 -0.028449 0.364143
0.231257 0.429939 0.317079 -0.440805 0.016749 0.897447
0.062081 0.114663 0.312483 0.834261 0.506973 -0.216763
0.186050 0.741011 0.272468 -0.971398 -0.158938 0.176424
0.371420 0.076763 0.257428 0.081928 0.995937 -0.037373
0.297592 0.553116 0.312015 0.588422 -0.036104 0.807748
0.298386 0.041672 0.114484 -0.163075 -0.775429 0.610013
0.151690 0.959628 0.171333 -0.735903 -0.169895 -0.655426
0.214427 0.687221 0.281783 0.895162 0.094828 -0.435538
0.314373 0.056037 0.167677 -0.151390 -0.960651 0.232875
0.376382 0.217228 0.384258 0.291645 0.899286 0.325927
0.129170 0.194472 0.096526 -0.428707 0.710017 -0.558647
0.250161 0.223646 0.334025 0.086489 -0.802649 -0.590147
0.278527 0.579283 0.197123 0.282015 -0.047932 -0.958212
0.454120 0.120132 0.129001 0.822318 -0.069558 -0.564761
0.241978 0.464207 0.221531 0.416727 0.000215 0.909032
0.071083 0.103984 0.198064 0.767885 0.581408 0.268919
0.279473 0.772905 0.207931 -0.345569 0.134171 0.928752
0.311144 0.076763 0.134884 -0.030348 0.999373 0.018247
0.195831 0.249408 0.316129 -0.509932 0.726067 0.461298
0.261361 0.036440 0.107300 -0.015178 -0.807601 0.589535
0.256451 0.313518 0.217662 0.068231 -0.061937 0.995745
0.278477 0.275959 0.194693 0.236277 0.334106 -0.912440
0.252402 0.645334 0.191125 -0.104991 -0.077871 -0.991420
0.137053 0.066089 0.411261 -0.458454 -0.693825 0.555362
0.443883 0.169582 0.184127 -0.675616 -0.675409 0.295578
0.137428 0.044679 0.394789 -0.530802 -0.593365 0.605117
0.305950 0.090718 0.037057 0.155935 -0.527671 -0.835014
0.417476 0.219864 0.284118 0.407161 0.910603 0.070865
0.367195 0.950397 0.276303 -0.785918 0.613889 -0.073984
0.070323 0.091658 0.237553 0.681402 0.719174 0.135940
0.286006 0.389968 0.201741 0.394327 0.033879 -0.918345
0.233428 0.783149 0.309488 0.467651 0.138897 -0.872932
0.206397 0.345528 0.225397 -0.847583 0.052853 -0.528024
0.223834 0.447985 0.282535 0.854805 -0.006463 -0.518909
0.068617 0.204761 0.217379 -0.562595 0.812807 -0.151102
0.345270 0.904591 0.258358 -0.928982 0.369559 0.020457
0.490191 0.150856 0.290881 0.960046 0.244581 0.135981
0.205126 0.076763 0.178584 -0.116192 0.988602 -0.095736
0.186952 0.860033 0.252198 0.952430 0.275879 0.129489
0.288837 0.084621 0.084065 -0.096352 0.884936 0.455637
0.035139 0.141173 0.196999 -0.950912 0.140002 -0.275981
0.065751 0.074354 0.327426 -0.605599 -0.766051 0.215441
0.354441 0.868984 0.281951 0.932809 -0.276459 0.231167
0.088309 0.110609 0.152432 0.725068 0.504364 0.468928
0.344134 0.947668 0.157344 0.644414 -0.207771 -0.735909
0.263708 0.415952 0.323837 0.069464 0.022738 0.997325
0.311084 0.937729 0.171618 -0.395530 0.548874 0.736405
0.490940 0.161012 0.262974 0.935130 0.353801 0.018889
0.316257 0.136728 0.465387 -0.266874 0.069350 -0.961233
0.153314 0.960135 0.221453 0.719716 0.660050 0.215274
0.250953 0.151626 0.047165 0.047780 -0.338147 0.939880
0.279631 0.779988 0.207555 -0.345605 0.137291 0.928283
0.054840 0.127409 0.374047 -0.871908 0.003410 0.489657
0.215552 0.614031 0.209023 -0.655158 -0.063558 -0.752813
0.199581 0.968272 0.391770 -0.456496 -0.142921 0.878171
0.358972 0.227959 0.336816 0.264373 0.941620 0.208469
0.214319 0.596908 0.308502 -0.685447 -0.055931 0.725971
0.257377 0.179938 0.487834 -0.020979 0.540940 0.840800
0.258172 0.877540 0.160733 -0.015111 -0.291260 -0.956525
0.300750 0.691903 0.290492 -0.802993 0.098665 -0.587765
0.261339 0.267416 0.306726 -0.013841 -0.315516 -0.948819
0.302339 0.423060 0.264794 -0.992362 -0.016724 -0.122218
0.194820 0.229722 0.237500 0.631934 -0.740930 0.227337
0.161612 0.895916 0.225575 -0.892124 -0.322693 -0.316202
0.293648 0.541605 0.314473 0.529210 -0.031026 0.847923
0.262253 0.057506 0.204436 -0.055938 -0.912982 0.404146
0.131891 0.081020 0.373947 0.257026 0.945703 -0.198954
0.353720 0.056124 0.304844 -0.255261 -0.958358 -0.128034
0.223328 0.266590 0.289094 0.751033 -0.324322 -0.575122
0.323788 0.041091 0.089926 0.259672 -0.621454 -0.739165
0.382483 0.074894 0.094265 0.388168 -0.758805 -0.523011
0.444382 0.064092 0.204078 0.720921 -0.661859 -0.205465
0.294805 0.942376 0.135656 0.296849 -0.224841 -0.928077
0.181477 0.158119 0.064336 0.335084 -0.478363 0.811719
0.259769 0.845719 0.169098 -0.000048 -0.233347 -0.972394
0.278734 0.323090 0.298309 -0.424804 -0.057939 -0.903430
0.354622 0.224136 0.155082 0.253663 0.927789 -0.273611
0.322401 0.025000 0.409023 -0.013974 -0.968027 -0.250456
0.105136 0.189327 0.197079 0.446547 -0.877815 0.173308
0.373690 0.035737 0.400099 0.490239 -0.662577 0.566266
0.214913 0.214277 0.436864 -0.127119 0.885740 0.446436
0.187862 0.884192 0.293982 0.852941 0.324295 -0.409053
0.342407 0.931749 0.205617 -0.693015 0.517992 0.501413
0.197983 0.484717 0.245005 -0.969664 -0.005725 -0.244373
0.110053 0.194595 0.405464 -0.519406 0.711676 0.473006
0.335879 0.209242 0.181722 -0.268538 -0.922314 0.277892
0.166846 0.079094 0.399333 0.159016 0.968701 -0.190613
0.211372 0.884848 0.323549 0.566058 0.330674 -0.755138
0.107229 0.058962 0.369192 -0.673582 -0.571148 0.469124
0.168416 0.076763 0.217558 -0.135185 0.990579 -0.021857
0.321675 0.897549 0.175713 0.559316 -0.327439 -0.761545
0.209222 0.233059 0.218043 0.543316 -0.704314 0.456892
0.361538 0.166008 0.465892 0.393022 0.406581 0.824758
0.292062 0.641124 0.224388 -0.664286 0.076012 0.743603
0.126519 0.960338 0.302993 -0.955868 -0.075777 0.283856
0.172157 0.053413 0.160678 0.228987 -0.944130 0.237029
0.377186 0.946911 0.321027 0.850556 -0.210395 0.481963
0.399888 0.025000 0.173645 -0.089943 -0.995685 -0.022849
0.394763 0.197371 0.310910 -0.404184 -0.903151 -0.144754
0.097325 0.079640 0.304032 0.221390 0.974317 -0.041144
0.339818 0.205202 0.351125 -0.253748 -0.925403 -0.281499
0.306027 0.267328 0.251685 -0.935124 -0.315971 0.160332
0.301753 0.369695 0.268786 -0.975244 -0.038690 -0.217719
0.255248 0.975000 0.386312 -0.123498 0.832637 -0.539874
0.285211 0.115323 0.492932 0.116407 -0.117148 0.986269
0.397875 0.076763 0.325692 -0.090134 0.993765 -0.065625
0.194827 0.688532 0.290094 -0.906068 -0.098669 0.411467
0.143957 0.029176 0.157372 0.376179 -0.848983 0.371102
0.085221 0.086726 0.210162 0.512107 0.839240 0.182821
0.384089 0.975000 0.279772 -0.576688 0.816876 -0.012045
0.152211 0.233222 0.285618 -0.414669 0.902613 0.115496
0.324760 0.840945 0.283460 -0.913494 0.239562 -0.328845
0.227077 0.114558 0.228006 -0.481970 0.743964 -0.462843
0.286255 0.383855 0.293655 -0.605341 -0.032883 -0.795287
0.331638 0.890462 0.299077 -0.829289 0.341685 -0.442190
0.308821 0.964805 0.394857 0.294488 -0.153636 0.943224
0.262797 0.346152 0.323915 0.059348 0.052578 0.996852
0.248384 0.902828 0.176172 0.130046 0.366379 0.921333
0.239752 0.218547 0.339454 0.138234 -0.848482 -0.510852
0.335461 0.173318 0.080240 -0.249368 -0.732257 0.633731
0.254804 0.265160 0.331181 -0.058859 0.516241 0.854418
0.137850 0.975000 0.307670 0.103912 0.983078 -0.150867
0.266005 0.210072 0.153549 -0.025531 -0.916768 0.398604
0.271137 0.453119 0.323201 0.183058 0.006794 0.983079
0.321473 0.594478 0.234571 0.923230 -0.054777 -0.380323
0.283632 0.855245 0.328562 -0.317951 0.269465 -0.909008
0.218291 0.143460 0.249083 -0.804180 0.537195 -0.254392
0.210639 0.339984 0.219322 -0.780851 0.055110 -0.622282
0.297215 0.213369 0.349784 -0.168124 -0.892168 -0.419250
0.257644 0.215943 0.349724 0.018228 -0.871168 -0.490646
0.308562 0.255123 0.254949 -0.892641 -0.442489 0.085999
0.212221 0.687891 0.206418 -0.660040 -0.097009 -0.744941
0.177647 0.904517 0.327741 -0.727682 -0.338874 0.596358
0.101304 0.122611 0.432466 -0.671658 -0.044949 0.739497
0.213563 0.147781 0.488299 -0.198574 0.210894 0.957127
0.208007 0.485033 0.297046 -0.810411 -0.006878 0.585821
0.465430 0.100499 0.146475 0.838357 -0.259129 -0.479593
0.239119 0.603638 0.219372 0.462629 0.059374 0.884562
0.253553 0.355108 0.323595 -0.085732 0.048802 0.995122
0.074812 0.127284 0.155347 0.830245 0.296095 0.472251
0.206538 0.057186 0.220076 0.294099 -0.924496 0.242516
0.180236 0.227816 0.357489 -0.216867 0.941040 0.259638
0.202096 0.899355 0.172550 -0.519493 -0.330576 -0.787938
0.225144 0.510709 0.284412 0.823822 0.019387 -0.566517
0.224477 0.210290 0.360265 0.132475 -0.914651 -0.381921
0.316370 0.076763 0.274982 0.322003 0.944950 0.058176
0.233096 0.642690 0.299756 0.552967 0.076786 -0.829657
0.280242 0.170947 0.276833 -0.778858 0.440052 -0.446917
0.188306 0.691717 0.254141 -0.975989 -0.093587 -0.196688
0.344965 0.223122 0.142072 0.227795 0.924105 -0.306821
0.204127 0.893974 0.172878 -0.509216 -0.320928 -0.798564
0.193281 0.240576 0.325766 -0.399417 0.823412 0.403062
0.234726 0.804058 0.313368 0.419379 0.162848 -0.893085
0.277669 0.046244 0.408130 -0.089746 -0.745505 -0.660430
0.375849 0.921892 0.244468 0.950843 -0.288702 -0.112018
0.209620 0.186708 0.092782 0.151492 -0.869018 0.471018
0.230997 0.193760 0.051855 -0.083167 0.702478 -0.706830
0.209152 0.930928 0.371184 -0.428612 -0.260606 0.865088
0.428973 0.215227 0.319057 0.426888 0.889793 0.161353
0.065373 0.139906 0.389618 -0.826534 0.125622 0.548690
0.394886 0.109953 0.410969 -0.563296 0.511818 -0.648644
0.345439 0.884348 0.314084 0.800202 -0.303932 0.517012
0.102366 0.220117 0.269537 -0.401191 0.915967 -0.007101
0.159045 0.145334 0.447844 0.461729 -0.171755 -0.870233
0.278467 0.792430 0.335582 0.230683 -0.144265 0.962275
0.288114 0.488808 0.292167 -0.652480 0.010345 -0.757735
0.177234 0.908112 0.286123 0.884071 0.367769 -0.288381
0.309701 0.766530 0.318204 0.641552 -0.132301 0.755584
0.324777 0.594310 0.275209 0.972229 -0.054739 0.227540
0.223003 0.975000 0.394463 -0.446575 0.356409 0.820697
0.329406 0.168068 0.448719 -0.271240 -0.649957 -0.709919
0.303513 0.904901 0.162933 0.384895 -0.340419 -0.857887
0.298489 0.831550 0.206272 -0.554367 0.220652 0.802490
0.298550 0.527286 0.278186 -0.901897 0.026223 -0.431155
0.219735 0.605896 0.238028 0.874959 0.060355 0.480422
0.346990 0.054632 0.097262 0.407892 -0.511480 -0.756315
0.193072 0.712359 0.289532 -0.910723 -0.109971 0.398108
0.275644 0.166145 0.245597 -0.660987 0.114764 0.741569
0.311123 0.092512 0.036709 0.176353 -0.469605 -0.865084
0.302750 0.706966 0.230994 -0.817319 0.105377 0.566467
0.168709 0.918589 0.248070 0.888447 0.440378 0.129341
0.381707 0.032304 0.391684 0.516191 -0.687874 0.510271
0.181554 0.891021 0.282111 0.909253 0.320314 -0.265815
0.237042 0.385317 0.319775 -0.346880 0.035806 0.937226
0.220385 0.682260 0.200633 -0.547672 -0.094578 -0.831330
0.318789 0.196318 0.125647 -0.169077 -0.900405 0.400854
0.296738 0.217200 0.337694 -0.208467 -0.860612 -0.464638
0.208699 0.375729 0.222091 -0.812021 0.039948 -0.582259
0.094936 0.132902 0.124755 0.762322 0.171790 0.623981
0.314079 0.358993 0.294174 0.852778 0.047105 0.520144
0.245723 0.119420 0.244323 0.653545 -0.393724 0.646421
0.032463 0.171338 0.281085 -0.842432 0.538548 0.016568
0.291003 0.742592 0.303953 -0.575923 0.121188 -0.808472
0.456536 0.158274 0.381702 0.800288 0.324887 0.503972
0.293449 0.418376 0.286543 -0.776369 -0.018640 -0.630003
0.113383 0.126728 0.412950 0.661208 0.303770 -0.685951
0.190027 0.960706 0.170698 0.496188 0.663228 0.560291
0.221493 0.744527 0.297634 0.707232 0.122015 -0.696372
0.288964 0.058165 0.275237 -0.399839 -0.885477 -0.236766
0.309946 0.405590 0.220047 0.771685 0.027135 -0.635425
0.162186 0.110854 0.082184 0.407597 0.501106 0.763385
0.161998 0.084503 0.111890 0.224406 0.887343 0.402821
0.128149 0.053110 0.280125 0.495738 -0.864111 -0.086921
0.327132 0.854251 0.324390 0.687426 -0.249754 0.681960
0.088189 0.170581 0.108540 -0.661521 0.452442 -0.598069
0.063994 0.194813 0.333170 -0.650959 0.722100 0.234145
0.218480 0.539196 0.211348 -0.652163 -0.029951 -0.757486
0.473214 0.085313 0.196860 0.693636 -0.686555 -0.217970
0.062421 0.171179 0.257931 0.731530 -0.674569 0.099095
0.191348 0.053518 0.373362 0.160979 -0.945675 -0.282463
0.249087 0.055934 0.369990 0.029023 -0.963289 -0.266895
0.240624 0.135248 0.048074 0.093351 0.109921 0.989547
0.146165 0.927224 0.298513 -0.917728 -0.255112 0.304457
0.320767 0.370461 0.240008 0.943718 0.042141 -0.328055
0.293456 0.076763 0.197830 0.106939 0.961757 -0.252164
0.086558 0.027475 0.219957 -0.680126 -0.720660 -0.134452
0.241196 0.072271 0.250150 0.524101 -0.806308 0.274200
0.292678 0.547607 0.232515 -0.766761 0.034464 0.641007
0.240035 0.082825 0.267478 0.613244 -0.752254 -0.240927
0.429751 0.179383 0.342294 -0.529704 -0.813419 -0.240338
0.101258 0.086094 0.173318 0.443743 0.853846 0.272100
0.227575 0.061922 0.071660 -0.128352 -0.623044 -0.771584
0.218493 0.407643 0.250742 0.968340 -0.018389 0.248957
0.295297 0.388855 0.283904 -0.820710 -0.030830 -0.570513
0.232254 0.186893 0.087729 0.087680 -0.869246 0.486542
0.198219 0.357793 0.244141 -0.968034 0.048036 -0.246177
0.327839 0.172241 0.075457 -0.231532 -0.715533 0.659095
0.327797 0.641691 0.245804 0.976222 -0.076122 -0.202969
0.455087 0.200217 0.311491 0.610568 0.770201 0.184385
0.329172 0.734884 0.287927 0.917892 -0.118260 0.378800
0.273719 0.286653 0.219063 -0.333670 -0.106397 0.936667
0.217314 0.975000 0.385935 -0.193546 0.981084 0.003853
0.471834 0.150892 0.165433 0.888208 0.245120 -0.388590
0.258969 0.335656 0.196075 -0.033621 0.056997 -0.997808
0.162040 0.076763 0.207179 -0.091128 0.995827 -0.004921
0.115181 0.190350 0.182605 0.420960 -0.881125 0.215434
0.141986 0.969680 0.345596 -0.829766 -0.138535 0.540644
0.222447 0.747990 0.325481 -0.496819 -0.123877 0.858968
0.165533 0.221804 0.378017 -0.252682 0.918607 0.303830
0.145734 0.110739 0.055008 -0.489701 -0.161642 -0.856776
0.291778 0.395426 0.315705 0.507249 0.031435 0.861226
0.315492 0.168622 0.068162 -0.191494 -0.660161 0.726304
0.404305 0.048465 0.257042 -0.575489 -0.817455 0.024073
0.178089 0.072885 0.074814 -0.259993 -0.761429 -0.593826
0.247522 0.629248 0.192571 -0.182380 -0.070392 -0.980705
0.173022 0.965544 0.146129 -0.560904 -0.151511 -0.813899
0.441678 0.210425 0.311420 0.487811 0.859365 0.153400
0.455597 0.120222 0.389023 0.837211 -0.068637 0.542556
0.128701 0.975000 0.195682 -0.859034 -0.047183 -0.509740
0.218615 0.239554 0.173405 -0.245635 0.836805 -0.489307
0.181894 0.815592 0.232517 -0.925637 -0.177433 -0.334236
0.056419 0.190692 0.193829 -0.701355 0.667907 -0.249001
0.315819 0.744561 0.310318 0.731950 -0.122655 0.670227
0.259534 0.327418 0.302741 0.027221 -0.056090 -0.998055
0.215498 0.130755 0.490560 -0.186694 0.034912 0.981798
0.439757 0.167284 0.350500 -0.694487 -0.638234 -0.332184
0.197336 0.209833 0.347168 0.231419 -0.918296 -0.321214
0.147291 0.111592 0.428932 0.494634 0.492730 -0.715929
0.367211 0.089252 0.459381 0.400708 -0.573483 0.714528
0.258589 0.520992 0.217475 0.027624 0.023588 0.999340
0.305569 0.210561 0.077021 0.138271 0.860253 -0.490760
0.194719 0.621430 0.241195 -0.954112 -0.065746 -0.292143
0.452701 0.158877 0.387008 0.782580 0.331657 0.526851
0.174521 0.224546 0.149891 -0.222529 0.929438 -0.294324
0.091146 0.061716 0.348230 -0.700714 -0.618545 0.355531
0.039402 0.107683 0.340961 -0.918896 -0.178927 0.351590
0.160281 0.053392 0.347673 0.239450 -0.943724 -0.228140
0.323455 0.671760 0.228429 0.894094 -0.089857 -0.438774
0.203733 0.076763 0.287545 -0.264564 0.950144 0.165021
0.069985 0.148090 0.163980 0.868117 -0.247079 0.430495
0.319930 0.409341 0.237421 0.930330 0.025492 -0.365838
0.179139 0.134266 0.039432 -0.344989 0.068847 -0.936078
0.291227 0.493081 0.289061 -0.726908 0.012129 -0.686627
0.262014 0.920913 0.166666 0.001780 0.458414 0.888737
0.173403 0.956241 0.152767 -0.584491 -0.180785 -0.791004
0.285345 0.215291 0.436741 0.052812 0.890227 0.452445
0.218258 0.566167 0.247674 0.954685 0.042899 0.294509
0.151217 0.076763 0.348321 0.050841 0.998558 -0.017251
0.273723 0.929317 0.356726 -0.150025 0.504336 -0.850375
0.428609 0.215428 0.203034 0.434010 0.890858 -0.134191
0.371312 0.186701 0.449389 0.385666 0.620909 0.682447
0.247503 0.816829 0.198912 0.201439 0.189437 0.961008
0.095061 0.069105 0.151863 -0.557046 -0.741635 -0.373736
0.215194 0.180297 0.442288 0.123433 -0.824096 -0.552838
0.401297 0.076763 0.287335 -0.063171 0.997528 -0.030783
0.151483 0.221348 0.367515 -0.288087 0.917123 0.275484
0.277062 0.452392 0.321606 0.276868 0.007127 0.960881
0.187725 0.821962 0.216335 -0.837457 -0.190103 -0.512373
0.184213 0.059860 0.432798 -0.334382 -0.587404 0.736984
0.313106 0.489961 0.295577 0.835264 -0.008963 0.549776
0.216402 0.146308 0.468751 0.195432 -0.198534 -0.960412
0.200030 0.135627 0.033723 -0.256631 0.082160 -0.963011
0.242996 0.494582 0.299080 0.407649 0.012734 -0.913050
0.170508 0.055765 0.185122 0.197611 -0.967105 0.160178
0.184887 0.052238 0.372459 0.202671 -0.920408 -0.334325
0.226389 0.724498 0.325846 -0.456679 -0.113631 0.882345
0.310108 0.105204 0.031056 0.196400 -0.215305 -0.956593
0.351371 0.129063 0.044289 0.385887 0.018510 -0.922360
0.176347 0.943960 0.323398 0.623623 0.581606 -0.522331
0.323986 0.076763 0.127852 -0.056999 0.996261 0.064926
0.293173 0.051167 0.078983 0.149436 -0.539885 -0.828368
0.172260 0.076763 0.388455 0.084684 0.992307 -0.090307
0.125467 0.975000 0.205745 -0.895506 0.000257 -0.445048
0.369550 0.076763 0.296937 0.071438 0.997334 -0.014900
0.064601 0.199568 0.206875 -0.615715 0.763749 -0.193864
0.459568 0.077998 0.332562 0.619278 -0.753189 0.221813
0.310479 0.868698 0.177255 0.507109 -0.275545 -0.816649
0.310332 0.967692 0.124020 0.387008 -0.144386 -0.910702
0.414405 0.060287 0.369133 0.648793 -0.595223 0.474107
0.470068 0.085687 0.183808 0.689872 -0.675394 -0.260614
0.482088 0.105734 0.184096 0.921044 -0.209720 -0.328169
0.179016 0.201641 0.363455 0.243371 -0.915768 -0.319592
0.154540 0.064677 0.098240 -0.396521 -0.671301 -0.626200
0.227404 0.101841 0.027856 -0.148534 -0.247119 -0.957533
0.281818 0.392646 0.320323 0.353083 0.032619 0.935023
0.149532 0.171516 0.460674 -0.436405 0.461530 0.772361
0.464542 0.196077 0.296561 0.673782 0.726821 0.133226
0.101435 0.076763 0.225266 0.146948 0.987956 0.048467
0.207425 0.794008 0.202686 -0.665801 -0.144889 -0.731927
0.323423 0.344801 0.268180 0.992481 0.053128 0.110270
0.072701 0.113463 0.400741 -0.786289 -0.135158 0.602894
0.269603 0.134667 0.472928 -0.046127 0.125567 -0.991012
0.133206 0.183626 0.392884 0.347096 -0.858197 -0.378182
0.152544 0.962189 0.220556 0.710932 0.669548 0.215130
0.373468 0.228483 0.307326 0.304868 0.943520 0.129715
0.206026 0.769126 0.271904 0.968102 0.112819 -0.223719
0.238934 0.157334 0.257367 0.823258 0.562979 0.072803
0.433000 0.085697 0.210707 -0.493321 0.863144 0.107779
0.215914 0.157515 0.466917 0.175057 -0.467522 -0.866475
0.279378 0.947448 0.365316 -0.179603 0.598994 -0.780352
0.249368 0.803377 0.181317 -0.128133 -0.156025 -0.979407
0.254183 0.101278 0.307008 -0.053181 0.824937 0.562718
0.384551 0.076763 0.300660 0.001241 0.999369 -0.035484
0.239148 0.625689 0.195037 -0.304661 -0.068923 -0.949964
0.341886 0.046305 0.384647 -0.375642 -0.745200 -0.550971
0.364010 0.079112 0.447068 0.323428 -0.752237 0.574050
0.441620 0.202258 0.341855 0.550025 0.789723 0.271680
0.283012 0.239652 0.315114 -0.281698 -0.625987 -0.727176
0.265767 0.971102 0.378668 -0.085872 0.709635 -0.699316
0.245361 0.142149 0.493101 -0.064147 0.149890 0.986620
0.167781 0.040744 0.416485 -0.382515 -0.624165 0.681249
0.141478 0.944552 0.205573 -0.869982 -0.217920 -0.442315
0.372907 0.221284 0.156462 0.299308 0.916623 -0.264984
0.346421 0.102134 0.082434 -0.364078 0.602173 0.710517
0.366909 0.055740 0.308251 -0.228666 -0.968020 -0.103195
0.362054 0.056162 0.269938 -0.286992 -0.957317 -0.034332
0.174056 0.942760 0.357077 -0.670615 -0.223453 0.707350
0.129405 0.200250 0.105475 -0.402304 0.769452 -0.496081
0.301658 0.891155 0.189645 -0.476346 0.342602 0.809764
0.217626 0.394209 0.256748 0.981149 -0.026997 0.191359
0.194963 0.841203 0.321480 -0.717300 -0.225717 0.659191
0.291659 0.160761 0.247250 0.436080 0.885261 0.161701
0.150041 0.222327 0.159879 -0.283829 0.920845 -0.267369
0.425949 0.078566 0.245402 -0.227350 0.973809 -0.002657
0.220342 0.655727 0.317631 -0.571978 -0.082589 0.816101
0.295243 0.057146 0.201489 -0.214785 -0.926315 0.309529
0.279232 0.076763 0.121722 -0.035733 0.998313 0.045753
0.258565 0.076763 0.357559 0.018820 0.988366 0.150927
0.118947 0.076763 0.328133 0.117871 0.992264 -0.038964
0.296393 0.115955 0.028181 0.145430 -0.110756 -0.983150
0.172375 0.910933 0.193392 -0.748285 -0.322134 -0.579913
0.214744 0.286127 0.306593 -0.674626 0.146073 0.723562
0.184181 0.179007 0.475039 -0.291997 0.532421 0.794522
0.149050 0.919083 0.290166 -0.922635 -0.292758 0.251073
0.265924 0.045076 0.110583 -0.017604 -0.753147 0.657617
0.082941 0.144055 0.141892 0.827273 -0.136419 0.544985
0.473488 0.114622 0.356380 0.908539 -0.123953 0.398990
0.404733 0.041087 0.302483 -0.600331 -0.778951 -0.181213
0.226149 0.055546 0.379330 0.059839 -0.972331 -0.225813
