0.887500 0.353399 0.706893 0.820169 0.359393 0.445150
0.723218 0.796203 0.425509 0.949481 -0.009944 -0.313665
0.244152 0.668870 0.506889 -0.951030 0.308240 0.023011
0.359942 0.809699 0.690391 -0.596051 -0.005106 0.802930
0.287685 0.186541 0.912621 -0.444307 -0.100579 0.890211
0.565678 0.191101 0.041814 0.135735 -0.076586 -0.987781
0.485910 0.874248 0.254310 -0.042732 -0.036394 -0.998423
0.230140 0.050093 0.164119 -0.362212 -0.856063 -0.368726
0.762527 0.035988 0.834402 0.469635 -0.755771 0.456348
0.572126 0.025000 0.746057 0.001138 -0.979193 0.202927
0.563236 0.429919 0.104502 0.142257 0.513051 -0.846488
0.359947 0.528326 0.800091 -0.353890 0.558029 0.750577
0.476663 0.117773 0.042623 -0.068715 -0.334196 -0.939995
0.784590 0.025000 0.283000 0.150387 -0.948013 -0.280454
0.157533 0.419203 0.722882 -0.730464 0.502335 0.462690
0.936912 0.305384 0.372747 0.934627 0.237958 -0.264289
0.922890 0.025000 0.511925 0.133849 -0.990995 0.003658
0.105269 0.294425 0.271203 -0.844472 0.210125 -0.492662
0.572520 0.763966 0.724862 0.308568 0.062252 0.949163
0.177410 0.146302 0.836602 -0.657256 -0.241140 0.714049
0.125448 0.214977 0.221372 -0.803470 -0.000156 -0.595345
0.663441 0.025000 0.247290 0.016739 -0.971543 -0.236271
0.608504 0.975000 0.397873 0.028548 0.981444 -0.189610
0.261138 0.084371 0.870541 -0.343905 -0.628418 0.697725
0.577275 0.918114 0.742635 0.259494 0.228318 0.938368
0.474682 0.580025 0.790901 -0.068414 0.508615 0.858272
0.573463 0.975000 0.339847 0.044094 0.941010 -0.335494
0.807602 0.274415 0.152512 0.657015 0.157128 -0.737321
0.062052 0.363169 0.475117 -0.922028 0.382153 -0.061834
0.350132 0.614747 0.272856 -0.492655 0.449697 -0.745027
0.376784 0.025000 0.428440 -0.145993 -0.988867 -0.028783
0.533250 0.788209 0.269099 0.142528 0.005593 -0.989775
0.557135 0.025000 0.187387 -0.036522 -0.961332 -0.272958
0.199845 0.151486 0.851632 -0.617104 -0.224902 0.754057
0.052033 0.239731 0.386275 -0.967031 0.065510 -0.246090
0.497405 0.523029 0.838432 -0.015609 0.561120 0.827588
0.414952 0.074960 0.071670 -0.222626 -0.667506 -0.710544
0.420917 0.025000 0.183125 -0.122545 -0.964039 -0.235822
0.407103 0.641846 0.747876 -0.323176 0.377353 0.867849
0.248269 0.662541 0.537721 -0.933318 0.328245 0.145506
0.204274 0.238672 0.139763 -0.630808 0.062951 -0.773381
0.898257 0.028630 0.645371 0.771357 -0.589666 0.239380
0.525528 0.570623 0.202092 0.066174 0.517953 -0.852845
0.730801 0.423016 0.834105 0.481532 0.506742 0.715080
0.485414 0.442171 0.896551 -0.041013 0.522456 0.851679
0.616543 0.975000 0.352199 0.102018 0.939783 -0.326191
0.802915 0.321014 0.840504 0.632557 0.277548 0.723076
0.484454 0.975000 0.383474 -0.107295 0.972427 -0.207059
0.092016 0.193754 0.278753 -0.881360 -0.074900 -0.466471
0.257339 0.831049 0.497174 -0.999747 -0.010440 -0.019949
0.179696 0.431424 0.259025 -0.682439 0.515879 -0.517828
0.168866 0.182459 0.163584 -0.702895 -0.113326 -0.702208
0.530545 0.329332 0.949445 0.056403 0.297832 0.952951
0.275003 0.134288 0.896963 -0.451322 -0.283645 0.846082
0.664209 0.396859 0.895728 0.328477 0.459312 0.825309
0.270361 0.561545 0.294724 -0.631738 0.528227 -0.567348
0.574724 0.975000 0.677975 -0.005322 0.918693 0.394936
0.757409 0.469213 0.223082 0.573793 0.553793 -0.603386
0.265969 0.643249 0.619532 -0.824096 0.376157 0.423524
0.763345 0.025000 0.600534 0.057165 -0.995659 0.073447
0.359014 0.672419 0.707670 -0.529421 0.303707 0.792133
0.239493 0.959669 0.541728 -0.535339 0.844268 0.024968
0.466336 0.975000 0.735717 -0.128365 0.876620 0.463746
0.888540 0.327178 0.276790 0.833867 0.294531 -0.466816
0.554636 0.975000 0.404648 -0.038483 0.985093 -0.167663
0.452388 0.025000 0.264705 -0.113053 -0.980101 -0.163159
0.448890 0.025000 0.895214 -0.000594 -0.938531 0.345193
0.040212 0.255152 0.451585 -0.988585 0.106408 -0.106659
0.479877 0.038160 0.928198 0.035064 -0.878047 0.477289
0.725839 0.025000 0.330777 0.032124 -0.987534 -0.154094
0.293459 0.149625 0.910934 -0.418391 -0.229670 0.878750
0.036482 0.213191 0.553466 -0.993384 -0.006302 0.114671
0.687795 0.758356 0.355418 0.787624 0.077472 -0.611266
0.540971 0.025000 0.262527 -0.067276 -0.981319 -0.180241
0.854229 0.501670 0.496349 0.813259 0.581901 0.000751
0.319875 0.975000 0.485537 -0.300368 0.952082 -0.057606
0.658867 0.638634 0.711011 0.559370 0.389764 0.731567
0.715279 0.975000 0.511520 0.097559 0.994853 0.027381
0.624287 0.975000 0.434818 0.025462 0.993742 -0.108760
0.343410 0.975000 0.535428 -0.286077 0.957970 0.021299
0.264193 0.698164 0.440398 -0.942316 0.235704 -0.237666
0.626364 0.539010 0.799493 0.317185 0.545064 0.776079
0.541513 0.025000 0.101469 -0.009943 -0.926222 -0.376848
0.233584 0.025000 0.345541 -0.216467 -0.973223 -0.077319
0.334054 0.109055 0.075915 -0.361374 -0.407357 -0.838731
0.296260 0.025000 0.779330 -0.134443 -0.965417 0.223373
0.896881 0.272330 0.730460 0.853974 0.151977 0.497626
0.459337 0.088030 0.942576 0.000161 -0.580289 0.814411
0.607363 0.025000 0.422994 -0.039056 -0.998103 -0.047592
0.346787 0.874404 0.308583 -0.610168 -0.029361 -0.791727
0.197136 0.465539 0.278332 -0.669917 0.553765 -0.494526
0.152056 0.180322 0.812531 -0.731957 -0.122422 0.670262
0.830918 0.491633 0.358147 0.757264 0.574167 -0.311260
0.228417 0.305909 0.134164 -0.572098 0.240733 -0.784061
0.493508 0.721263 0.255900 -0.025493 0.173694 -0.984470
0.489956 0.547542 0.818479 -0.031593 0.538578 0.841983
0.914326 0.025000 0.559425 0.384017 -0.918484 0.094436
0.028930 0.208233 0.485349 -0.999315 -0.023518 -0.028579
0.355804 0.487896 0.167316 -0.315348 0.570524 -0.758326
0.694947 0.946732 0.679400 0.687844 0.156246 0.708842
0.895785 0.358273 0.309463 0.842115 0.370122 -0.392240
0.306213 0.437208 0.154706 -0.412646 0.521408 -0.746898
0.245668 0.670975 0.510342 -0.952148 0.303427 0.036687
0.317719 0.025000 0.844059 -0.105354 -0.954113 0.280301
0.468118 0.504279 0.846328 -0.083473 0.583609 0.807733
0.330620 0.589631 0.271990 -0.511921 0.502180 -0.696960
0.547097 0.975000 0.701703 -0.029515 0.897007 0.441030
0.353106 0.417760 0.887005 -0.314053 0.494276 0.810594
0.662643 0.275716 0.933170 0.340878 0.159387 0.926498
0.533459 0.025000 0.889738 0.057123 -0.933643 0.353621
0.078107 0.062841 0.405962 -0.606616 -0.794203 -0.035474
0.187156 0.400161 0.792194 -0.652889 0.470982 0.593221
0.436459 0.025000 0.629107 -0.097152 -0.989659 0.105529
0.740659 0.641243 0.610491 0.841939 0.378984 0.384071
0.498898 0.025000 0.779367 -0.030477 -0.973016 0.228717
0.593969 0.083188 0.929538 0.248800 -0.603599 0.757474
0.161628 0.503218 0.426543 -0.789918 0.586450 -0.179183
0.668381 0.975000 0.309417 0.551908 0.584893 -0.594388
0.318448 0.025000 0.422074 -0.173162 -0.984451 -0.029508
0.394723 0.508541 0.827680 -0.251155 0.579139 0.775577
0.051279 0.329442 0.533789 -0.952363 0.298337 0.063240
0.878785 0.416649 0.669308 0.791107 0.492994 0.362086
0.369100 0.822322 0.301948 -0.540416 -0.008014 -0.841360
0.327895 0.025000 0.834699 -0.102832 -0.956624 0.272573
0.317064 0.317999 0.918169 -0.389606 0.267024 0.881422
0.386049 0.952600 0.738301 -0.347484 0.736196 0.580750
0.235317 0.456346 0.216499 -0.567105 0.539459 -0.622396
0.726529 0.504187 0.233906 0.530712 0.584987 -0.613298
0.455832 0.772626 0.270252 -0.189457 0.039771 -0.981083
0.962577 0.193763 0.546398 0.993639 -0.060717 0.094844
0.350853 0.087508 0.080459 -0.314670 -0.581900 -0.749917
0.287969 0.568260 0.719489 -0.598567 0.519016 0.610197
0.069329 0.360111 0.435104 -0.914348 0.377132 -0.147444
0.414953 0.169754 0.951440 -0.167343 -0.159626 0.972890
0.136025 0.465652 0.414333 -0.810408 0.552595 -0.194622
0.605725 0.321768 0.063546 0.231788 0.280319 -0.931502
0.367588 0.460950 0.857661 -0.297875 0.542743 0.785303
0.648041 0.025000 0.728021 0.045933 -0.979537 0.195952
0.507326 0.025000 0.379906 -0.087807 -0.993489 -0.072597
0.298930 0.025000 0.378575 -0.185406 -0.980951 -0.057962
0.276812 0.025000 0.408649 -0.193094 -0.980517 -0.036069
0.277692 0.760226 0.413129 -0.929907 0.071779 -0.360722
0.164836 0.079242 0.209057 -0.593746 -0.670864 -0.444305
0.736182 0.633679 0.377296 0.810758 0.400661 -0.426782
0.629884 0.899889 0.287148 0.549594 0.080681 -0.831527
0.099244 0.420572 0.571559 -0.852381 0.502865 0.143435
0.517806 0.975000 0.280459 0.031357 0.882343 -0.469562
0.485789 0.025000 0.817319 -0.019618 -0.963457 0.267142
0.755632 0.910938 0.507016 0.940350 0.337130 0.045666
0.785441 0.300488 0.857804 0.601588 0.226377 0.766058
0.677484 0.089775 0.088046 0.314811 -0.503249 -0.804758
0.273815 0.736191 0.417272 -0.931516 0.135093 -0.337680
0.420272 0.809212 0.723742 -0.337386 -0.006720 0.941342
0.396452 0.793805 0.288684 -0.434785 0.003401 -0.900528
0.550282 0.859015 0.263834 0.219506 -0.035086 -0.974980
0.265503 0.131719 0.890544 -0.470453 -0.292919 0.832389
0.601928 0.901826 0.731205 0.383908 0.063049 0.921216
0.581305 0.295507 0.052180 0.179063 0.213191 -0.960461
0.314850 0.933819 0.312462 -0.528561 0.593893 -0.606560
0.366397 0.338665 0.075751 -0.274972 0.321962 -0.905942
0.622900 0.975000 0.477220 0.010074 0.999322 -0.035414
0.275283 0.025000 0.698712 -0.160709 -0.973379 0.163422
0.847938 0.309417 0.798908 0.731298 0.248414 0.635211
0.524422 0.608461 0.225189 0.081632 0.462127 -0.883048
0.319795 0.543121 0.238352 -0.480686 0.549049 -0.683729
0.922950 0.046550 0.439999 0.414871 -0.894125 -0.168593
0.660902 0.806191 0.676617 0.671833 -0.025065 0.740279
0.127916 0.443351 0.626597 -0.809112 0.524753 0.264523
0.379646 0.025000 0.775901 -0.092933 -0.970418 0.222828
0.270172 0.169319 0.101024 -0.501406 -0.159007 -0.850475
0.814808 0.025000 0.514774 0.063530 -0.997974 0.003306
0.857186 0.269028 0.206408 0.767936 0.143800 -0.624176
0.716911 0.670671 0.627661 0.825748 0.307407 0.472907
0.412104 0.356162 0.072690 -0.176652 0.367536 -0.913078
0.611073 0.025000 0.694177 0.004159 -0.987886 0.155123
0.754427 0.649410 0.548305 0.918794 0.362152 0.157049
0.556281 0.805292 0.728188 0.235746 -0.013759 0.971717
0.923710 0.346708 0.621834 0.900745 0.342636 0.266942
0.870389 0.094078 0.745746 0.782535 -0.423789 0.456116
0.538566 0.343608 0.942403 0.072679 0.334479 0.939597
0.477050 0.450997 0.111829 -0.041985 0.533692 -0.844636
0.633431 0.668412 0.285777 0.492513 0.313782 -0.811771
0.416049 0.025000 0.191408 -0.125733 -0.965706 -0.227163
0.441343 0.212942 0.962394 -0.124634 -0.007234 0.992176
0.260859 0.710156 0.463358 -0.967652 0.204828 -0.147290
0.217722 0.025000 0.648325 -0.196443 -0.971979 0.129099
0.610207 0.737243 0.287264 0.451539 0.133369 -0.882227
0.611653 0.025000 0.842318 0.106461 -0.938507 0.328437
0.464773 0.504442 0.154497 -0.074851 0.584038 -0.808268
0.278781 0.025000 0.231259 -0.198168 -0.966122 -0.165340
0.774006 0.588665 0.425211 0.835520 0.501193 -0.225194
0.956499 0.255659 0.436264 0.985107 0.107960 -0.133826
0.203094 0.025000 0.272323 -0.231956 -0.964130 -0.129034
0.593112 0.176315 0.950562 0.211426 -0.134815 0.968052
0.639548 0.438478 0.873013 0.288857 0.517705 0.805322
0.688722 0.462614 0.173622 0.419574 0.549143 -0.722772
0.351087 0.975000 0.292774 -0.205314 0.902606 -0.378350
0.243513 0.149590 0.120855 -0.558003 -0.228798 -0.797674
0.539518 0.975000 0.552525 -0.088674 0.993418 0.072508
0.679255 0.816318 0.340933 0.750891 -0.025159 -0.659946
0.414357 0.025000 0.091241 -0.101394 -0.935615 -0.338149
0.822400 0.542967 0.492282 0.839503 0.543152 -0.014874
0.529781 0.170482 0.036835 0.054140 -0.147375 -0.987598
0.473783 0.025000 0.085268 -0.059268 -0.928937 -0.365462
0.844824 0.128370 0.194421 0.715970 -0.250316 -0.651712
0.836579 0.025000 0.510109 0.072938 -0.997336 -0.001125
0.512886 0.429615 0.906326 0.018562 0.508425 0.860906
0.385121 0.864005 0.714301 -0.480989 -0.031480 0.876161
0.595205 0.975000 0.665850 0.017579 0.926146 0.376754
0.597661 0.623346 0.246190 0.324080 0.422907 -0.846240
0.385220 0.923411 0.729296 -0.444807 0.446599 0.776335
0.704553 0.589413 0.294184 0.616945 0.496642 -0.610512
0.735675 0.975000 0.424775 0.373918 0.894980 -0.243301
0.402617 0.025000 0.505627 -0.127603 -0.991570 0.022498
0.761248 0.025000 0.796638 0.351805 -0.862311 0.364216
0.478439 0.025000 0.704788 -0.061782 -0.984850 0.162027
0.767887 0.025000 0.808078 0.409284 -0.825418 0.388807
0.684491 0.894453 0.671969 0.715336 -0.093140 0.692546
0.731350 0.706218 0.575991 0.929348 0.213801 0.300999
0.786014 0.222454 0.868772 0.610961 0.019849 0.791412
0.874527 0.136224 0.760695 0.807170 -0.243809 0.537618
0.954987 0.249391 0.574641 0.982373 0.091380 0.163075
0.805572 0.025000 0.751348 0.393851 -0.858632 0.328072
0.190974 0.354779 0.821905 -0.652172 0.360851 0.666677
0.871914 0.436642 0.348695 0.799374 0.513806 -0.311457
0.846979 0.351033 0.772188 0.730607 0.354756 0.583405
0.319222 0.975000 0.539472 -0.310132 0.950375 0.024606
0.545750 0.042677 0.924497 0.138218 -0.849885 0.508518
0.726635 0.975000 0.388555 0.567321 0.721558 -0.396864
0.738888 0.025000 0.663394 0.073983 -0.987607 0.138416
0.772220 0.610830 0.467492 0.882430 0.457797 -0.108352
0.089420 0.381545 0.622149 -0.869655 0.428218 0.245623
0.456678 0.116022 0.047487 -0.111740 -0.350151 -0.930004
0.437923 0.362436 0.930393 -0.141499 0.382803 0.912929
0.369581 0.686982 0.291950 -0.508548 0.265002 -0.819239
0.394252 0.025000 0.426526 -0.138125 -0.989924 -0.031180
0.637207 0.025000 0.251976 -0.002866 -0.975164 -0.221468
0.677949 0.750203 0.338087 0.735607 0.098566 -0.670200
0.558693 0.554434 0.803068 0.174243 0.536851 0.825488
0.801787 0.091086 0.166577 0.581603 -0.436071 -0.686717
0.850744 0.195024 0.811487 0.749926 -0.063752 0.658443
0.194836 0.025000 0.386047 -0.231505 -0.971734 -0.046246
0.916445 0.383027 0.591651 0.878112 0.433238 0.203038
0.944610 0.134203 0.596380 0.951742 -0.238746 0.192843
0.611727 0.975000 0.386067 0.044629 0.974165 -0.221385
0.855656 0.025000 0.717743 0.667196 -0.671348 0.322710
0.723506 0.559983 0.282947 0.614390 0.526801 -0.587371
0.276327 0.025000 0.601569 -0.175611 -0.979930 0.094329
0.679432 0.975000 0.695197 0.539968 0.443464 0.715384
0.696009 0.396531 0.124366 0.417235 0.463581 -0.781670
0.502054 0.975000 0.633611 -0.129000 0.966545 0.221699
0.050616 0.325140 0.461700 -0.953608 0.287822 -0.088268
0.055166 0.079735 0.515162 -0.737218 -0.672125 0.068971
0.904394 0.170233 0.721522 0.874992 -0.137826 0.464104
0.103306 0.032657 0.659967 -0.304686 -0.937954 0.165558
0.746943 0.025000 0.832231 0.396984 -0.821346 0.409626
0.385902 0.025000 0.827483 -0.075259 -0.960475 0.268001
0.534799 0.025000 0.083627 -0.000840 -0.915862 -0.401492
0.281010 0.422230 0.842306 -0.470007 0.505495 0.723580
0.516752 0.252682 0.033237 0.038182 0.099052 -0.994349
0.545658 0.963128 0.760545 0.094996 0.658340 0.746703
0.474716 0.328616 0.049179 -0.045390 0.295630 -0.954224
0.422624 0.182233 0.954614 -0.155205 -0.115515 0.981105
0.569719 0.025000 0.121126 0.008872 -0.929561 -0.368560
0.462493 0.599021 0.775596 -0.122376 0.486015 0.865340
0.155797 0.025000 0.281184 -0.253021 -0.960160 -0.118631
0.045759 0.223866 0.406657 -0.979335 0.023389 -0.200888
0.535906 0.025000 0.851828 0.036978 -0.948783 0.313756
0.218888 0.025000 0.229376 -0.225474 -0.960725 -0.161766
0.717008 0.975000 0.535784 0.101274 0.991875 0.076986
0.687659 0.859351 0.344318 0.774891 -0.071100 -0.628083
0.759854 0.025000 0.433871 0.033313 -0.998170 -0.050475
0.593917 0.109574 0.060557 0.164739 -0.383307 -0.908811
0.715618 0.085302 0.885738 0.454661 -0.551667 0.699247
0.688107 0.651686 0.685921 0.662644 0.352279 0.660910
0.618573 0.025000 0.144771 0.052565 -0.926804 -0.371849
0.794848 0.104037 0.156518 0.588064 -0.366439 -0.721043
0.722402 0.820084 0.407875 0.924648 -0.045415 -0.378106
0.733992 0.883952 0.422240 0.944385 -0.122725 -0.305083
0.470766 0.025000 0.486351 -0.097852 -0.995188 0.005168
0.045790 0.265511 0.431236 -0.979304 0.134230 -0.151476
0.518119 0.771240 0.264594 0.072945 0.043202 -0.996400
0.589796 0.089624 0.067170 0.122543 -0.524314 -0.842662
0.640537 0.089268 0.077986 0.235219 -0.520397 -0.820889
0.859865 0.025000 0.634588 0.258036 -0.951367 0.168280
0.362725 0.842054 0.696861 -0.579199 -0.020309 0.814933
0.258358 0.975000 0.499563 -0.360327 0.931835 -0.042985
0.399323 0.416011 0.898046 -0.219776 0.497045 0.839431
0.700166 0.572458 0.276618 0.573735 0.517118 -0.635152
0.385961 0.859659 0.285796 -0.454657 -0.024109 -0.890340
0.176128 0.494178 0.649441 -0.745467 0.578830 0.330506
0.742890 0.025000 0.463809 0.026230 -0.999295 -0.026878
0.682573 0.800572 0.349740 0.774348 -0.009011 -0.632696
0.171547 0.211776 0.157620 -0.692765 -0.010956 -0.721081
0.632967 0.230992 0.945008 0.283205 0.042338 0.958124
0.297311 0.609021 0.307782 -0.643851 0.459786 -0.611599
0.745630 0.912944 0.556912 0.869337 0.371716 0.325698
0.670708 0.025000 0.775614 0.104999 -0.959369 0.261890
0.628508 0.049133 0.090504 0.130200 -0.769709 -0.624977
0.557653 0.272455 0.044319 0.127800 0.152443 -0.980014
0.184429 0.025000 0.745372 -0.194093 -0.960310 0.200332
0.200114 0.240058 0.857388 -0.641944 0.066149 0.763893
0.263004 0.871734 0.446109 -0.971309 -0.026016 -0.236395
0.745183 0.680560 0.463271 0.949116 0.281231 -0.141732
0.739631 0.914579 0.587345 0.906249 0.049206 0.419870
0.403419 0.643531 0.746468 -0.338329 0.372193 0.864295
0.482799 0.025000 0.487075 -0.092220 -0.995727 0.004925
0.188740 0.374178 0.187969 -0.637840 0.407355 -0.653623
0.404316 0.975000 0.624049 -0.234652 0.956179 0.175100
0.211257 0.085940 0.160518 -0.561207 -0.607940 -0.561655
0.265911 0.556802 0.295223 -0.636591 0.533564 -0.556832
0.546256 0.975000 0.660298 -0.066858 0.948077 0.310933
0.605824 0.681038 0.273709 0.400241 0.277318 -0.873443
0.541028 0.590010 0.219895 0.127888 0.500681 -0.856133
0.060029 0.137932 0.620627 -0.922601 -0.272416 0.273126
0.360388 0.975000 0.310297 -0.205707 0.916274 -0.343694
0.225298 0.597172 0.454954 -0.858987 0.490813 -0.145753
0.389272 0.194694 0.050849 -0.242808 -0.068672 -0.967641
0.261439 0.917458 0.404149 -0.830977 0.411582 -0.374268
0.425591 0.025000 0.850762 -0.043415 -0.955146 0.292936
0.758973 0.025000 0.423363 0.033294 -0.997657 -0.059766
0.392142 0.896842 0.274016 -0.372530 0.144685 -0.916672
0.567857 0.957642 0.245500 0.294001 0.602883 -0.741684
0.648507 0.025000 0.156058 0.082767 -0.921673 -0.379037
0.924836 0.068819 0.590709 0.885121 -0.441731 0.146403
0.612357 0.975000 0.339182 0.113349 0.925312 -0.361871
0.561948 0.025000 0.375180 -0.062046 -0.994846 -0.080201
0.584232 0.025000 0.740631 0.006761 -0.979984 0.198962
0.202549 0.025000 0.462321 -0.222076 -0.975016 0.005104
0.180381 0.330518 0.825734 -0.673597 0.299567 0.675668
0.535754 0.946184 0.758394 0.075249 0.534078 0.842080
0.448829 0.301117 0.953462 -0.114554 0.227099 0.967111
0.459276 0.439800 0.107173 -0.083291 0.523189 -0.848136
0.185735 0.025000 0.558204 -0.220662 -0.972798 0.070520
0.529534 0.025000 0.206969 -0.061894 -0.968959 -0.239348
0.453094 0.382203 0.926174 -0.109508 0.430282 0.896028
0.480173 0.025000 0.432991 -0.097938 -0.994676 -0.032062
0.621505 0.834659 0.294178 0.514992 -0.025978 -0.856801
0.393004 0.817388 0.712547 -0.451878 -0.008811 0.892036
0.137552 0.075633 0.254402 -0.639625 -0.698306 -0.321322
0.582118 0.099064 0.062014 0.121857 -0.458698 -0.880197
0.621967 0.691856 0.288156 0.482802 0.252090 -0.838661
0.904603 0.126349 0.288822 0.843170 -0.269539 -0.465202
0.650814 0.738139 0.686765 0.624004 0.131095 0.770346
0.280303 0.236875 0.908879 -0.471404 0.057665 0.880030
0.477257 0.544538 0.181942 -0.061601 0.544538 -0.836471
0.363996 0.025000 0.534739 -0.142474 -0.988801 0.044425
0.819062 0.532562 0.439355 0.813835 0.558426 -0.160726
0.488082 0.025000 0.841792 -0.003563 -0.955637 0.294526
0.222694 0.210326 0.874718 -0.592042 -0.016583 0.805737
0.729603 0.025000 0.342240 0.030911 -0.989516 -0.141075
0.330149 0.025000 0.650947 -0.143622 -0.981533 0.126352
0.972492 0.220619 0.508577 0.999722 0.014637 0.018477
0.303117 0.730387 0.636684 -0.810516 0.151981 0.565655
0.155580 0.169044 0.184505 -0.736606 -0.161398 -0.656782
0.480466 0.156186 0.963536 -0.025648 -0.203432 0.978753
0.477031 0.380762 0.068246 -0.037835 0.424749 -0.904520
0.591656 0.975000 0.381809 0.018127 0.974544 -0.223462
0.672414 0.426637 0.868105 0.357016 0.505895 0.785245
0.582192 0.504868 0.835296 0.184197 0.584505 0.790206
0.586862 0.694436 0.269466 0.340925 0.242457 -0.908286
0.377078 0.451116 0.132965 -0.259607 0.533524 -0.804957
0.427984 0.071571 0.929803 -0.023112 -0.709225 0.704603
0.537209 0.372723 0.068230 0.088614 0.406650 -0.909276
0.931125 0.345365 0.410995 0.922793 0.340544 -0.180231
0.796841 0.193058 0.140222 0.631762 -0.063191 -0.772583
0.705416 0.975000 0.640991 0.477238 0.667235 0.571875
0.381954 0.739140 0.707472 -0.484719 0.128962 0.865111
0.891487 0.238861 0.253425 0.846807 0.063787 -0.528062
0.131302 0.397276 0.706398 -0.778098 0.466767 0.420348
0.216722 0.236081 0.868534 -0.608436 0.055762 0.791641
0.207350 0.025000 0.799630 -0.173324 -0.955660 0.238062
0.536060 0.238107 0.964520 0.075185 0.060932 0.995306
0.888847 0.049536 0.686246 0.795925 -0.518952 0.311757
0.431141 0.192426 0.957682 -0.140184 -0.079390 0.986938
0.749874 0.362497 0.856184 0.519551 0.384508 0.763034
0.309835 0.025000 0.708820 -0.142704 -0.975171 0.169346
0.691368 0.025000 0.660939 0.037794 -0.991127 0.127433
0.316453 0.026702 0.119384 -0.178746 -0.941045 -0.287202
0.688337 0.717691 0.346990 0.763459 0.185024 -0.618786
0.673276 0.081567 0.911056 0.354970 -0.575272 0.736926
0.690554 0.896076 0.336817 0.775719 -0.030375 -0.630347
0.260445 0.592715 0.647014 -0.742713 0.498764 0.446779
0.476269 0.904157 0.249582 -0.018478 0.213519 -0.976764
0.539121 0.025000 0.898911 0.074341 -0.926437 0.369037
0.627451 0.025000 0.145671 0.064042 -0.923487 -0.378247
0.909521 0.414823 0.550405 0.860957 0.495384 0.115532
0.289639 0.777352 0.395215 -0.896943 0.027381 -0.441298
0.964216 0.155078 0.515645 0.982663 -0.183512 0.026410
0.449293 0.068167 0.066987 -0.146680 -0.714256 -0.684342
0.654296 0.975000 0.666288 0.209751 0.832919 0.512103
0.281488 0.880925 0.612334 -0.898773 -0.021811 0.437872
0.288937 0.655334 0.352649 -0.776098 0.348218 -0.525753
0.125746 0.461408 0.448033 -0.828371 0.547484 -0.118586
0.734552 0.743503 0.538640 0.981022 0.117119 0.154526
0.744471 0.103631 0.875363 0.528378 -0.423922 0.735599
0.632866 0.343498 0.077409 0.289381 0.333845 -0.897110
0.851368 0.482764 0.415405 0.799879 0.570841 -0.185297
0.564188 0.853672 0.732571 0.257454 -0.061709 0.964318
0.327955 0.975000 0.573510 -0.306712 0.948623 0.077736
0.213049 0.550441 0.630419 -0.770887 0.536097 0.343996
0.258833 0.446857 0.806735 -0.525270 0.532730 0.663544
0.894959 0.025000 0.373113 0.556058 -0.766808 -0.320631
0.250268 0.650034 0.569495 -0.896748 0.359184 0.258516
0.740043 0.963919 0.616379 0.850307 0.011634 0.526159
0.381790 0.521826 0.185006 -0.281498 0.563234 -0.776869
0.311501 0.952815 0.309076 -0.402821 0.773413 -0.489456
0.521660 0.025000 0.892403 0.050166 -0.933707 0.354507
0.355081 0.421590 0.884549 -0.311157 0.498748 0.808969
0.878854 0.054546 0.705379 0.774003 -0.534684 0.339164
0.639476 0.079750 0.081332 0.216205 -0.585810 -0.781077
0.222537 0.170963 0.868901 -0.580789 -0.157038 0.798764
0.332267 0.460109 0.158082 -0.360301 0.543915 -0.757852
0.276719 0.025000 0.786085 -0.142419 -0.963031 0.228667
0.234140 0.558522 0.347503 -0.740597 0.532166 -0.410262
0.267357 0.790425 0.473707 -0.993580 0.005092 -0.113017
0.830850 0.516062 0.436570 0.804457 0.574366 -0.151501
0.766444 0.512171 0.715047 0.634288 0.578516 0.512833
0.915412 0.365854 0.627147 0.878268 0.389710 0.277077
0.602518 0.478218 0.851004 0.226356 0.564500 0.793790
0.519260 0.320907 0.045020 0.047434 0.275696 -0.960074
0.718355 0.928174 0.365854 0.880236 0.060935 -0.470607
0.083993 0.287026 0.302949 -0.886604 0.188973 -0.422164
0.865880 0.187834 0.213940 0.780093 -0.084379 -0.619947
0.373553 0.696892 0.708262 -0.503244 0.239619 0.830258
0.104293 0.406363 0.353836 -0.819163 0.481769 -0.311240
0.663408 0.025000 0.706682 0.044522 -0.983652 0.174490
0.431697 0.025000 0.156070 -0.111447 -0.957281 -0.266821
0.629597 0.975000 0.513259 0.010732 0.999732 0.020498
0.412138 0.663675 0.259250 -0.324916 0.321410 -0.889452
0.377502 0.025000 0.488488 -0.140678 -0.989978 0.012349
0.091355 0.282561 0.290361 -0.874669 0.178094 -0.450817
0.357892 0.025000 0.240171 -0.159272 -0.972396 -0.170521
0.689421 0.667789 0.327168 0.699999 0.312424 -0.642179
0.366704 0.581866 0.757738 -0.388968 0.507001 0.769191
0.268987 0.025000 0.338528 -0.200471 -0.975977 -0.085323
0.680050 0.383311 0.891550 0.365689 0.430009 0.825448
0.941509 0.072438 0.517957 0.715994 -0.697746 0.022419
0.531300 0.285733 0.040431 0.071546 0.186408 -0.979864
0.287383 0.642794 0.346505 -0.759206 0.380453 -0.528073
0.726013 0.836966 0.414580 0.935154 -0.071102 -0.347031
0.732078 0.941920 0.618855 0.848747 -0.032429 0.527803
0.915770 0.377460 0.604774 0.878038 0.419382 0.230583
0.681229 0.770510 0.652125 0.766389 0.045446 0.640767
0.467114 0.181653 0.036092 -0.077643 -0.112608 -0.990601
0.122923 0.451121 0.424796 -0.826960 0.536877 -0.167035
0.624081 0.025000 0.732074 0.030809 -0.980050 0.196349
0.520430 0.215606 0.970623 0.043189 0.001603 0.999066
0.561765 0.333664 0.058752 0.139167 0.310588 -0.940302
0.295812 0.906067 0.646319 -0.819679 0.262286 0.509247
0.137605 0.482909 0.531701 -0.819603 0.569520 0.062433
0.144425 0.492642 0.529420 -0.812863 0.579644 0.057148
0.455085 0.025000 0.266531 -0.111810 -0.980460 -0.161853
0.848804 0.246643 0.188128 0.744930 0.083769 -0.661862
0.180190 0.323334 0.828743 -0.674207 0.281595 0.682751
0.130118 0.303584 0.234245 -0.787151 0.234646 -0.570381
0.903098 0.025000 0.425032 0.297865 -0.939126 -0.171227
0.517688 0.245752 0.032568 0.039701 0.080809 -0.995939
0.385799 0.549766 0.205117 -0.298118 0.535170 -0.790392
0.857177 0.405270 0.281155 0.752053 0.486043 -0.445173
0.697583 0.975000 0.410730 0.189124 0.957143 -0.219338
0.717555 0.975000 0.506781 0.100571 0.994721 0.020404
0.890373 0.323760 0.722669 0.830246 0.285422 0.478776
0.389815 0.481839 0.153326 -0.243505 0.567420 -0.786601
0.167878 0.481619 0.653673 -0.753330 0.565613 0.335524
0.288854 0.109313 0.899045 -0.379465 -0.417230 0.825788
0.722131 0.376149 0.867891 0.458558 0.417343 0.784570
0.125976 0.471973 0.484581 -0.830585 0.555263 -0.042556
0.744415 0.842284 0.498835 0.998419 -0.056013 -0.004678
0.711985 0.511006 0.230592 0.505110 0.579876 -0.639225
0.207558 0.550195 0.622129 -0.784049 0.533698 0.316914
0.945915 0.214182 0.637670 0.956101 -0.002473 0.293028
0.330540 0.810621 0.671815 -0.704990 -0.004045 0.709206
0.565781 0.764847 0.726170 0.281344 0.060131 0.957721
0.541988 0.463075 0.875104 0.086347 0.549011 0.831343
0.459539 0.165782 0.039670 -0.097490 -0.166626 -0.981189
0.278328 0.084678 0.881614 -0.307126 -0.622711 0.719656
0.812028 0.025000 0.420500 0.061339 -0.995526 -0.071878
0.594469 0.669537 0.262839 0.352449 0.305566 -0.884539
0.241363 0.025000 0.652678 -0.184760 -0.973970 0.131325
0.293672 0.224663 0.919161 -0.439476 0.025205 0.897901
0.604140 0.139428 0.943629 0.238630 -0.258887 0.935966
0.950353 0.099926 0.524908 0.921237 -0.387567 0.033374
0.320288 0.025000 0.157896 -0.171297 -0.955002 -0.242132
0.632652 0.975000 0.273829 0.461105 0.602068 -0.651841
0.138373 0.308391 0.777631 -0.773465 0.246916 0.583768
0.551549 0.221558 0.036672 0.110604 0.017250 -0.993715
0.472168 0.828556 0.737085 -0.122127 -0.022008 0.992270
0.179581 0.341411 0.179520 -0.662450 0.326496 -0.674211
0.776206 0.434251 0.204578 0.591540 0.515196 -0.620205
0.275844 0.558968 0.717422 -0.614280 0.527846 0.586548
0.904998 0.044376 0.358601 0.710582 -0.600856 -0.366123
0.467287 0.025000 0.203424 -0.100519 -0.969282 -0.224474
0.673834 0.585012 0.270800 0.521871 0.507110 -0.685923
0.508988 0.355887 0.944025 0.009970 0.362412 0.931965
0.291071 0.975000 0.454876 -0.322422 0.940592 -0.106445
0.755380 0.625825 0.414211 0.861764 0.418335 -0.286983
0.055766 0.186196 0.370963 -0.958130 -0.101968 -0.267561
0.954480 0.264934 0.567822 0.979833 0.132689 0.149399
0.939272 0.271617 0.636090 0.943872 0.149585 0.294501
0.675505 0.975000 0.619813 0.154520 0.925799 0.344992
0.338153 0.540508 0.224393 -0.432326 0.551300 -0.713556
0.783224 0.025000 0.462564 0.045086 -0.998511 -0.030703
0.563674 0.025000 0.579177 -0.045174 -0.997017 0.062588
0.346314 0.975000 0.354820 -0.240446 0.934547 -0.262311
0.262624 0.304077 0.887870 -0.510180 0.235578 0.827176
0.741963 0.541683 0.713106 0.628668 0.548521 0.551272
0.697435 0.180258 0.921178 0.426870 -0.116657 0.896757
0.358724 0.934274 0.715589 -0.520389 0.572171 0.633889
0.864014 0.268138 0.783066 0.780172 0.141213 0.609418
0.862717 0.290160 0.219921 0.779885 0.199817 -0.593171
0.313466 0.254813 0.072621 -0.392730 0.104495 -0.913698
0.074592 0.265766 0.312870 -0.907065 0.132844 -0.399482
0.134985 0.467467 0.574263 -0.816182 0.554765 0.161501
0.289800 0.975000 0.422191 -0.317174 0.935606 -0.155056
0.728212 0.745593 0.432486 0.952441 0.111017 -0.283780
0.741263 0.505346 0.244293 0.562581 0.581488 -0.587685
0.662909 0.975000 0.684723 0.363405 0.678571 0.638340
0.343887 0.377973 0.095231 -0.315867 0.416098 -0.852696
0.895188 0.173842 0.263188 0.844858 -0.128287 -0.519382
0.166704 0.419554 0.736812 -0.710918 0.502774 0.491747
0.243767 0.381716 0.156236 -0.528670 0.431214 -0.731138
0.933828 0.348085 0.428677 0.926981 0.347196 -0.141991
0.285024 0.658450 0.639068 -0.785352 0.339499 0.517650
0.097774 0.424631 0.550115 -0.856302 0.506725 0.099877
0.642137 0.349441 0.081589 0.307904 0.347893 -0.885531
0.475143 0.628544 0.232812 -0.092856 0.413876 -0.905585
0.454073 0.025000 0.333286 -0.114311 -0.988032 -0.103567
0.334729 0.887280 0.313330 -0.643150 0.042869 -0.764540
0.472415 0.951577 0.238538 0.006026 0.678936 -0.734172
0.615335 0.185358 0.052986 0.241625 -0.095158 -0.965693
0.076778 0.035214 0.538514 -0.350262 -0.932150 0.091723
0.264268 0.944395 0.385756 -0.585722 0.721696 -0.368897
0.835752 0.227403 0.836402 0.705439 0.032408 0.708029
0.388772 0.025000 0.891686 -0.045813 -0.942675 0.330551
0.930611 0.118214 0.348740 0.887600 -0.307687 -0.342775
0.461475 0.315517 0.952945 -0.088038 0.263328 0.960681
0.552031 0.025000 0.209530 -0.047353 -0.968589 -0.244117
0.895927 0.025000 0.463143 0.107914 -0.992867 -0.050696
0.300376 0.025000 0.392154 -0.183715 -0.981767 -0.048803
0.247886 0.217604 0.891049 -0.539961 0.006773 0.841663
0.142262 0.112723 0.221607 -0.745998 -0.391888 -0.538433
0.365566 0.338674 0.075930 -0.276691 0.321924 -0.905432
0.684291 0.773345 0.353334 0.781188 0.037753 -0.623153
0.348500 0.311638 0.069384 -0.313174 0.252427 -0.915534
0.342300 0.975000 0.702848 -0.292534 0.904746 0.309610
0.482087 0.975000 0.410470 -0.119066 0.979766 -0.160877
0.740064 0.115567 0.116632 0.486734 -0.314421 -0.815003
0.107850 0.287055 0.734535 -0.846201 0.191584 0.497232
0.753717 0.256065 0.115556 0.548173 0.109106 -0.829218
0.205865 0.550696 0.614440 -0.790565 0.534152 0.299481
0.081702 0.208685 0.708448 -0.895293 -0.021978 0.444934
0.355771 0.870322 0.303459 -0.576433 -0.027940 -0.816667
0.043173 0.170983 0.560187 -0.977400 -0.156626 0.141976
0.514777 0.025000 0.608444 -0.063409 -0.994226 0.086568
0.881999 0.440359 0.590161 0.827892 0.524746 0.198082
0.103773 0.439759 0.524718 -0.852035 0.521457 0.046026
0.057539 0.278668 0.383242 -0.952290 0.168733 -0.254309
0.836849 0.084122 0.791636 0.695263 -0.483844 0.531511
0.238714 0.218575 0.885072 -0.559808 0.009355 0.828569
0.305752 0.687994 0.651414 -0.763248 0.262168 0.590526
0.177364 0.511362 0.380813 -0.768380 0.574521 -0.281988
0.308051 0.725345 0.354413 -0.789905 0.165957 -0.590346
0.739408 0.025000 0.479356 0.025916 -0.999535 -0.016055
0.514278 0.025000 0.317074 -0.085154 -0.988772 -0.122799
0.341014 0.280831 0.066699 -0.332849 0.172887 -0.926996
0.256704 0.025000 0.611108 -0.183469 -0.977742 0.101783
0.606197 0.588709 0.767361 0.315337 0.495578 0.809299
0.517333 0.025000 0.704155 -0.041798 -0.985856 0.162299
0.793726 0.492961 0.698480 0.669022 0.583333 0.460577
0.422226 0.463020 0.867611 -0.175539 0.549920 0.816562
0.737383 0.025000 0.639909 0.058883 -0.992017 0.111512
0.387813 0.466276 0.857925 -0.254940 0.551241 0.794442
0.503022 0.975000 0.230648 0.073717 0.806244 -0.586972
0.742755 0.844069 0.510111 0.997410 -0.057849 0.042743
0.653022 0.841997 0.313168 0.638209 -0.042986 -0.768662
0.254349 0.945190 0.404897 -0.621339 0.726738 -0.292899
0.384534 0.423120 0.889601 -0.249952 0.504045 0.826718
0.672615 0.300267 0.928001 0.357040 0.221909 0.907347
0.865991 0.035634 0.287355 0.668537 -0.577839 -0.468146
0.498362 0.025000 0.373827 -0.092233 -0.992795 -0.076496
0.652968 0.025000 0.591807 -0.000188 -0.997725 0.067418
0.877133 0.068100 0.717363 0.777558 -0.511238 0.366114
0.213832 0.565436 0.599774 -0.805930 0.521366 0.280454
0.738797 0.806481 0.493406 0.999475 -0.019166 -0.026112
0.579707 0.975000 0.658703 -0.014005 0.940623 0.339164
0.643154 0.601219 0.262690 0.453974 0.481914 -0.749444
0.477637 0.633551 0.765835 -0.074613 0.400208 0.913382
0.752676 0.518146 0.271501 0.615276 0.569864 -0.544692
0.362032 0.544153 0.787627 -0.362965 0.543114 0.757155
0.544049 0.465754 0.872661 0.091160 0.552094 0.828783
0.611975 0.478827 0.848556 0.246200 0.564075 0.788166
0.375465 0.025000 0.655853 -0.121352 -0.984328 0.127951
0.756310 0.077714 0.143462 0.456460 -0.519325 -0.722458
0.331333 0.442647 0.856540 -0.370010 0.523447 0.767526
0.826678 0.508431 0.389569 0.776189 0.578051 -0.251768
0.144976 0.471315 0.608013 -0.796568 0.556665 0.235803
0.426177 0.031868 0.085466 -0.110381 -0.910708 -0.398029
0.041913 0.206581 0.424662 -0.986876 -0.029735 -0.158718
0.286444 0.944277 0.350963 -0.517966 0.714313 -0.470604
0.071937 0.338129 0.616439 -0.916158 0.321620 0.239197
0.342644 0.025000 0.595065 -0.146133 -0.985505 0.086172
0.351806 0.320284 0.928070 -0.319352 0.274208 0.907097
0.286527 0.651480 0.646201 -0.762738 0.357405 0.538974
0.743971 0.928455 0.583209 0.896241 0.128716 0.424481
0.304117 0.341329 0.100235 -0.405421 0.328206 -0.853179
0.400985 0.679250 0.268597 -0.372578 0.280234 -0.884678
0.890233 0.025000 0.515510 0.098281 -0.995159 -0.000276
0.893154 0.025000 0.468000 0.100492 -0.994100 -0.040822
0.124068 0.274675 0.237155 -0.807923 0.158734 -0.567507
0.665573 0.383444 0.900704 0.333771 0.427684 0.840050
0.553886 0.059017 0.071088 0.034169 -0.743199 -0.668197
0.771547 0.025000 0.445012 0.039119 -0.998310 -0.042978
0.653953 0.025000 0.477616 -0.013643 -0.999834 -0.012065
0.687373 0.904713 0.672123 0.716953 -0.049559 0.695357
0.252597 0.025000 0.392536 -0.205242 -0.977652 -0.045515
0.941393 0.161181 0.627677 0.952401 -0.154397 0.262857
0.247656 0.078259 0.140701 -0.498013 -0.665932 -0.555444
0.148816 0.112294 0.788397 -0.683059 -0.396107 0.613620
0.803762 0.496460 0.322084 0.705314 0.585881 -0.399093
0.317600 0.025000 0.289483 -0.179229 -0.975755 -0.125618
0.751809 0.896561 0.491898 0.999473 0.018308 -0.026824
0.829879 0.524139 0.539265 0.818825 0.565306 0.099772
0.701582 0.110328 0.905574 0.436203 -0.379719 0.815807
0.654475 0.975000 0.466176 0.045979 0.997671 -0.050382
0.755620 0.647468 0.453901 0.912838 0.367246 -0.178487
0.347053 0.129718 0.067859 -0.335498 -0.291058 -0.895950
0.240616 0.025000 0.810266 -0.153773 -0.956339 0.248533
0.173169 0.236988 0.159313 -0.689778 0.057796 -0.721710
0.748223 0.889536 0.483205 0.994325 -0.088558 -0.058955
0.725901 0.610908 0.345551 0.734201 0.459060 -0.500212
0.428200 0.975000 0.725871 -0.193243 0.896299 0.399131
0.128667 0.370960 0.720274 -0.793034 0.404530 0.455470
0.816679 0.025000 0.395294 0.073001 -0.991809 -0.104811
0.802602 0.536438 0.375001 0.777851 0.546849 -0.309685
0.746767 0.444102 0.194429 0.535681 0.529355 -0.657898
0.881393 0.361227 0.288870 0.815317 0.379762 -0.437081
0.249201 0.025000 0.350163 -0.209216 -0.974981 -0.075105
0.670805 0.593713 0.723546 0.520695 0.497841 0.693564
0.040090 0.158096 0.462108 -0.977392 -0.201426 -0.064284
0.336945 0.250826 0.063806 -0.343999 0.094168 -0.934236
0.783123 0.025000 0.260732 0.203633 -0.920680 -0.332990
0.319352 0.027621 0.882861 -0.101666 -0.937967 0.331485
0.705570 0.100195 0.101379 0.382906 -0.403231 -0.831136
0.234464 0.473649 0.232118 -0.577037 0.556423 -0.597848
0.288348 0.146551 0.907236 -0.428288 -0.240704 0.870994
0.670834 0.659717 0.305790 0.621372 0.334677 -0.708441
0.444592 0.025032 0.915847 0.008299 -0.930426 0.366385
0.087388 0.284437 0.297023 -0.881375 0.182620 -0.435692
0.388789 0.358838 0.078602 -0.225933 0.373610 -0.899650
0.129028 0.346916 0.262696 -0.786995 0.344858 -0.511577
0.713378 0.025000 0.171124 0.174762 -0.891980 -0.416929
0.277137 0.685065 0.391547 -0.868105 0.267614 -0.418063
0.229647 0.627596 0.488488 -0.909652 0.413338 -0.041036
0.703807 0.920465 0.346512 0.829194 0.070228 -0.554532
0.312817 0.975000 0.584513 -0.322604 0.942009 0.092448
0.855114 0.175593 0.800185 0.764527 -0.126513 0.632055
0.060833 0.121215 0.614522 -0.907597 -0.329173 0.260601
0.060273 0.165895 0.638391 -0.935572 -0.173929 0.307333
0.049282 0.157925 0.418550 -0.966657 -0.202757 -0.156410
0.689561 0.946112 0.687581 0.661415 0.181184 0.727807
0.880807 0.463948 0.511790 0.837047 0.546004 0.035116
0.558883 0.437808 0.890498 0.122795 0.521975 0.844075
0.455648 0.049116 0.927206 0.010455 -0.834380 0.551091
0.935874 0.091721 0.420930 0.783391 -0.584108 -0.212405
0.731176 0.653933 0.616705 0.840527 0.348475 0.414825
0.309633 0.711527 0.651226 -0.768105 0.201286 0.607864
0.600715 0.872013 0.275523 0.418213 -0.050308 -0.906955
0.783607 0.025000 0.299643 0.123566 -0.961384 -0.245911
0.117476 0.025000 0.373251 -0.266378 -0.962575 -0.049927
0.263356 0.763818 0.483359 -0.995852 0.062699 -0.065944
0.727650 0.025000 0.309248 0.040506 -0.982546 -0.181558
0.775811 0.553428 0.643835 0.751491 0.535625 0.385185
0.634269 0.902855 0.289078 0.568887 0.102424 -0.816013
0.338986 0.314639 0.072512 -0.332175 0.259222 -0.906898
0.381486 0.545768 0.203026 -0.303951 0.538487 -0.785904
0.783704 0.291798 0.860172 0.600145 0.203970 0.773448
0.136648 0.162463 0.215757 -0.784478 -0.185922 -0.591631
0.664862 0.094545 0.081129 0.296042 -0.477956 -0.826993
0.494502 0.975000 0.693314 -0.121070 0.923824 0.363167
0.214683 0.025000 0.206289 -0.227633 -0.957308 -0.178168
0.688933 0.025000 0.477423 0.002511 -0.999894 -0.014324
0.721677 0.204412 0.090741 0.472102 -0.030546 -0.881015
0.111987 0.431470 0.593262 -0.835506 0.514696 0.192400
0.048318 0.144577 0.431054 -0.960102 -0.249620 -0.126071
0.115327 0.262354 0.751922 -0.833214 0.126673 0.538245
0.722754 0.731016 0.595886 0.909156 0.148003 0.389270
0.072120 0.291975 0.322735 -0.904365 0.200125 -0.376926
0.483441 0.432555 0.903348 -0.045136 0.512015 0.857790
0.268753 0.818481 0.549581 -0.979832 -0.006068 0.199731
0.413642 0.025000 0.315312 -0.133814 -0.984438 -0.113910
0.059749 0.309266 0.609088 -0.941948 0.248542 0.225743
0.641979 0.122946 0.066397 0.280598 -0.293937 -0.913710
0.131139 0.025000 0.341340 -0.262615 -0.962185 -0.072336
0.624995 0.575186 0.768841 0.355980 0.511799 0.781882
0.608865 0.975000 0.573160 -0.015642 0.992384 0.122188
0.680394 0.579585 0.729754 0.533387 0.511615 0.673608
0.686030 0.377356 0.890338 0.379811 0.416524 0.825985
0.750609 0.572803 0.656908 0.729634 0.519192 0.445055
0.320359 0.121980 0.924038 -0.344750 -0.319452 0.882666
0.699965 0.975000 0.603220 0.196949 0.924191 0.327235
0.422312 0.185503 0.045042 -0.174103 -0.100152 -0.979621
0.649730 0.245471 0.939669 0.317266 0.080403 0.944922
0.456590 0.975000 0.307758 -0.096022 0.925636 -0.366029
0.380066 0.827950 0.294152 -0.491362 -0.010525 -0.870892
0.947864 0.082710 0.506068 0.764028 -0.645182 -0.000745
0.487720 0.025000 0.473367 -0.091093 -0.995831 -0.004794
0.811320 0.543005 0.439787 0.818990 0.548164 -0.169622
0.367200 0.025000 0.549835 -0.139497 -0.988728 0.054382
0.229194 0.557188 0.353448 -0.748597 0.532543 -0.394969
0.159799 0.113088 0.806202 -0.656854 -0.387337 0.646926
0.454699 0.025000 0.567599 -0.097391 -0.993372 0.061049
0.169500 0.496698 0.634075 -0.759936 0.578869 0.295649
0.333456 0.025000 0.309641 -0.171420 -0.978822 -0.111902
0.876090 0.199211 0.227387 0.806640 -0.049022 -0.589006
0.302222 0.238325 0.077383 -0.418838 0.061553 -0.905972
0.384622 0.025000 0.152381 -0.138325 -0.956072 -0.258442
0.667712 0.061632 0.905911 0.318038 -0.698746 0.640785
0.227541 0.587958 0.415344 -0.825571 0.501126 -0.259434
0.943726 0.146357 0.392206 0.946028 -0.214470 -0.242967
0.842252 0.025000 0.614540 0.142984 -0.983154 0.113857
0.710362 0.975000 0.415144 0.223759 0.948311 -0.225028
0.459687 0.633827 0.761953 -0.130797 0.401295 0.906562
0.075989 0.031709 0.528521 -0.323686 -0.943181 0.075079
0.047944 0.213324 0.607990 -0.972789 -0.005787 0.231621
0.643448 0.975000 0.350163 0.195422 0.904988 -0.377899
0.090695 0.025000 0.448276 -0.272275 -0.962217 0.002340
0.212114 0.348088 0.838273 -0.614122 0.346452 0.709101
0.373627 0.307944 0.936777 -0.273655 0.244303 0.930284
0.630566 0.039433 0.905425 0.235704 -0.828065 0.508676
0.689705 0.975000 0.683741 0.562364 0.444656 0.697156
0.871071 0.285600 0.232009 0.800382 0.188124 -0.569207
0.293155 0.345646 0.109092 -0.429258 0.340282 -0.836628
0.593691 0.636633 0.250337 0.321473 0.390441 -0.862677
0.916302 0.333293 0.324602 0.881479 0.305149 -0.360388
0.599555 0.663034 0.738124 0.359690 0.321413 0.875966
0.746045 0.675828 0.541062 0.943696 0.293722 0.152199
0.621001 0.061847 0.084156 0.139770 -0.701226 -0.699104
0.531726 0.632154 0.764388 0.120464 0.405572 0.906090
0.326609 0.551705 0.758504 -0.453312 0.540773 0.708571
0.256492 0.506860 0.247040 -0.557688 0.578962 -0.594801
0.287521 0.244932 0.087697 -0.452008 0.079473 -0.888466
0.381100 0.025000 0.739173 -0.102410 -0.976361 0.190344
0.938081 0.330698 0.417907 0.938121 0.303471 -0.166837
0.856407 0.248907 0.799409 0.761748 0.089730 0.641630
0.819160 0.062296 0.804491 0.625171 -0.593053 0.507394
0.241460 0.025000 0.344244 -0.212913 -0.973880 -0.078903
0.450013 0.975000 0.372213 -0.139818 0.963459 -0.228469
0.327664 0.757013 0.669180 -0.711664 0.080214 0.697926
0.764964 0.944224 0.502221 0.555757 0.830922 0.026494
0.574219 0.975000 0.736528 0.114430 0.772627 0.624463
0.082583 0.158357 0.301654 -0.892727 -0.199400 -0.404077
0.154034 0.419490 0.283010 -0.729097 0.502266 -0.464916
0.492187 0.975000 0.545044 -0.137140 0.989074 0.054094
0.812530 0.480471 0.686033 0.705128 0.568955 0.423184
0.197923 0.025000 0.545329 -0.216534 -0.974352 0.061251
0.922506 0.278990 0.688673 0.899646 0.167492 0.403216
0.961817 0.164446 0.532601 0.986233 -0.152970 0.062805
0.934844 0.118281 0.631271 0.923496 -0.281229 0.260891
0.281438 0.089784 0.114182 -0.445916 -0.576566 -0.684639
0.342318 0.876904 0.688936 -0.649886 -0.034110 0.759266
0.597449 0.546722 0.199307 0.254565 0.542325 -0.800675
0.682123 0.035374 0.114700 0.214840 -0.815466 -0.537456
0.732432 0.720680 0.437735 0.950723 0.176934 -0.254597
0.148833 0.078097 0.765011 -0.524502 -0.681983 0.509703
0.260462 0.528943 0.265638 -0.588114 0.557437 -0.585992
0.445290 0.025000 0.663062 -0.086869 -0.987696 0.130039
0.791640 0.075282 0.832995 0.593728 -0.561901 0.575981
0.167481 0.517741 0.450481 -0.810722 0.572219 -0.123676
0.927111 0.325299 0.356183 0.910564 0.287539 -0.296975
0.691209 0.025000 0.705996 0.064455 -0.981824 0.178511
0.289532 0.922207 0.643817 -0.784469 0.462597 0.413053
0.431756 0.975000 0.379467 -0.161556 0.962650 -0.217266
0.740785 0.507532 0.754107 0.553154 0.578804 0.599172
0.747518 0.575679 0.342172 0.721677 0.516499 -0.460880
0.606347 0.957532 0.744572 0.302793 0.513135 0.803125
0.790240 0.025000 0.707084 0.197614 -0.952976 0.229751
0.086756 0.121313 0.303549 -0.865119 -0.325583 -0.381530
0.521167 0.025000 0.580033 -0.065347 -0.995722 0.065333
0.952730 0.177889 0.583747 0.979195 -0.106784 0.172553
0.776586 0.093657 0.149419 0.532671 -0.428952 -0.729563
0.780256 0.183068 0.868882 0.607738 -0.108104 0.786745
0.627605 0.503401 0.826835 0.285254 0.580099 0.762965
0.953750 0.109284 0.525446 0.945976 -0.322217 0.036125
0.645371 0.430293 0.877926 0.297776 0.508037 0.808225
0.386133 0.025000 0.867535 -0.061861 -0.950702 0.303872
0.454052 0.673222 0.745994 -0.169253 0.300648 0.938597
0.712871 0.805457 0.603765 0.897571 -0.015246 0.440607
0.510215 0.760803 0.261626 0.040691 0.070405 -0.996688
0.235289 0.634668 0.525713 -0.912010 0.398640 0.096563
0.923012 0.095121 0.353779 0.805973 -0.469009 -0.361162
0.899546 0.392716 0.345338 0.836888 0.450999 -0.310189
0.785649 0.460466 0.755666 0.619176 0.545331 0.565009
0.882403 0.086258 0.721514 0.800080 -0.458028 0.387405
0.218886 0.602379 0.505316 -0.880648 0.473555 0.014273
0.699747 0.880394 0.641579 0.804313 -0.120173 0.581926
0.755822 0.496712 0.752905 0.570931 0.581150 0.579916
0.548123 0.566007 0.796613 0.141811 0.525353 0.838984
0.500643 0.025000 0.249880 -0.087097 -0.978745 -0.185667
0.838628 0.077967 0.215373 0.657035 -0.450426 -0.604501
0.511395 0.947593 0.236126 0.112978 0.617635 -0.778308
0.853598 0.470083 0.619179 0.786621 0.554353 0.271882
0.727282 0.848256 0.413903 0.933892 -0.088014 -0.346553
0.249204 0.951444 0.421908 -0.572666 0.783161 -0.242307
0.656692 0.200437 0.940192 0.337179 -0.049648 0.940130
0.718813 0.025000 0.609145 0.036544 -0.996086 0.080476
0.731897 0.808104 0.540331 0.984806 -0.018443 0.172674
0.806636 0.267853 0.150944 0.655569 0.139862 -0.742070
0.414839 0.349308 0.930456 -0.190271 0.350406 0.917068
0.141757 0.411799 0.708230 -0.758103 0.492974 0.426915
0.408045 0.744178 0.723244 -0.376715 0.113371 0.919365
0.881939 0.049519 0.697089 0.778725 -0.536836 0.324645
0.308306 0.246124 0.925357 -0.408725 0.081434 0.909017
0.344279 0.654864 0.705941 -0.557494 0.349210 0.753162
0.671972 0.025000 0.841382 0.194285 -0.911322 0.362967
0.401094 0.975000 0.325657 -0.169705 0.932549 -0.318674
0.794833 0.025000 0.786049 0.449357 -0.810579 0.375552
0.653341 0.332327 0.077530 0.330198 0.304075 -0.893592
0.207914 0.025000 0.725012 -0.187094 -0.964775 0.184946
0.519069 0.975000 0.259690 0.062073 0.848838 -0.524996
0.473552 0.025000 0.515111 -0.093917 -0.995277 0.024550
0.258977 0.652263 0.397627 -0.862380 0.349503 -0.366263
0.547956 0.025000 0.843499 0.040862 -0.950897 0.306798
0.283119 0.594719 0.679901 -0.673339 0.495798 0.548450
0.220839 0.414176 0.188966 -0.572146 0.493553 -0.655022
0.894685 0.125352 0.726535 0.846131 -0.266375 0.461635
0.788045 0.025000 0.220188 0.324541 -0.839582 -0.435632
0.250626 0.523049 0.726976 -0.615601 0.564942 0.549432
0.546984 0.665988 0.251512 0.166898 0.319453 -0.932789
0.213504 0.517761 0.324118 -0.697984 0.573249 -0.429189
0.533623 0.203606 0.033503 0.069029 -0.036171 -0.996959
0.937794 0.296127 0.371442 0.939259 0.214048 -0.268283
0.560602 0.852524 0.733182 0.243098 -0.059724 0.968161
0.493883 0.025000 0.578342 -0.078165 -0.994762 0.065877
0.695940 0.059374 0.113036 0.296877 -0.679685 -0.670740
0.740725 0.870679 0.464448 0.984561 -0.102487 -0.141905
0.394098 0.975000 0.593326 -0.243299 0.962458 0.120332
0.150757 0.339784 0.223667 -0.736487 0.326276 -0.592563
0.465922 0.169560 0.962146 -0.059617 -0.158287 0.985592
0.343297 0.707578 0.312544 -0.625003 0.211179 -0.751515
0.780553 0.244404 0.130940 0.603771 0.077916 -0.793341
0.243899 0.209538 0.888097 -0.547163 -0.019422 0.836801
0.486188 0.320014 0.043538 -0.021809 0.272908 -0.961793
0.729238 0.743225 0.564047 0.957728 0.117679 0.262505
0.685798 0.301856 0.078986 0.395873 0.226218 -0.890006
0.794642 0.578567 0.487255 0.860327 0.508743 -0.031909
0.723379 0.025000 0.626291 0.043667 -0.994427 0.095960
0.449851 0.025000 0.698467 -0.078299 -0.984696 0.155701
0.483138 0.143971 0.037428 -0.050781 -0.238211 -0.969885
0.313993 0.510240 0.213394 -0.437264 0.580853 -0.686593
