0.363266 0.513765 0.611083 0.059004 -0.211081 0.975686
0.143346 0.369830 0.355724 -0.939945 -0.341322 -0.001858
0.551486 0.558553 0.545513 0.714985 -0.055409 0.696941
0.223950 0.687968 0.620827 -0.380542 0.213100 0.899875
0.086294 0.556711 0.268766 -0.950676 -0.164190 -0.263167
0.659606 0.668514 0.404452 0.977506 -0.099031 0.186209
0.275304 0.026027 0.170977 -0.128488 0.908318 -0.398057
0.431506 0.085233 0.398051 0.906576 0.067036 0.416685
0.480232 0.672523 0.634564 0.437741 0.049024 0.897763
0.608855 0.694967 0.481620 0.828589 0.337004 0.447066
0.183362 0.032390 0.410857 -0.443098 0.889192 0.114022
0.207891 0.551754 0.116471 -0.535195 -0.170227 -0.827399
0.236044 0.918624 0.479371 -0.440888 -0.708770 0.550692
0.402656 0.541125 0.612820 0.224633 -0.182203 0.957258
0.146323 0.946849 0.384312 -0.592382 -0.793737 0.138076
0.400527 0.527510 0.607932 0.220817 -0.197365 0.955137
0.505839 0.616562 0.096396 0.500140 -0.100219 -0.860126
0.136325 0.759608 0.364858 -0.669078 0.740393 0.064438
0.456815 0.778311 0.494130 0.389121 0.743061 0.544467
0.396134 0.413089 0.563937 0.191107 -0.319792 0.928015
0.326320 0.971673 0.106475 -0.103981 -0.824659 -0.555991
0.281763 0.526943 0.604089 -0.228502 -0.196562 0.953494
0.145473 0.572071 0.551759 -0.696947 -0.147016 0.701892
0.372616 0.499845 0.603453 0.100432 -0.227075 0.968685
0.470336 0.177937 0.339262 0.986678 -0.127783 -0.100684
0.631448 0.609947 0.258794 0.938206 -0.140286 -0.316367
0.309643 0.141252 0.447416 -0.433006 -0.199538 0.879028
0.279959 0.675931 0.649127 -0.196500 0.065267 0.978329
0.241324 0.617033 0.068844 -0.373945 -0.098123 -0.922246
0.472543 0.743023 0.555058 0.339237 0.753768 0.562807
0.117593 0.450712 0.314548 -0.950558 -0.277265 -0.139874
0.256175 0.896079 0.465089 -0.498589 -0.579390 0.644761
0.460126 0.556415 0.094895 0.387829 -0.162371 -0.907317
0.105505 0.607303 0.185549 -0.840555 -0.110325 -0.530374
0.444171 0.288390 0.211293 0.545379 -0.294470 -0.784761
0.144954 0.758047 0.412811 -0.641454 0.740824 0.199289
0.339758 0.347300 0.545016 -0.087339 -0.328239 0.940548
0.103825 0.728615 0.265181 -0.711342 0.670664 -0.210247
0.578864 0.960282 0.341115 0.597305 -0.801484 -0.029176
0.563890 0.729635 0.492968 0.573832 0.718585 0.392876
0.544871 0.572874 0.558383 0.686033 -0.038871 0.726531
0.397315 0.029598 0.173469 0.152053 0.899688 -0.409196
0.267925 0.134933 0.288633 -0.755447 -0.200192 -0.623877
0.435215 0.972609 0.119193 0.152655 -0.822976 -0.547181
0.438587 0.911098 0.213226 0.379213 -0.667723 -0.640581
0.341891 0.744997 0.108818 -0.047844 0.730845 -0.680864
0.100537 0.715192 0.236523 -0.779189 0.539008 -0.319898
0.276789 0.932052 0.521621 -0.246786 -0.769090 0.589573
0.461052 0.795639 0.459584 0.540779 0.653156 0.530043
0.066728 0.589150 0.399754 -0.970548 -0.129813 0.202942
0.446044 0.662615 0.048206 0.279782 -0.050447 -0.958737
0.554044 0.610785 0.569774 0.683120 0.020979 0.730005
0.074533 0.552095 0.369887 -0.980667 -0.169283 0.098157
0.258953 0.162048 0.417946 -0.788952 -0.215193 0.575541
0.117053 0.548342 0.209744 -0.855097 -0.173169 -0.488693
0.549308 0.951387 0.430200 0.550909 -0.798301 0.243340
0.192259 0.596446 0.592934 -0.515814 -0.121908 0.847982
0.616353 0.723915 0.365033 0.820954 0.568492 0.053397
0.260882 0.075933 0.403780 -0.851369 0.353930 0.387175
0.645470 0.688760 0.382648 0.982639 0.141525 0.119964
0.310991 0.291866 0.185145 -0.202753 -0.296014 -0.933417
0.622028 0.629182 0.484500 0.880430 -0.069946 0.468989
0.356396 0.138530 0.453760 -0.001269 -0.203293 0.979117
0.356334 0.677337 0.662165 0.053158 0.081520 0.995253
0.117579 0.456131 0.305347 -0.945817 -0.272017 -0.177307
0.280675 0.621205 0.058314 -0.254644 -0.095241 -0.962333
0.531344 0.757579 0.235217 0.563930 0.743471 -0.359490
0.607293 0.709465 0.240450 0.800773 0.472649 -0.367919
0.255610 0.591192 0.075808 -0.337196 -0.126292 -0.932925
0.300186 0.614101 0.056709 -0.195208 -0.103060 -0.975332
0.498061 0.809439 0.352678 0.747626 0.663977 0.013769
0.111869 0.701360 0.504596 -0.750801 0.383252 0.537974
0.201294 0.374467 0.497816 -0.690956 -0.342346 0.636694
0.318809 0.265748 0.194829 -0.184403 -0.280212 -0.942060
0.630465 0.711796 0.353061 0.909889 0.414661 0.012590
0.411779 0.272024 0.199339 0.412248 -0.279116 -0.867264
0.148037 0.389116 0.410909 -0.907086 -0.339369 0.249044
0.276700 0.061887 0.442029 -0.489477 0.685855 0.538531
0.502969 0.629313 0.088782 0.482902 -0.086408 -0.871401
0.297451 0.644358 0.045396 -0.197283 -0.070640 -0.977798
0.196566 0.953133 0.191929 -0.436986 -0.799212 -0.412679
0.406174 0.413316 0.137359 0.265118 -0.316008 -0.910962
0.489097 0.311613 0.460872 0.730542 -0.335099 0.594994
0.103143 0.590259 0.497782 -0.835365 -0.128816 0.534390
0.453206 0.563458 0.610212 0.373987 -0.151449 0.914984
0.386119 0.882480 0.220657 0.238764 -0.492086 -0.837164
0.587185 0.967335 0.330830 0.569999 -0.819439 -0.060165
0.138250 0.391795 0.373130 -0.938013 -0.338466 0.074649
0.296065 0.361014 0.540956 -0.279481 -0.337607 0.898839
0.620554 0.586035 0.252309 0.926717 -0.153903 -0.342796
0.417914 0.283015 0.197614 0.430151 -0.286964 -0.855933
0.484533 0.907521 0.434191 0.580500 -0.705423 0.406692
0.289116 0.525608 0.094104 -0.247637 -0.197423 -0.948525
0.288734 0.513407 0.600352 -0.207748 -0.211184 0.955114
0.481545 0.212099 0.376715 0.942977 -0.245570 0.224699
0.620929 0.549791 0.381884 0.955748 -0.259901 0.137831
0.225348 0.655232 0.058546 -0.416486 -0.057526 -0.907320
0.395625 0.951706 0.557599 0.171493 -0.801713 0.572579
0.207081 0.308761 0.453814 -0.783889 -0.306663 0.539884
0.284155 0.614599 0.060133 -0.245257 -0.102380 -0.964037
0.583632 0.480812 0.272547 0.914923 -0.269313 -0.300642
0.311770 0.596690 0.060959 -0.162345 -0.121655 -0.979206
0.365565 0.439480 0.117683 0.074802 -0.287660 -0.954807
0.314153 0.860165 0.476454 -0.263602 -0.161467 0.951022
0.525516 0.527406 0.149252 0.636236 -0.195768 -0.746243
0.159228 0.718149 0.151786 -0.592101 0.570795 -0.568867
0.099379 0.534597 0.449086 -0.912682 -0.185430 0.364181
0.296206 0.217387 0.221429 -0.320094 -0.246030 -0.914882
0.496658 0.380615 0.197478 0.677965 -0.346323 -0.648401
0.610724 0.523191 0.380829 0.952036 -0.275422 0.133306
0.578806 0.459622 0.288179 0.918023 -0.304947 -0.253459
0.226948 0.903829 0.252729 -0.630895 -0.626605 -0.457533
0.490476 0.754758 0.520627 0.381973 0.774329 0.504491
0.307435 0.410645 0.135140 -0.166318 -0.319486 -0.932881
0.401097 0.933016 0.528270 0.178144 -0.778978 0.601214
0.162427 0.025463 0.306815 -0.387503 0.913343 -0.125085
0.348596 0.235669 0.201262 0.054306 -0.259536 -0.964205
0.405668 0.070848 0.256072 0.549480 0.490719 -0.676215
0.604782 0.674631 0.523700 0.810687 0.141492 0.568126
0.583704 0.703161 0.507092 0.715547 0.477984 0.509435
0.180514 0.960842 0.193326 -0.457998 -0.810050 -0.366139
0.531367 0.028895 0.378973 0.406001 0.912533 0.049458
0.189898 0.616475 0.600556 -0.511038 -0.100388 0.853676
0.520808 0.447055 0.514065 0.697011 -0.236924 0.676789
0.335233 0.191382 0.223792 -0.100917 -0.235068 -0.966726
0.252974 0.822754 0.452173 -0.626812 0.420449 0.655995
0.625033 0.629557 0.219133 0.888134 -0.091982 -0.450286
0.609921 0.730633 0.334024 0.771595 0.634164 -0.049783
0.241409 0.370627 0.178211 -0.473380 -0.344322 -0.810774
0.470461 0.920406 0.476877 0.447594 -0.761146 0.469378
0.161417 0.360710 0.282664 -0.879773 -0.335110 -0.337196
0.098602 0.572560 0.477847 -0.867423 -0.146974 0.475370
0.263342 0.795822 0.475939 -0.377844 0.733895 0.564475
0.138223 0.505736 0.492666 -0.796226 -0.219521 0.563768
0.279808 0.485559 0.111998 -0.283477 -0.238986 -0.928723
0.349279 0.297795 0.173735 0.050100 -0.296861 -0.953605
0.046329 0.635116 0.309247 -0.990951 -0.080725 -0.107233
0.216385 0.684045 0.078920 -0.461807 0.164343 -0.871622
0.458166 0.767626 0.184756 0.370206 0.747409 -0.551659
0.222663 0.037301 0.243628 -0.347395 0.872463 -0.343694
0.465945 0.838919 0.286360 0.859807 0.213237 -0.463964
0.478229 0.493859 0.134790 0.483934 -0.230804 -0.844119
0.299117 0.948427 0.147449 -0.186025 -0.794146 -0.578556
0.365503 0.582561 0.637589 0.085845 -0.137454 0.986781
0.434487 0.937142 0.176377 0.259391 -0.777321 -0.573139
0.444161 0.902441 0.227188 0.454246 -0.618432 -0.641251
0.618266 0.707156 0.425041 0.863983 0.430347 0.261409
0.293390 0.751201 0.568069 -0.156259 0.737035 0.657543
0.114908 0.474502 0.285504 -0.934159 -0.252313 -0.252358
0.152011 0.578451 0.559430 -0.664009 -0.140607 0.734386
0.341426 0.675585 0.663400 0.007634 0.059768 0.998183
0.325805 0.538271 0.618509 -0.076946 -0.184407 0.979833
0.596230 0.522169 0.256114 0.913785 -0.214372 -0.345025
0.049961 0.644297 0.277191 -0.975459 -0.070626 -0.208546
0.128008 0.507665 0.477763 -0.836442 -0.217217 0.503171
0.112861 0.660521 0.135555 -0.760816 -0.053214 -0.646782
0.338962 0.758100 0.132559 -0.052263 0.738705 -0.672000
0.417067 0.409424 0.141416 0.315420 -0.318433 -0.893930
0.417939 0.099670 0.296018 0.823113 -0.173440 -0.540744
0.444104 0.685879 0.634225 0.343639 0.194755 0.918685
0.134422 0.972814 0.465660 -0.472568 -0.825754 0.307911
0.263773 0.052925 0.253613 -0.374308 0.809420 -0.452475
0.240916 0.201749 0.421245 -0.807387 -0.240277 0.538882
0.356892 0.401273 0.568368 0.001904 -0.326998 0.945023
0.118722 0.462851 0.288921 -0.932421 -0.264713 -0.246003
0.056379 0.591672 0.358608 -0.990483 -0.126406 0.054449
0.482216 0.646618 0.067802 0.403798 -0.067016 -0.912390
0.489586 0.043002 0.410529 0.490419 0.850819 0.188672
0.274826 0.076369 0.274518 -0.612916 0.336257 -0.715028
0.422447 0.684557 0.640440 0.275819 0.177861 0.944611
0.316769 0.750483 0.574891 -0.090059 0.738126 0.668624
0.535775 0.713710 0.554678 0.537174 0.605722 0.586979
0.491901 0.968204 0.158922 0.300058 -0.820933 -0.485833
0.411380 0.689214 0.060990 0.168462 0.230691 -0.958333
0.571974 0.442072 0.288529 0.913177 -0.318336 -0.254501
0.553251 0.964473 0.460854 0.477374 -0.823142 0.307491
0.474699 0.855041 0.394415 0.941690 -0.044474 0.333528
0.191515 0.376322 0.215478 -0.693255 -0.347032 -0.631638
0.468954 0.060132 0.359485 0.620332 0.782945 0.046750
0.395017 0.109179 0.427889 0.454811 -0.237025 0.858467
0.043104 0.670999 0.289613 -0.986475 0.006794 -0.163771
0.629789 0.587946 0.289870 0.955953 -0.195261 -0.219150
0.205719 0.718144 0.123171 -0.469220 0.575068 -0.670171
0.613128 0.689847 0.483825 0.847101 0.273425 0.455696
0.141610 0.518024 0.506850 -0.772208 -0.206426 0.600902
0.411298 0.360927 0.539029 0.266358 -0.340459 0.901744
0.206838 0.773095 0.476459 -0.488997 0.748197 0.448423
0.044443 0.666374 0.435109 -0.954137 -0.045327 0.295918
0.189638 0.915236 0.399967 -0.688265 -0.687872 0.230486
0.158842 0.336690 0.339577 -0.942455 -0.321906 -0.090311
0.115104 0.637158 0.550386 -0.741516 -0.078354 0.666344
0.368410 0.679534 0.657370 0.093410 0.109839 0.989550
0.452977 0.197597 0.272856 0.789043 -0.238835 -0.566012
0.234170 0.924079 0.214346 -0.443287 -0.735516 -0.512360
0.258979 0.267126 0.479606 -0.547691 -0.281311 0.787971
0.119752 0.471255 0.428697 -0.915023 -0.253025 0.314184
0.362983 0.732653 0.090719 0.007257 0.705392 -0.708780
0.220316 0.713978 0.109555 -0.434386 0.529129 -0.728924
0.541168 0.351591 0.384279 0.925870 -0.339272 0.166313
0.527427 0.307434 0.359684 0.947007 -0.308302 0.090159
0.648789 0.660756 0.452280 0.936554 -0.074261 0.342566
0.267610 0.815987 0.465743 -0.524941 0.511017 0.680660
0.486572 0.728601 0.568938 0.385647 0.705163 0.594997
0.311042 0.031489 0.176143 -0.050680 0.893971 -0.445249
0.351350 0.403254 0.570428 -0.023530 -0.323405 0.945968
0.529455 0.953262 0.231465 0.474123 -0.801679 -0.364031
0.097829 0.556371 0.234402 -0.900514 -0.162874 -0.403171
0.516745 0.033604 0.306129 0.422977 0.903223 -0.072650
0.246135 0.636608 0.060038 -0.355770 -0.077700 -0.931338
0.473597 0.476841 0.559742 0.513036 -0.243181 0.823199
0.314370 0.434628 0.124117 -0.139930 -0.294720 -0.945283
0.219977 0.870897 0.372721 -0.924309 -0.344355 0.164537
0.238370 0.364438 0.515913 -0.546273 -0.341140 0.764990
0.473943 0.703950 0.603764 0.417710 0.440313 0.794759
0.280200 0.970216 0.580021 -0.117735 -0.822323 0.556708
0.080166 0.575667 0.262879 -0.950854 -0.143631 -0.274311
0.510837 0.596839 0.108526 0.528045 -0.121545 -0.840473
0.193394 0.431896 0.519131 -0.662280 -0.295693 0.688441
0.056127 0.602634 0.376349 -0.985294 -0.115071 0.126307
0.263682 0.557724 0.612072 -0.284834 -0.162784 0.944654
0.431335 0.920703 0.502205 0.332499 -0.748251 0.574078
0.176489 0.918907 0.341086 -0.706048 -0.707507 -0.030499
0.216974 0.363077 0.501867 -0.637375 -0.338897 0.692028
0.561234 0.462057 0.238681 0.856130 -0.269384 -0.440993
0.420441 0.945377 0.156673 0.193855 -0.788987 -0.583026
0.650311 0.647893 0.276069 0.959846 -0.126197 -0.250540
0.438091 0.206803 0.248811 0.661506 -0.244242 -0.709053
0.181249 0.349467 0.253654 -0.805172 -0.330775 -0.492226
0.634015 0.659535 0.211839 0.888081 -0.060183 -0.455731
0.566634 0.956123 0.384930 0.576643 -0.808437 0.117948
0.402085 0.243375 0.209729 0.367878 -0.263941 -0.891628
0.288490 0.877816 0.466320 -0.417673 -0.445087 0.792116
0.544979 0.382596 0.272819 0.882148 -0.348715 -0.316565
0.366453 0.724059 0.083454 0.017654 0.631321 -0.775321
0.152094 0.609720 0.573611 -0.629028 -0.107295 0.769942
0.477081 0.943894 0.507235 0.386172 -0.810110 0.441127
0.201552 0.974990 0.548357 -0.293215 -0.829671 0.475049
0.496608 0.928984 0.243436 0.524050 -0.761040 -0.382348
0.411738 0.260625 0.494052 0.352193 -0.287629 0.890634
0.460731 0.069892 0.344794 0.778136 0.627659 -0.023422
0.518646 0.602538 0.588389 0.593693 -0.043827 0.803497
0.175453 0.335503 0.274241 -0.854585 -0.317982 -0.410574
0.443289 0.269935 0.478978 0.575361 -0.331077 0.747895
0.430699 0.819268 0.464599 0.503266 0.407610 0.761956
0.315996 0.784773 0.514632 -0.129474 0.756048 0.641582
0.098766 0.522649 0.425506 -0.934096 -0.199849 0.295846
0.519162 0.780182 0.301501 0.610304 0.771812 -0.178426
0.284402 0.275630 0.499777 -0.422580 -0.281965 0.861349
0.511588 0.916717 0.301616 0.696802 -0.683661 -0.216965
0.487195 0.946241 0.504935 0.396835 -0.811397 0.429135
0.324102 0.771630 0.159891 -0.088689 0.748508 -0.657168
0.168633 0.374831 0.253333 -0.813146 -0.345274 -0.468594
0.544294 0.530661 0.162259 0.707248 -0.191727 -0.680471
0.474704 0.874903 0.307133 0.885128 -0.360769 -0.293928
0.087827 0.525224 0.381734 -0.968971 -0.198260 0.147608
0.073879 0.583582 0.421701 -0.952582 -0.135394 0.272498
0.413510 0.749860 0.130581 0.175026 0.735243 -0.654816
0.214625 0.936507 0.209440 -0.443188 -0.777032 -0.446996
0.209361 0.434200 0.168859 -0.582515 -0.294214 -0.757703
0.305707 0.253170 0.203392 -0.252904 -0.270709 -0.928847
0.318188 0.405950 0.134498 -0.114830 -0.324466 -0.938901
0.454642 0.251532 0.462574 0.650434 -0.321162 0.688324
0.481115 0.676632 0.629459 0.444486 0.101428 0.890025
0.412169 0.036212 0.192686 0.208858 0.874119 -0.438513
0.216746 0.891626 0.407277 -0.768985 -0.544908 0.334271
0.289965 0.657283 0.657165 -0.164124 -0.056859 0.984800
0.433553 0.554713 0.087819 0.278788 -0.166120 -0.945876
0.191156 0.930886 0.441463 -0.550866 -0.769471 0.323205
0.517682 0.747100 0.518995 0.455338 0.761819 0.460760
0.461521 0.915545 0.476738 0.446713 -0.742885 0.498567
0.459056 0.729470 0.584936 0.327832 0.690375 0.644910
0.122014 0.565535 0.189500 -0.825492 -0.155116 -0.542681
0.371211 0.082100 0.445549 0.088298 0.178138 0.980036
0.454613 0.288225 0.217896 0.591000 -0.294530 -0.750980
0.087388 0.521000 0.372658 -0.973692 -0.202803 0.103894
0.526815 0.304530 0.356769 0.952751 -0.295377 0.070843
0.122469 0.433196 0.375216 -0.950480 -0.296015 0.094674
0.387141 0.334436 0.532959 0.172381 -0.326136 0.929473
0.366200 0.057949 0.469649 0.055630 0.751890 0.656937
0.069105 0.689676 0.446331 -0.906826 0.235220 0.349768
0.423445 0.231794 0.472061 0.539303 -0.329643 0.774912
0.457184 0.866490 0.425239 0.766285 -0.351573 0.537777
0.424298 0.108052 0.399788 0.813605 -0.252845 0.523562
0.308220 0.750822 0.127083 -0.136963 0.737997 -0.660759
0.454032 0.969671 0.132493 0.208978 -0.820061 -0.532755
0.552185 0.967904 0.227142 0.463538 -0.820820 -0.333747
0.456339 0.922070 0.487891 0.399477 -0.763784 0.507004
0.300583 0.930994 0.526249 -0.167576 -0.769703 0.616016
0.139476 0.586035 0.552286 -0.704819 -0.132372 0.696927
0.477031 0.875058 0.317465 0.917017 -0.330014 -0.223989
0.198947 0.388993 0.195891 -0.635288 -0.337385 -0.694680
0.297382 0.029789 0.175092 -0.079126 0.899053 -0.430632
0.185997 0.284038 0.376938 -0.943639 -0.291854 0.156100
0.262756 0.058736 0.436352 -0.500649 0.734973 0.457346
0.422685 0.287800 0.500894 0.440470 -0.334559 0.833100
0.228946 0.048275 0.281621 -0.466452 0.830666 -0.304000
0.251419 0.201628 0.437969 -0.755937 -0.239101 0.609418
0.101982 0.497699 0.301832 -0.959691 -0.227962 -0.164395
0.513788 0.928868 0.428568 0.572457 -0.770134 0.281402
0.517559 0.784692 0.370008 0.605466 0.792923 0.068437
0.634476 0.651305 0.218476 0.895913 -0.069017 -0.438835
0.532413 0.347872 0.415071 0.894132 -0.334893 0.297280
0.130052 0.754725 0.323496 -0.667364 0.740478 -0.079483
0.494618 0.964233 0.167498 0.317625 -0.815389 -0.484000
0.588857 0.707773 0.490852 0.728025 0.510137 0.457973
0.289302 0.112967 0.420462 -0.694365 -0.185863 0.695207
0.428029 0.484006 0.114480 0.308597 -0.241037 -0.920146
0.372773 0.924623 0.525299 0.103831 -0.742579 0.661662
0.445360 0.405462 0.154236 0.429241 -0.320610 -0.844370
0.413227 0.737873 0.109592 0.151452 0.729673 -0.666813
0.097914 0.572132 0.476433 -0.870805 -0.147332 0.469032
0.186165 0.359202 0.237903 -0.761303 -0.338015 -0.553320
0.588646 0.478979 0.297935 0.929709 -0.298239 -0.216088
0.278770 0.928281 0.518294 -0.253615 -0.751234 0.609366
0.451253 0.629801 0.062271 0.304223 -0.085153 -0.948787
0.491836 0.581147 0.595623 0.529658 -0.111062 0.840909
0.148152 0.763683 0.384425 -0.656937 0.744955 0.116086
0.391261 0.478560 0.108134 0.149132 -0.248074 -0.957193
0.054239 0.608970 0.379053 -0.985104 -0.108356 0.133527
0.549195 0.366744 0.378395 0.927985 -0.348740 0.131239
0.184697 0.313381 0.277339 -0.855661 -0.304936 -0.418160
0.226180 0.364221 0.190962 -0.549062 -0.340309 -0.763362
0.377416 0.046928 0.488049 0.061115 0.835891 0.545483
0.269311 0.418683 0.140739 -0.325255 -0.305981 -0.894754
0.142060 0.729660 0.194923 -0.604435 0.683647 -0.409005
0.530874 0.355683 0.429691 0.857662 -0.351670 0.375160
0.465783 0.215853 0.278566 0.817964 -0.251363 -0.517447
0.232097 0.669760 0.644238 -0.346126 -0.006822 0.938163
0.573659 0.488875 0.460057 0.867039 -0.237650 0.437911
0.254417 0.122754 0.365627 -0.975302 -0.192531 0.108247
0.602700 0.585659 0.483868 0.857490 -0.122891 0.499609
0.417993 0.911841 0.199185 0.303309 -0.666434 -0.681080
0.110992 0.511069 0.246197 -0.895860 -0.210290 -0.391425
0.463788 0.419303 0.539749 0.490562 -0.306631 0.815675
0.577309 0.749879 0.323304 0.686469 0.722951 -0.078117
0.248488 0.159387 0.299807 -0.860022 -0.211668 -0.464283
0.329548 0.680604 0.655846 -0.027226 0.120793 0.992304
0.345526 0.116729 0.254359 0.040854 -0.187363 -0.981441
0.301261 0.516506 0.604418 -0.161935 -0.208072 0.964616
0.546204 0.360892 0.380198 0.927637 -0.345108 0.142791
0.440500 0.731737 0.590900 0.274794 0.700197 0.658948
0.374778 0.138660 0.449667 0.227738 -0.206495 0.951575
0.416033 0.642927 0.049163 0.189909 -0.072200 -0.979143
0.232696 0.604903 0.076802 -0.406916 -0.110868 -0.906713
0.159035 0.417522 0.461921 -0.828073 -0.311876 0.465864
0.215070 0.845105 0.351581 -0.994814 0.101054 0.011578
0.612501 0.627139 0.201022 0.854055 -0.094106 -0.511599
0.147904 0.460765 0.223951 -0.825988 -0.265809 -0.497080
0.317927 0.771698 0.538061 -0.117689 0.749596 0.651349
0.401059 0.858596 0.226160 0.384811 -0.132088 -0.913495
0.429280 0.483665 0.114904 0.314286 -0.241229 -0.918168
0.131911 0.693849 0.550096 -0.680207 0.286787 0.674590
0.303801 0.548691 0.081686 -0.197221 -0.173082 -0.964959
0.628568 0.582526 0.293927 0.956763 -0.204549 -0.206795
0.527401 0.762003 0.455998 0.563232 0.761172 0.321539
0.546225 0.734179 0.185412 0.514945 0.719210 -0.466443
0.581620 0.748117 0.328392 0.696714 0.714585 -0.062911
0.192533 0.306203 0.428441 -0.850671 -0.303635 0.429143
0.570311 0.502961 0.223480 0.839450 -0.226530 -0.493971
0.091683 0.549808 0.257258 -0.932278 -0.170599 -0.318989
0.429526 0.550760 0.610552 0.305912 -0.168733 0.936988
0.362718 0.229115 0.206969 0.126163 -0.256665 -0.958230
0.464400 0.331021 0.496719 0.583157 -0.336852 0.739228
0.488305 0.321443 0.470110 0.708882 -0.332820 0.621866
0.455696 0.401447 0.536696 0.458039 -0.326636 0.826746
0.117176 0.728472 0.233235 -0.676748 0.669967 -0.305215
0.621701 0.654473 0.195971 0.857018 -0.064930 -0.511180
0.228519 0.234342 0.427815 -0.810342 -0.260640 0.524798
0.248063 0.593357 0.622540 -0.325028 -0.123776 0.937569
0.338174 0.425944 0.577179 -0.063082 -0.301128 0.951495
0.257422 0.317533 0.504106 -0.506326 -0.311628 0.804065
0.437991 0.948295 0.539775 0.271740 -0.799578 0.535568
0.499437 0.445973 0.529555 0.636431 -0.260461 0.726028
0.495967 0.744170 0.160915 0.398191 0.733608 -0.550694
0.395008 0.385345 0.553299 0.178621 -0.348352 0.920188
0.086266 0.681288 0.499220 -0.846335 0.130748 0.516355
0.278206 0.084274 0.282621 -0.653869 0.117724 -0.747393
0.540381 0.425298 0.467135 0.808861 -0.303137 0.503838
0.201409 0.792551 0.301710 -0.624204 0.757001 -0.193181
0.168176 0.316224 0.338206 -0.945473 -0.309771 -0.100615
0.283625 0.216485 0.229849 -0.470055 -0.249512 -0.846636
0.473394 0.195777 0.318233 0.941434 -0.228621 -0.247858
0.331680 0.345471 0.542342 -0.123930 -0.328293 0.936411
0.381950 0.336699 0.164014 0.190825 -0.323907 -0.926644
0.586155 0.612600 0.529405 0.787708 -0.017497 0.615800
0.156028 0.952668 0.444628 -0.524661 -0.799370 0.292811
0.582689 0.672527 0.136768 0.715897 0.023627 -0.697806
0.383687 0.803356 0.494432 0.156127 0.657218 0.737353
0.238008 0.154030 0.353983 -0.977143 -0.210601 -0.028943
0.113551 0.698270 0.512674 -0.748106 0.344791 0.566971
0.569004 0.527415 0.495421 0.798837 -0.174209 0.575770
0.152551 0.544057 0.542861 -0.701062 -0.176944 0.690798
0.269945 0.490961 0.587139 -0.308480 -0.233673 0.922083
0.455382 0.490769 0.121767 0.411370 -0.232257 -0.881380
0.394495 0.894185 0.210322 0.243457 -0.565267 -0.788164
0.501694 0.755741 0.511564 0.441831 0.756148 0.482727
0.388262 0.518731 0.091678 0.130168 -0.205678 -0.969924
0.168971 0.315730 0.335712 -0.944191 -0.309807 -0.111905
0.468500 0.842932 0.408672 0.889995 0.111714 0.442075
0.414411 0.881126 0.465234 0.407243 -0.531340 0.742853
0.224467 0.270446 0.450596 -0.767192 -0.282488 0.575861
0.554503 0.417409 0.438781 0.876163 -0.315701 0.364240
0.103666 0.604772 0.509027 -0.819604 -0.113390 0.561598
0.630169 0.607215 0.257901 0.936798 -0.141675 -0.319902
0.267417 0.172805 0.262110 -0.618980 -0.220983 -0.753678
0.592661 0.727581 0.449914 0.682273 0.664250 0.305411
0.151214 0.647168 0.109015 -0.654050 -0.067723 -0.753414
0.257187 0.860766 0.446744 -0.681590 -0.171491 0.711355
0.505346 0.789489 0.387220 0.606896 0.779637 0.154414
0.396855 0.853359 0.225006 0.357053 -0.040924 -0.933187
0.321307 0.403795 0.134624 -0.099669 -0.326558 -0.939907
0.457859 0.294319 0.216843 0.599209 -0.298204 -0.742982
0.402067 0.105105 0.421362 0.554929 -0.268498 0.787377
0.222701 0.906488 0.444925 -0.597110 -0.640629 0.482757
0.196820 0.038153 0.409587 -0.474214 0.867572 0.149798
0.210023 0.425290 0.526532 -0.601938 -0.304314 0.738284
0.553517 0.954817 0.264981 0.546049 -0.798902 -0.252162
0.204163 0.509611 0.137927 -0.568973 -0.215433 -0.793636
0.158474 0.939263 0.387587 -0.604064 -0.784395 0.140822
0.569841 0.966472 0.259794 0.523287 -0.814265 -0.251283
0.245972 0.888158 0.252325 -0.618783 -0.526201 -0.583283
0.582640 0.670541 0.133211 0.711000 0.000674 -0.703191
0.336424 0.592144 0.057144 -0.073774 -0.126014 -0.989281
0.269650 0.428423 0.562360 -0.354959 -0.297168 0.886395
0.383110 0.042883 0.496506 0.058726 0.852098 0.520077
0.229375 0.180988 0.331225 -0.960800 -0.227123 -0.158995
0.364643 0.151091 0.457432 0.104734 -0.213839 0.971238
0.201664 0.397092 0.190509 -0.624269 -0.330017 -0.708080
0.464268 0.563833 0.605056 0.421804 -0.149597 0.894261
0.607671 0.556223 0.451828 0.913740 -0.171180 0.368480
0.605944 0.499723 0.337506 0.956996 -0.285725 -0.050189
0.504291 0.277494 0.402775 0.911999 -0.288569 0.291525
0.627240 0.550646 0.343099 0.966444 -0.255472 -0.026838
0.504568 0.423780 0.516255 0.661819 -0.277563 0.696387
0.147717 0.609589 0.570801 -0.643922 -0.107320 0.757526
0.129631 0.688551 0.143271 -0.733938 0.220216 -0.642526
0.203595 0.811907 0.340788 -0.825828 0.560785 -0.059400
0.071621 0.706798 0.314153 -0.890630 0.448472 -0.075177
0.623775 0.548709 0.331406 0.963236 -0.257748 -0.075782
0.390229 0.765798 0.545887 0.128756 0.748387 0.650644
0.477413 0.384019 0.183926 0.598570 -0.346645 -0.722185
0.469764 0.705525 0.604661 0.403471 0.453124 0.794915
0.171967 0.029474 0.307172 -0.411594 0.900458 -0.140589
0.417508 0.893834 0.220622 0.360921 -0.561229 -0.744821
0.449164 0.503127 0.586930 0.376004 -0.217442 0.900744
0.457397 0.207713 0.427408 0.737028 -0.324438 0.592900
0.082772 0.574445 0.253694 -0.937922 -0.144250 -0.315427
0.261194 0.749595 0.563201 -0.240592 0.729312 0.640484
0.623669 0.654263 0.199239 0.863187 -0.065291 -0.500645
0.417444 0.690632 0.635851 0.262497 0.254536 0.930756
0.262276 0.105261 0.332904 -0.948909 -0.181111 -0.258402
0.605569 0.722292 0.282019 0.775276 0.591966 -0.220280
0.490545 0.920810 0.249335 0.557259 -0.720243 -0.413174
0.086871 0.632184 0.502107 -0.847908 -0.083542 0.523519
0.205927 0.258987 0.287361 -0.863325 -0.271828 -0.425181
0.470518 0.182687 0.330799 0.964153 -0.192756 -0.182357
0.218718 0.844509 0.330982 -0.983820 0.113022 -0.139011
0.587796 0.745950 0.338317 0.712574 0.700805 -0.033321
0.496064 0.600094 0.097715 0.478940 -0.117678 -0.869924
0.230292 0.859671 0.407330 -0.889928 -0.151899 0.430063
0.424334 0.223307 0.467210 0.556154 -0.327613 0.763782
0.620871 0.532302 0.346722 0.963998 -0.265648 -0.011789
0.189992 0.656646 0.080232 -0.531134 -0.057318 -0.845347
0.574188 0.441295 0.399718 0.921844 -0.323447 0.213508
0.470856 0.026609 0.496845 0.256149 0.907991 0.331573
0.034490 0.672402 0.365896 -0.996319 0.022800 0.082640
0.279524 0.069963 0.434872 -0.606098 0.509241 0.610999
0.340011 0.780389 0.527757 -0.023435 0.751615 0.659185
0.468695 0.216624 0.282570 0.839123 -0.250879 -0.482631
0.220105 0.867312 0.373719 -0.941799 -0.286185 0.176388
0.463137 0.057480 0.397766 0.610042 0.755053 0.240302
0.591821 0.512430 0.253600 0.908627 -0.219816 -0.355075
0.431038 0.131925 0.408253 0.762259 -0.289480 0.578933
0.534446 0.931399 0.363350 0.668152 -0.742419 0.048863
0.267533 0.541675 0.092642 -0.310906 -0.179429 -0.933350
0.483704 0.728978 0.128686 0.354292 0.677305 -0.644775
0.522801 0.630499 0.598438 0.584626 -0.003475 0.811295
0.104241 0.721844 0.456628 -0.716555 0.606005 0.345408
0.411718 0.897930 0.487187 0.330020 -0.604556 0.724982
0.562694 0.970673 0.462972 0.478713 -0.826762 0.295463
0.099211 0.479311 0.352966 -0.969405 -0.245461 0.001630
0.607178 0.667227 0.532878 0.808252 0.063556 0.585396
0.340440 0.765136 0.144580 -0.046448 0.742279 -0.668479
0.513195 0.334593 0.440906 0.813959 -0.347446 0.465566
0.634630 0.669481 0.485457 0.894084 0.014000 0.447681
0.343178 0.029234 0.535864 -0.063579 0.900524 0.430133
0.184356 0.442430 0.518241 -0.686163 -0.283635 0.669875
0.517451 0.748447 0.515797 0.462908 0.760038 0.456134
0.599463 0.634854 0.174838 0.802839 -0.084522 -0.590175
0.382495 0.959289 0.127346 0.045053 -0.809603 -0.585246
0.191105 0.265722 0.364176 -0.953634 -0.280522 0.109041
0.497189 0.924697 0.446720 0.530949 -0.768289 0.357528
0.452948 0.143966 0.328544 0.967387 -0.150108 -0.204035
0.175016 0.560630 0.565751 -0.589591 -0.160097 0.791676
0.459582 0.613796 0.628623 0.381648 -0.095625 0.919348
0.578232 0.703414 0.515499 0.695311 0.488017 0.527619
0.297551 0.757305 0.141025 -0.163940 0.741609 -0.650492
0.128283 0.624818 0.562397 -0.703360 -0.091016 0.704983
0.568161 0.574803 0.168372 0.752117 -0.147131 -0.642396
0.587030 0.573729 0.199022 0.821827 -0.150756 -0.549430
0.633310 0.584376 0.311697 0.964025 -0.221931 -0.146294
0.264964 0.494496 0.587384 -0.327411 -0.229352 0.916624
0.345057 0.052411 0.219347 0.011367 0.809662 -0.586786
0.267357 0.489015 0.113446 -0.320597 -0.234452 -0.917742
0.216468 0.448128 0.158099 -0.547623 -0.280405 -0.788342
0.284487 0.157055 0.439849 -0.587401 -0.213661 0.780582
0.416397 0.362869 0.160448 0.336420 -0.336446 -0.879560
0.544695 0.735515 0.185436 0.506112 0.728411 -0.461810
0.269811 0.308709 0.507382 -0.457993 -0.304290 0.835255
0.175684 0.933444 0.423251 -0.584894 -0.771043 0.251778
0.106568 0.717475 0.230807 -0.754921 0.564793 -0.333322
0.138716 0.422479 0.427501 -0.898604 -0.302484 0.317828
0.479688 0.552016 0.590064 0.505980 -0.159933 0.847588
0.640782 0.624268 0.275124 0.954590 -0.146275 -0.259539
0.522628 0.452920 0.183750 0.705758 -0.273241 -0.653640
0.507221 0.713307 0.125910 0.455668 0.524822 -0.718978
0.519056 0.387999 0.474172 0.761153 -0.338599 0.553169
0.276700 0.777735 0.182452 -0.275333 0.745420 -0.607075
0.289830 0.641356 0.650879 -0.168636 -0.073973 0.982899
0.136113 0.408691 0.306265 -0.923479 -0.321459 -0.209407
0.475200 0.562148 0.597465 0.478253 -0.149711 0.865368
0.090916 0.520154 0.386478 -0.964420 -0.203581 0.168667
0.553049 0.760915 0.302932 0.631449 0.762909 -0.138715
0.224173 0.735574 0.568412 -0.315626 0.728043 0.608551
0.233838 0.047054 0.430764 -0.474286 0.836143 0.275531
0.537948 0.443128 0.215147 0.780981 -0.287997 -0.554190
0.121638 0.551257 0.200382 -0.838979 -0.170303 -0.516827
0.403087 0.043302 0.491403 0.158509 0.847051 0.507326
0.149339 0.353481 0.348682 -0.942795 -0.330135 -0.046360
0.245237 0.395294 0.164119 -0.437103 -0.334011 -0.835091
0.419619 0.961260 0.566491 0.214201 -0.812436 0.542278
0.407076 0.118662 0.425062 0.589066 -0.287491 0.755215
0.095016 0.547295 0.451941 -0.912878 -0.171892 0.370279
0.184730 0.920872 0.404353 -0.658481 -0.717492 0.227174
0.379287 0.553482 0.622980 0.144997 -0.169812 0.974751
0.494145 0.346754 0.481278 0.696577 -0.333608 0.635205
0.527567 0.779148 0.368579 0.613160 0.788030 0.055161
0.353561 0.615541 0.653305 0.036776 -0.100981 0.994208
0.404842 0.613988 0.641058 0.215211 -0.101220 0.971308
0.470880 0.888055 0.418690 0.711258 -0.573325 0.406707
0.348647 0.908006 0.186138 -0.003687 -0.645247 -0.763965
0.422153 0.263494 0.488914 0.484393 -0.335695 0.807882
0.636186 0.702097 0.368159 0.949345 0.306798 0.067959
0.472815 0.208537 0.403588 0.897887 -0.254190 0.359424
0.629469 0.709478 0.332008 0.913645 0.401524 -0.063487
0.368110 0.780484 0.525330 0.066594 0.753227 0.654381
0.517467 0.579498 0.578690 0.606866 -0.073711 0.791379
0.208190 0.672704 0.071548 -0.477072 0.026870 -0.878453
0.357625 0.485027 0.097999 0.038619 -0.239748 -0.970067
0.568436 0.414049 0.378307 0.933087 -0.338268 0.122162
0.555670 0.952046 0.292728 0.571852 -0.799845 -0.182301
0.353110 0.682833 0.657719 0.043479 0.148251 0.987994
0.604171 0.726600 0.293572 0.757856 0.627506 -0.178578
0.250253 0.275552 0.478416 -0.578071 -0.286745 0.763945
0.288412 0.435762 0.569598 -0.268633 -0.292713 0.917690
0.461174 0.247622 0.245428 0.740129 -0.267545 -0.616951
0.579292 0.603218 0.165602 0.763032 -0.117109 -0.635663
0.145084 0.571399 0.550662 -0.699356 -0.147807 0.699324
0.178168 0.965254 0.184930 -0.447054 -0.814832 -0.369041
0.184026 0.589892 0.584754 -0.545505 -0.129033 0.828115
0.174001 0.717644 0.142151 -0.556506 0.568545 -0.605853
0.264597 0.229401 0.235222 -0.560458 -0.257358 -0.787181
0.618043 0.571190 0.432030 0.935994 -0.182125 0.301241
0.194982 0.527982 0.135398 -0.587879 -0.195914 -0.784867
0.441355 0.141902 0.399942 0.855222 -0.248550 0.454773
0.478965 0.972884 0.556446 0.318104 -0.829301 0.459424
0.521875 0.921374 0.326200 0.707192 -0.697514 -0.115556
0.560029 0.451680 0.454847 0.858951 -0.278194 0.429897
0.088391 0.732111 0.343784 -0.714488 0.699505 0.014123
0.226628 0.223212 0.415813 -0.850318 -0.253567 0.461154
0.231854 0.954191 0.531534 -0.284763 -0.802344 0.524552
0.418719 0.830380 0.234041 0.493693 0.324364 -0.806880
0.122557 0.717752 0.493112 -0.673466 0.570961 0.469519
0.407988 0.245135 0.488576 0.334860 -0.272453 0.902019
0.313094 0.160930 0.242268 -0.280015 -0.212552 -0.936169
0.253217 0.204913 0.255608 -0.648602 -0.241037 -0.721953
0.063399 0.642394 0.472236 -0.906639 -0.071113 0.415870
0.409263 0.619791 0.056722 0.173934 -0.097190 -0.979950
0.475491 0.955931 0.169777 0.298402 -0.804781 -0.513111
0.167518 0.747556 0.495940 -0.521313 0.736117 0.431700
0.157194 0.766128 0.404851 -0.640544 0.745513 0.184154
0.230988 0.892006 0.268743 -0.701210 -0.554268 -0.448433
0.433440 0.044840 0.469857 0.286148 0.832011 0.475265
0.184799 0.577220 0.579476 -0.550492 -0.142608 0.822570
0.433798 0.854610 0.451907 0.627570 -0.182775 0.756802
0.304269 0.671860 0.658520 -0.115219 0.016655 0.993200
0.154615 0.689608 0.123922 -0.663803 0.233835 -0.710414
0.541742 0.376279 0.428776 0.874446 -0.351531 0.334321
0.218188 0.778916 0.223490 -0.488516 0.748581 -0.448306
0.331093 0.938174 0.155798 -0.071788 -0.782629 -0.618335
0.407268 0.869321 0.230419 0.415611 -0.315277 -0.853152
0.505296 0.705998 0.581731 0.499960 0.506680 0.702364
0.600838 0.612513 0.506091 0.834666 -0.055466 0.547956
0.496398 0.264656 0.411260 0.896886 -0.282536 0.340248
0.630506 0.624390 0.231609 0.911408 -0.097401 -0.399811
0.121280 0.591219 0.527191 -0.770660 -0.127987 0.624261
0.404975 0.957598 0.134974 0.099563 -0.806633 -0.582607
0.443038 0.608114 0.630118 0.334219 -0.103930 0.936748
0.172665 0.387152 0.237498 -0.777540 -0.343452 -0.526757
0.437497 0.452989 0.570199 0.347925 -0.272589 0.897019
0.639583 0.642752 0.237530 0.922903 -0.086614 -0.375165
0.467189 0.887138 0.422782 0.689282 -0.581578 0.432039
0.155718 0.577508 0.137744 -0.677158 -0.141914 -0.722023
0.202422 0.357408 0.485792 -0.718079 -0.333939 0.610613
0.236094 0.839054 0.417214 -0.842445 0.202028 0.499471
0.546932 0.510213 0.181113 0.740412 -0.215445 -0.636689
0.416722 0.068619 0.438028 0.471047 0.469470 0.746801
0.391763 0.156318 0.453524 0.314075 -0.215660 0.924580
0.085893 0.561887 0.437018 -0.933015 -0.157729 0.323427
0.395833 0.471753 0.111878 0.174404 -0.255510 -0.950946
0.206451 0.496878 0.556608 -0.530898 -0.228149 0.816147
0.384533 0.967588 0.115304 0.040327 -0.820504 -0.570216
0.187489 0.755675 0.501768 -0.481496 0.737630 0.473353
0.485416 0.614354 0.084503 0.435210 -0.101820 -0.894553
0.261164 0.459526 0.572688 -0.368804 -0.264344 0.891126
0.188398 0.029558 0.263472 -0.360495 0.899753 -0.245942
0.143440 0.514402 0.192333 -0.792963 -0.209886 -0.571977
0.262792 0.506269 0.107674 -0.331395 -0.216152 -0.918398
0.556214 0.945025 0.356512 0.639173 -0.768699 0.023660
0.066159 0.584481 0.389078 -0.976142 -0.134761 0.170252
0.565041 0.632882 0.572845 0.694029 0.063923 0.717103
0.222704 0.357312 0.196630 -0.572693 -0.335521 -0.747963
0.411046 0.385424 0.549622 0.253316 -0.347096 0.902970
0.530162 0.358509 0.433121 0.851797 -0.351904 0.388080
0.271741 0.430212 0.135644 -0.316445 -0.294775 -0.901649
0.327320 0.943790 0.148171 -0.091319 -0.790111 -0.606123
0.572442 0.545078 0.196485 0.799276 -0.180847 -0.573107
0.492501 0.955060 0.516920 0.384147 -0.817744 0.428633
0.398950 0.546160 0.083316 0.158462 -0.176461 -0.971469
0.579213 0.640754 0.560607 0.732812 0.065804 0.677241
0.123859 0.584019 0.173260 -0.802109 -0.135206 -0.581671
0.342550 0.582928 0.639831 -0.012095 -0.135756 0.990669
0.177601 0.523932 0.148209 -0.641071 -0.199590 -0.741074
0.107996 0.464003 0.333817 -0.962556 -0.262313 -0.068393
0.490750 0.548403 0.117879 0.492997 -0.173154 -0.852626
0.348494 0.445842 0.111822 0.016973 -0.279815 -0.959904
0.155017 0.727828 0.528244 -0.529192 0.664580 0.527531
0.436592 0.525285 0.598911 0.332425 -0.195559 0.922632
0.376106 0.675049 0.039442 0.051698 0.053887 -0.997208
0.201878 0.944285 0.205155 -0.451362 -0.787730 -0.419230
0.235507 0.555001 0.601388 -0.400344 -0.164246 0.901525
0.467101 0.637568 0.062836 0.358605 -0.075999 -0.930391
0.465366 0.240194 0.440978 0.724353 -0.326178 0.607389
0.500334 0.941779 0.216949 0.450615 -0.785171 -0.424797
0.189158 0.032790 0.276380 -0.398648 0.887674 -0.230466
0.253321 0.124176 0.335786 -0.963098 -0.192431 -0.188183
0.626863 0.706021 0.306054 0.909361 0.385208 -0.157093
0.379901 0.680509 0.045535 0.062300 0.120238 -0.990788
0.489271 0.807561 0.302353 0.734376 0.637066 -0.234178
0.130550 0.411099 0.326209 -0.940787 -0.317874 -0.117792
0.186194 0.419809 0.192227 -0.666942 -0.307133 -0.678865
0.494754 0.782767 0.441517 0.563515 0.751044 0.344070
0.486279 0.719607 0.578793 0.417453 0.626876 0.657844
0.217025 0.970245 0.149271 -0.349882 -0.824029 -0.445600
0.515520 0.723404 0.142130 0.456225 0.627393 -0.631060
0.102221 0.524142 0.443413 -0.916084 -0.196885 0.349324
0.231290 0.403402 0.529933 -0.535051 -0.326900 0.779010
0.492062 0.602957 0.605366 0.514444 -0.084157 0.853384
0.495402 0.583338 0.104921 0.487098 -0.135728 -0.862736
0.167007 0.622619 0.588896 -0.578145 -0.093912 0.810511
0.186899 0.913736 0.380497 -0.711131 -0.682822 0.167472
0.388510 0.248784 0.204266 0.237812 -0.269438 -0.933193
0.636705 0.606447 0.288188 0.959244 -0.176909 -0.220352
0.059976 0.674076 0.228905 -0.932178 0.042751 -0.359466
0.158600 0.755580 0.455454 -0.584542 0.738424 0.336217
0.387476 0.258215 0.499346 0.226874 -0.279649 0.932912
0.396565 0.329175 0.170708 0.257417 -0.318764 -0.912209
0.406133 0.358275 0.160099 0.293350 -0.335512 -0.895197
0.567838 0.752949 0.392934 0.655836 0.744221 0.126545
0.369552 0.798974 0.500042 0.096478 0.702427 0.705187
0.359517 0.784833 0.519729 0.042868 0.753582 0.655955
0.400065 0.730726 0.097738 0.112837 0.692595 -0.712446
0.578804 0.960508 0.359835 0.593808 -0.803845 0.035003
0.477589 0.728620 0.124527 0.337961 0.673451 -0.657454
0.240668 0.365608 0.181214 -0.483657 -0.341412 -0.805924
0.547053 0.551632 0.151766 0.694113 -0.168694 -0.699821
0.429181 0.192881 0.448782 0.621516 -0.318513 0.715729
0.224617 0.051048 0.303172 -0.530424 0.814917 -0.233584
0.474362 0.575222 0.095328 0.423378 -0.143346 -0.894541
0.449031 0.612783 0.068454 0.301606 -0.103362 -0.947813
0.368754 0.151195 0.242676 0.192560 -0.209123 -0.958743
0.475298 0.050811 0.304667 0.529562 0.830197 -0.174172
0.521127 0.714394 0.562957 0.506193 0.603201 0.616374
0.406114 0.353316 0.162279 0.294277 -0.332479 -0.896024
0.209226 0.493806 0.556954 -0.522197 -0.231255 0.820872
0.232264 0.574253 0.090985 -0.423422 -0.144100 -0.894399
0.139469 0.515144 0.198157 -0.812024 -0.208766 -0.545008
0.201642 0.793267 0.394822 -0.625073 0.754325 0.200693
0.258364 0.589115 0.623246 -0.283582 -0.129030 0.950228
0.229389 0.605575 0.620534 -0.388998 -0.110282 0.914614
0.325416 0.491424 0.099253 -0.101857 -0.234499 -0.966765
0.131542 0.954270 0.368011 -0.589396 -0.802811 0.090032
0.511416 0.035455 0.302465 0.429653 0.899551 -0.078785
0.587775 0.967131 0.334788 0.572393 -0.818470 -0.049725
0.178206 0.319093 0.289358 -0.896046 -0.310839 -0.316987
0.554351 0.423867 0.443719 0.869089 -0.308749 0.386470
0.167093 0.723799 0.153024 -0.552278 0.627624 -0.548705
0.305120 0.817628 0.214642 -0.260516 0.488434 -0.832805
0.243059 0.968405 0.136045 -0.299281 -0.819050 -0.489478
0.481356 0.820680 0.297913 0.826003 0.462521 -0.322169
0.482159 0.393697 0.516656 0.587973 -0.327687 0.739533
0.310407 0.667408 0.034946 -0.152712 -0.034230 -0.987678
0.460496 0.715645 0.099730 0.312798 0.543301 -0.779090
0.292950 0.468463 0.583568 -0.223675 -0.259001 0.939621
0.194436 0.735411 0.550440 -0.394533 0.728803 0.559634
0.411628 0.183693 0.243881 0.497862 -0.228038 -0.836739
0.169637 0.390285 0.240084 -0.789276 -0.339892 -0.511387
0.530334 0.338641 0.292645 0.908190 -0.325349 -0.263324
0.477431 0.832712 0.309661 0.899592 0.335247 -0.279900
0.227481 0.410340 0.168375 -0.512292 -0.319801 -0.797047
0.476271 0.763174 0.512545 0.371599 0.767493 0.522368
0.247022 0.027912 0.194064 -0.198694 0.905782 -0.374273
0.132605 0.428117 0.288235 -0.913255 -0.300504 -0.275068
0.258372 0.916222 0.490712 -0.368800 -0.696128 0.615948
0.077894 0.709411 0.298145 -0.868794 0.479438 -0.123837
0.072166 0.707454 0.314457 -0.886773 0.456214 -0.074184
0.369881 0.040695 0.504721 0.016361 0.859958 0.510102
0.251818 0.217352 0.249300 -0.627877 -0.248158 -0.737691
0.617379 0.722817 0.365063 0.828790 0.556972 0.053757
0.538289 0.508442 0.530443 0.711963 -0.139447 0.688232
0.335925 0.059170 0.230040 -0.037646 0.732979 -0.679209
0.225332 0.738982 0.136808 -0.364535 0.730354 -0.577665
0.095019 0.505745 0.318674 -0.969685 -0.219276 -0.107838
0.318632 0.808320 0.206737 -0.142058 0.604011 -0.784213
0.351796 0.218002 0.489814 -0.042324 -0.249813 0.967369
0.149861 0.767563 0.335434 -0.664806 0.745943 -0.040028
0.394711 0.870615 0.474210 0.317213 -0.344830 0.883441
0.389493 0.768804 0.157922 0.144970 0.747418 -0.648345
0.405378 0.670226 0.041426 0.150011 -0.002180 -0.988682
0.358312 0.283007 0.182205 0.095583 -0.289234 -0.952475
0.269710 0.092645 0.310544 -0.855345 -0.094226 -0.509417
0.101306 0.591978 0.496107 -0.839682 -0.126893 0.528046
0.226363 0.641548 0.064122 -0.418831 -0.072060 -0.905201
0.437233 0.030862 0.506316 0.191675 0.895085 0.402597
0.104420 0.670241 0.547323 -0.759142 -0.002255 0.650921
0.188713 0.950620 0.208447 -0.472921 -0.798011 -0.373529
0.263314 0.546719 0.091605 -0.322694 -0.173827 -0.930405
0.274397 0.778809 0.513034 -0.268034 0.747776 0.607444
0.147829 0.760476 0.406853 -0.644646 0.742939 0.180201
0.081894 0.571268 0.435693 -0.936614 -0.147872 0.317629
0.366145 0.193644 0.223389 0.148568 -0.234918 -0.960594
0.179558 0.769029 0.445944 -0.580328 0.745691 0.327359
0.219969 0.196531 0.342289 -0.965921 -0.235988 -0.106331
0.612495 0.692029 0.481003 0.843893 0.297389 0.446547
0.355717 0.425717 0.578242 0.002157 -0.301861 0.953349
0.402029 0.595730 0.634494 0.210579 -0.121734 0.969968
0.207158 0.896220 0.309244 -0.789112 -0.579428 -0.203875
0.526808 0.028127 0.407451 0.399940 0.911362 0.097300
0.403938 0.426712 0.567484 0.231174 -0.305204 0.923802
0.111383 0.666412 0.134079 -0.760378 -0.045243 -0.647903
0.623501 0.600949 0.239312 0.916476 -0.125496 -0.379899
0.543382 0.374935 0.280014 0.891047 -0.348035 -0.291388
0.356713 0.681377 0.658276 0.055163 0.130845 0.989867
0.561591 0.950577 0.329113 0.610272 -0.789022 -0.070807
0.450042 0.884653 0.445154 0.562192 -0.621565 0.545524
0.550108 0.728746 0.182225 0.546999 0.674940 -0.495224
0.147376 0.703746 0.143585 -0.662740 0.408054 -0.627908
0.524725 0.402180 0.223740 0.780219 -0.330429 -0.531107
0.085986 0.680961 0.499349 -0.846896 0.126691 0.516447
0.118725 0.631154 0.551811 -0.734373 -0.084707 0.673440
0.062284 0.675769 0.470913 -0.908730 0.062638 0.412658
0.227492 0.025836 0.498452 -0.286101 0.911955 0.294084
0.393092 0.036941 0.190131 0.172899 0.873797 -0.454516
0.439674 0.109491 0.337026 0.991754 -0.039875 -0.121792
0.302533 0.682941 0.051346 -0.188823 0.152062 -0.970167
0.461739 0.762974 0.177611 0.365428 0.744876 -0.558231
0.093612 0.652535 0.171791 -0.835931 -0.061889 -0.545335
0.403464 0.934843 0.530500 0.188180 -0.780830 0.595729
0.287322 0.125172 0.425420 -0.672912 -0.193813 0.713881
0.281253 0.951915 0.552808 -0.162067 -0.798552 0.579697
0.552392 0.529334 0.523107 0.744423 -0.127052 0.655509
0.203803 0.507525 0.139100 -0.571120 -0.217646 -0.791487
0.364272 0.200163 0.220084 0.138880 -0.238855 -0.961073
0.296605 0.773937 0.170237 -0.191437 0.748924 -0.634401
0.305203 0.958754 0.130602 -0.162862 -0.808497 -0.565516
0.145543 0.699678 0.140338 -0.675192 0.358589 -0.644616
0.140407 0.386314 0.373148 -0.936091 -0.344020 0.073372
0.143542 0.414477 0.264247 -0.868640 -0.309479 -0.386895
0.254618 0.201914 0.443325 -0.738689 -0.238563 0.630417
0.581063 0.741032 0.273754 0.646239 0.729310 -0.224681
0.461129 0.857687 0.279883 0.841680 -0.110345 -0.528582
0.500564 0.673282 0.078117 0.458028 0.033995 -0.888287
0.574446 0.688095 0.150712 0.706804 0.214820 -0.674003
0.268574 0.104412 0.312147 -0.865969 -0.177542 -0.467522
0.563073 0.553317 0.523406 0.761396 -0.098091 0.640823
0.307417 0.359228 0.156334 -0.173132 -0.337748 -0.925176
0.256455 0.554922 0.089919 -0.341675 -0.164683 -0.925277
0.654962 0.639820 0.310766 0.975727 -0.171615 -0.136033
0.291305 0.564723 0.078186 -0.233247 -0.155884 -0.959842
0.498047 0.376487 0.498725 0.665394 -0.331959 0.668621
0.299700 0.348453 0.536262 -0.266140 -0.330335 0.905565
0.263879 0.266650 0.482425 -0.526210 -0.280633 0.802713
0.400085 0.470007 0.585381 0.223946 -0.259749 0.939350
0.334272 0.583530 0.061025 -0.081870 -0.135322 -0.987413
0.159420 0.733928 0.174346 -0.534739 0.714904 -0.450518
0.469585 0.191598 0.309711 0.931859 -0.224596 -0.284948
0.503201 0.767096 0.478469 0.513736 0.752643 0.411831
0.544140 0.483299 0.503131 0.749987 -0.213507 0.626046
0.317113 0.946855 0.145809 -0.130190 -0.793893 -0.593957
0.112023 0.630430 0.158564 -0.796444 -0.085479 -0.598640
0.148951 0.601578 0.567956 -0.648687 -0.115904 0.752178
0.365436 0.070811 0.457578 0.031554 0.488301 0.872105
0.186100 0.272336 0.344321 -0.955826 -0.282229 -0.082115
0.121659 0.439323 0.382119 -0.948400 -0.289809 0.128642
0.150388 0.630299 0.117183 -0.665428 -0.085700 -0.741526
0.190870 0.343608 0.242988 -0.770823 -0.328447 -0.545851
0.324376 0.483360 0.102661 -0.104815 -0.243124 -0.964316
0.287241 0.432088 0.131386 -0.264565 -0.294668 -0.918246
0.560926 0.464736 0.462902 0.845744 -0.262829 0.464368
0.491223 0.222666 0.344488 0.986064 -0.158794 -0.049616
0.280470 0.631887 0.054148 -0.252971 -0.083807 -0.963837
0.142736 0.618622 0.127308 -0.692245 -0.097823 -0.715002
0.405558 0.318140 0.177649 0.298963 -0.310919 -0.902192
0.596988 0.538009 0.240726 0.897705 -0.188741 -0.398124
0.259411 0.927377 0.504846 -0.324554 -0.752717 0.572784
0.368751 0.472756 0.593706 0.075383 -0.255426 0.963885
0.320602 0.713571 0.622681 -0.054755 0.525575 0.848983
0.583823 0.463933 0.396506 0.929283 -0.310484 0.200080
0.362882 0.724474 0.616312 0.074360 0.635702 0.768345
0.093568 0.550288 0.450753 -0.915053 -0.168872 0.366280
0.475488 0.520380 0.578326 0.501307 -0.195449 0.842906
0.256047 0.754362 0.550443 -0.275407 0.735840 0.618620
0.250658 0.128380 0.339404 -0.970973 -0.194171 -0.139672
0.503715 0.394867 0.503673 0.672221 -0.310494 0.672096
0.524265 0.932497 0.283452 0.598725 -0.767955 -0.227538
0.366787 0.709681 0.069999 0.019397 0.480374 -0.876849
0.477319 0.719704 0.584203 0.398564 0.620345 0.675513
0.576831 0.571382 0.184557 0.788464 -0.152298 -0.595928
0.620966 0.721108 0.356304 0.848230 0.529102 0.023590
0.612831 0.722419 0.313014 0.811944 0.570757 -0.122409
0.503611 0.454665 0.530859 0.643884 -0.244162 0.725119
0.589138 0.744270 0.331551 0.710000 0.702170 -0.053453
0.212024 0.811178 0.397877 -0.780957 0.566995 0.261959
0.587608 0.505920 0.249033 0.900753 -0.222022 -0.373297
0.533641 0.030124 0.355654 0.412558 0.910874 0.010221
0.460023 0.390931 0.169949 0.514964 -0.339322 -0.787193
0.483356 0.781684 0.463042 0.528553 0.722995 0.444871
0.280772 0.330761 0.524104 -0.367124 -0.315894 0.874889
0.064636 0.583294 0.318325 -0.986518 -0.136378 -0.090456
0.418827 0.970621 0.118485 0.117011 -0.822875 -0.556044
0.442575 0.047178 0.242204 0.393126 0.832807 -0.389723
0.108490 0.508302 0.255500 -0.909100 -0.213652 -0.357617
0.181862 0.925042 0.411046 -0.632824 -0.737383 0.236222
0.429330 0.104126 0.388695 0.901284 -0.196812 0.385944
0.422719 0.738503 0.112953 0.178723 0.728574 -0.661240
0.424603 0.428222 0.563344 0.313488 -0.300780 0.900698
